# .PCD v.7 - Point Cloud Data file format
VERSION .7
FIELDS x y z rgb timestamp_ns device_id active
SIZE 4 4 4 4 8 1 1
TYPE F F F F F U U
COUNT 1 1 1 1 1 1 1
WIDTH 984
HEIGHT 1
VIEWPOINT 0 0 0 1 0 0 0
POINTS 984               
DATA ascii
-47.332947 31.950521 -0.9968116 10 3199615435480 1 0
-24.444975 20.243011 -0.92368263 27 3199615437784 1 0
-5.8303494 4.366157 -2.039068 5 3199615437784 1 0
-8.614752 7.1360335 -2.237306 3 3199615440088 1 0
-37.90127 28.391623 0 25 3199615440088 1 0
-27.841518 25.462929 -0.43924135 8 3199615442392 1 0
-12.2819 9.203089 -2.3876948 2 3199615442392 1 0
-16.756834 13.888752 -2.770325 6 3199615444696 1 0
-42.44585 28.68761 0.29775596 11 3199615444696 1 0
-20.803513 15.597965 -2.800802 12 3199615447000 1 0
0 0 0 85 3199615447000 1 0
-40.238655 30.179102 1.1704152 25 3199615449304 1 0
-27.8031 25.457514 0.43886882 15 3199615451608 1 0
-19.045446 17.4336 -2.4102256 2 3199615449304 1 0
-24.564497 18.429024 -2.1473832 4 3199615451608 1 0
-21.831793 18.116524 -2.3159583 60 3199615453912 1 0
-28.676388 19.405643 1.0076962 8 3199615453912 1 0
-35.946552 29.838104 0.81544626 17 3199615456216 1 0
-31.036797 21.00954 -2.4019895 9 3199615456216 1 0
-21.234812 19.460394 -1.677427 46 3199615458520 1 0
-28.384253 21.314081 2.0671911 7 3199615458520 1 0
-35.830544 29.759415 1.8976105 30 3199615460824 1 0
0 0 0 22 3199615460824 1 0
-24.23887 20.137794 -1.6515135 5 3199615463128 1 0
-28.398346 21.337585 4.36146 12 3199615463128 1 0
-26.752024 22.232315 2.83962 7 3199615465432 1 0
-46.767365 31.697626 -2.3017526 11 3199615465432 1 0
-23.782644 21.820795 -1.1271142 5 3199615467736 1 0
0 0 0 9 3199615467736 1 0
0 0 0 29 3199615470040 1 0
-28.153442 21.1728 -0.8197 15 3199615470040 1 0
-3.1491508 2.6256366 -1.911925 4 3199615490776 1 0
-47.270737 32.14929 -0.99785876 10 3199615490776 1 0
-5.815073 4.386482 -2.039068 5 3199615493080 1 0
-8.604849 7.1786246 -2.2412283 3 3199615495384 1 0
-37.600777 28.371964 0 24 3199615495384 1 0
-32.144966 29.605438 -0.5087619 10 3199615497688 1 0
-12.265474 9.257811 -2.3907692 2 3199615497688 1 0
-16.696066 13.936988 -2.7683046 6 3199615499992 1 0
-24.4018 20.351265 -0.9247299 16 3199615493080 1 0
-44.570507 30.350773 0.31340164 12 3199615499992 1 0
-28.504894 23.801405 -0.21583122 25 3199615502296 1 0
-20.723549 15.651313 -2.797375 12 3199615502296 1 0
-39.78208 30.054222 1.1601794 25 3199615504600 1 0
-19.086967 17.594452 -2.4232378 2 3199615504600 1 0
-28.155142 25.961111 0.44585347 10 3199615506904 1 0
-24.5032 18.517063 -2.1476624 4 3199615506904 1 0
-21.704182 18.138931 -2.3091238 60 3199615509208 1 0
-28.549011 19.46508 1.0056015 4 3199615509208 1 0
-28.797094 24.07384 0.65516335 19 3199615511512 1 0
-21.199034 19.564188 -1.6799852 93 3199615513816 1 0
-28.446625 21.516615 2.0771909 14 3199615513816 1 0
-30.87423 21.057024 -2.395082 9 3199615511512 1 0
-35.530247 29.720192 1.8871895 30 3199615516120 1 0
0 0 0 2 3199615516120 1 0
-24.168428 20.222282 -1.6515135 5 3199615518424 1 0
-28.443987 21.527632 4.3799844 13 3199615518424 1 0
-26.692598 22.340914 2.8415728 7 3199615520728 1 0
-46.63333 31.844904 -2.3006127 11 3199615520728 1 0
-23.800287 21.99049 -1.1315813 5 3199615523032 1 0
0 0 0 29 3199615525336 1 0
0 0 0 9 3199615523032 1 0
-28.009237 21.217821 -0.8176528 10 3199615525336 1 0
-3.145519 2.6412756 -1.915306 4 3199615546072 1 0
-47.2605 32.38418 -1.0000229 10 3199615546072 1 0
-24.69173 20.739944 -0.93846065 5 3199615548376 1 0
-5.8027606 4.4091263 -2.0401464 4 3199615548376 1 0
-8.573627 7.203696 -2.2396595 3 3199615550680 1 0
-32.102364 29.775284 -0.50973976 10 3199615552984 1 0
-37.322765 28.36804 0 24 3199615550680 1 0
-12.248612 9.312797 -2.393844 3 3199615552984 1 0
-16.631721 13.982901 -2.7657793 6 3199615555288 1 0
-44.397438 30.462202 0.3129367 36 3199615555288 1 0
-28.234032 23.74475 -0.21441312 20 3199615557592 1 0
-20.661888 15.719492 -2.796518 15 3199615557592 1 0
-18.937101 17.580511 -2.4120846 2 3199615559896 1 0
-39.586514 30.126825 1.1575738 25 3199615559896 1 0
-31.849697 29.577148 0.5060146 12 3199615562200 1 0
-24.621614 18.743914 -2.1638458 4 3199615562200 1 0
-21.575623 18.161926 -2.3022892 63 3199615564504 1 0
-28.55834 24.04729 0.65167284 31 3199615566808 1 0
-28.486343 19.570803 1.0058343 4 3199615564504 1 0
-31.01299 21.313643 -2.411711 9 3199615566808 1 0
-21.076536 19.590668 -1.6757991 23 3199615569112 1 0
-28.38883 21.632366 2.0785863 7 3199615569112 1 0
-35.374996 29.805664 1.8845843 30 3199615571416 1 0
-24.117302 20.326645 -1.6529789 5 3199615573720 1 0
-27.79905 21.189663 -1.6282171 5 3199615571416 1 0
-28.395195 21.650928 4.3843713 13 3199615573720 1 0
-26.72206 22.528978 2.8532894 7 3199615576024 1 0
-46.673607 32.118378 -2.3082657 11 3199615576024 1 0
-23.867453 22.212019 -1.1385611 5 3199615578328 1 0
0 0 0 29 3199615580632 1 0
0 0 0 9 3199615578328 1 0
-27.89771 21.291822 -0.8166293 10 3199615580632 1 0
-3.130282 2.648104 -1.911925 5 3199615601368 1 0
-46.818985 32.33445 -0.9931815 10 3199615601368 1 0
-24.566866 20.788801 -0.93659884 11 3199615603672 1 0
-8.55326 7.240015 -2.2412283 3 3199615605976 1 0
-5.7896523 4.4326644 -2.0412247 4 3199615603672 1 0
-26.637592 20.400377 0 41 3199615605976 1 0
-28.556692 26.680843 -0.4549801 12 3199615608280 1 0
-12.224014 9.364572 -2.3956885 3 3199615608280 1 0
-16.574713 14.038154 -2.764769 6 3199615610584 1 0
-43.947514 30.389112 0.31054217 36 3199615610584 1 0
-28.346054 24.015114 -0.21592422 46 3199615612888 1 0
-20.59524 15.787108 -2.795233 15 3199615612888 1 0
-18.826765 17.605453 -2.406136 2 3199615615192 1 0
-26.631207 20.420078 0.7808971 9 3199615615192 1 0
-31.596539 29.555452 0.50368637 19 3199615617496 1 0
-24.50938 18.798782 -2.1599395 4 3199615617496 1 0
-28.464876 19.707565 1.0075797 4 3199615619800 1 0
-21.494768 18.22674 -2.3006618 82 3199615619800 1 0
-28.129993 23.86019 0.6438542 31 3199615622104 1 0
-21.105135 19.75905 -1.683706 8 3199615624408 1 0
-26.730362 20.520813 1.9625407 13 3199615624408 1 0
-41.965675 29.06383 -3.2715561 8 3199615622104 1 0
-35.133835 29.818508 1.8774198 29 3199615626712 1 0
0 0 0 18 3199615626712 1 0
-24.02615 20.397293 -1.6517228 5 3199615629016 1 0
-28.352182 21.77899 4.389734 13 3199615629016 1 0
-26.671835 22.650057 2.856544 7 3199615631320 1 0
-46.581615 32.30077 -2.3094053 11 3199615631320 1 0
0 0 0 75 3199615633624 1 0
0 0 0 9 3199615633624 1 0
0 0 0 29 3199615635928 1 0
0 0 0 22 3199615635928 1 0
-46.718964 32.506817 -0.9934608 10 3199615656664 1 0
-24.467066 20.850733 -0.9355516 5 3199615658968 1 0
-5.7711587 4.450411 -2.0401464 4 3199615658968 1 0
-8.525163 7.267035 -2.240444 3 3199615661272 1 0
-36.733658 28.334713 0 24 3199615661272 1 0
-3.1292977 2.6660676 -1.9169965 4 3199615656664 1 0
-28.173237 26.505053 -0.45032367 12 3199615663576 1 0
-12.20105 9.413896 -2.3975334 2 3199615663576 1 0
-16.511335 14.082088 -2.7622437 6 3199615665880 1 0
-43.623043 30.386602 0.30898458 36 3199615665880 1 0
-28.07818 23.9535 -0.2145061 30 3199615668184 1 0
-20.52542 15.845258 -2.793091 12 3199615668184 1 0
0 0 0 101 3199615670488 1 0
-38.870647 30.015568 1.1427785 24 3199615670488 1 0
-31.315672 29.492342 0.5007994 12 3199615672792 1 0
-24.455008 18.88905 -2.1607766 4 3199615672792 1 0
-28.499884 19.8744 1.011187 4 3199615675096 1 0
-21.417984 18.286222 -2.2990346 102 3199615675096 1 0
-28.226063 24.105206 0.64790314 25 3199615677400 1 0
-30.146904 21.028816 -2.355684 4 3199615677400 1 0
-21.111567 19.898012 -1.68952 60 3199615679704 1 0
0 0 0 9 3199615679704 1 0
0 0 0 2 3199615682008 1 0
-34.864166 29.789968 1.8683014 19 3199615682008 1 0
-24.05251 20.557308 -1.6582124 5 3199615684312 1 0
-28.38972 21.957903 4.4067955 13 3199615684312 1 0
-26.651453 22.784624 2.8624022 7 3199615686616 1 0
-47.23821 32.98755 -2.3473446 11 3199615686616 1 0
-21.388617 20.180296 -1.0268828 28 3199615688920 1 0
0 0 0 9 3199615688920 1 0
0 0 0 29 3199615691224 1 0
0 0 0 1 3199615691224 1 0
-3.1126502 2.6688063 -1.911925 5 3199615711960 1 0
-24.285807 20.828938 -0.9311298 5 3199615714264 1 0
-5.7601266 4.470965 -2.0412247 4 3199615714264 1 0
-8.519939 7.3093524 -2.2451508 3 3199615716568 1 0
-36.460384 28.308762 0 23 3199615716568 1 0
-47.91707 33.564358 -1.0211751 10 3199615711960 1 0
-12.183489 9.462409 -2.399993 3 3199615718872 1 0
-27.93764 26.451658 -0.44790232 20 3199615718872 1 0
-16.46619 14.134849 -2.7622437 6 3199615721176 1 0
-43.299625 30.367556 0.3073805 23 3199615721176 1 0
-27.994972 24.038418 -0.21445961 45 3199615723480 1 0
-20.43984 15.884307 -2.7883787 17 3199615723480 1 0
0 0 0 56 3199615725784 1 0
-38.54621 29.96421 1.1360787 24 3199615725784 1 0
-24.399916 18.973167 -2.1613345 12 3199615728088 1 0
-31.121157 29.500202 0.4992162 6 3199615728088 1 0
-21.361319 18.358503 -2.29936 111 3199615730392 1 0
-28.451344 19.978634 1.0117688 4 3199615730392 1 0
-29.078379 20.425255 -2.2774 13 3199615732696 1 0
-27.946867 24.025372 0.6432957 50 3199615732696 1 0
-21.077913 19.997532 -1.6920781 68 3199615735000 1 0
-28.30167 22.02696 2.088586 15 3199615735000 1 0
-34.605034 29.766777 1.8596714 29 3199615737304 1 0
-25.408787 19.781387 -1.4999774 5 3199615737304 1 0
-23.984207 20.636957 -1.6582124 5 3199615739608 1 0
-28.354338 22.0812 4.4126453 13 3199615739608 1 0
-26.65398 22.940884 2.8708642 7 3199615741912 1 0
-47.177113 33.179188 -2.349787 11 3199615741912 1 0
-21.355772 20.28477 -1.028558 20 3199615744216 1 0
0 0 0 9 3199615744216 1 0
0 0 0 29 3199615746520 1 0
-27.509022 21.44219 -0.81160444 10 3199615746520 1 0
-3.1060593 2.6820245 -1.9136155 4 3199615767256 1 0
-42.600735 30.06265 -0.9101081 9 3199615767256 1 0
-24.18239 20.8878 -0.9299662 5 3199615769560 1 0
-8.503063 7.346988 -2.2475042 3 3199615771864 1 0
-36.18092 28.296457 0 23 3199615771864 1 0
-27.707928 26.420504 -0.4457138 41 3199615774168 1 0
-12.162422 9.515151 -2.4024527 3 3199615774168 1 0
-16.430933 14.206171 -2.764769 6 3199615776472 1 0
-5.7444196 4.491128 -2.0412247 5 3199615769560 1 0
-42.940052 30.343283 0.30559042 23 3199615776472 1 0
-27.975695 24.195587 -0.21497107 41 3199615778776 1 0
-20.342398 15.925171 -2.7828097 17 3199615778776 1 0
0 0 0 28 3199615781080 1 0
-38.234108 29.941673 1.1300303 24 3199615781080 1 0
-29.713163 28.368896 0.47826228 5 3199615783384 1 0
-24.356726 19.080385 -2.1635668 4 3199615783384 1 0
0 0 0 19 3199615785688 1 0
-28.116653 24.348969 0.6492295 51 3199615787992 1 0
-28.421524 20.11115 1.0132815 4 3199615785688 1 0
-28.909729 20.463549 -2.269981 8 3199615787992 1 0
-28.255957 22.156828 2.0911443 22 3199615790296 1 0
-21.045477 20.112665 -1.6953338 60 3199615790296 1 0
-34.3723 29.785597 1.8529954 19 3199615792600 1 0
-25.078606 19.671797 -1.4847151 5 3199615792600 1 0
-24.004995 20.80845 -1.6649114 5 3199615794904 1 0
-28.301327 22.207031 4.4170327 13 3199615794904 1 0
-26.60553 23.070148 2.8747694 7 3199615797208 1 0
-42.431076 30.075317 -2.1188953 10 3199615797208 1 0
-21.324013 20.404982 -1.0306519 4 3199615799512 1 0
0 0 0 9 3199615799512 1 0
0 0 0 29 3199615801816 1 0
-27.479626 21.58359 -0.8130933 5 3199615801816 1 0
-3.0902686 2.6891716 -1.9102346 5 3199615822552 1 0
-42.29272 30.089212 -0.90598935 9 3199615822552 1 0
-24.240734 21.101257 -0.9353188 5 3199615824856 1 0
-5.727133 4.5131516 -2.0412247 4 3199615824856 1 0
-8.477749 7.382159 -2.2482886 3 3199615827160 1 0
-35.886665 28.289074 0 23 3199615827160 1 0
-27.522638 26.446333 -0.44436342 28 3199615829464 1 0
-12.1413145 9.5740185 -2.405527 3 3199615829464 1 0
-16.385239 14.276977 -2.7662842 6 3199615831768 1 0
-42.58541 30.338512 0.30389336 23 3199615831768 1 0
-27.674528 24.12148 -0.21336697 40 3199615834072 1 0
-20.262367 15.988381 -2.7802393 11 3199615834072 1 0
0 0 0 28 3199615836376 1 0
-38.043526 30.028797 1.127797 24 3199615836376 1 0
-27.854465 26.79949 0.44999772 15 3199615838680 1 0
-24.308338 19.19355 -2.165799 4 3199615838680 1 0
0 0 0 9 3199615840984 1 0
-28.360369 20.231745 1.0138633 4 3199615840984 1 0
-27.920504 24.367336 0.646856 25 3199615843288 1 0
-28.902426 20.625416 -2.2756093 13 3199615843288 1 0
0 0 0 12 3199615845592 1 0
-28.23333 22.314682 2.0957954 15 3199615845592 1 0
-34.065018 29.749105 1.8425744 29 3199615847896 1 0
-24.899452 19.686169 -1.478573 5 3199615847896 1 0
-23.903862 20.882074 -1.6634461 5 3199615850200 1 0
-28.315496 22.394348 4.432632 13 3199615850200 1 0
-26.558779 23.208862 2.8793259 7 3199615852504 1 0
-29.3017 20.93866 -1.4672532 6 3199615852504 1 0
-27.423767 26.44431 -1.3303688 7 3199615854808 1 0
0 0 0 9 3199615854808 1 0
0 0 0 29 3199615857112 1 0
-27.521961 21.78823 -0.8168154 5 3199615857112 1 0
-3.0872595 2.7036433 -1.9136155 4 3199615877296 1 0
-42.097187 30.14974 -0.9038252 27 3199615877296 1 0
-24.147564 21.153246 -0.9342716 5 3199615879600 1 0
-5.7160096 4.533432 -2.0423028 4 3199615879600 1 0
-8.457681 7.4110956 -2.249073 3 3199615881904 1 0
-35.62296 28.261415 0 22 3199615881904 1 0
-27.44345 26.53425 -0.44441 32 3199615884208 1 0
-12.1239805 9.621413 -2.4079869 3 3199615884208 1 0
-16.362024 14.345743 -2.7698197 6 3199615886512 1 0
-42.225113 30.278543 0.30198702 23 3199615886512 1 0
-20.200748 16.040596 -2.7785258 11 3199615888816 1 0
-27.507149 24.124537 -0.21264629 20 3199615888816 1 0
0 0 0 28 3199615891120 1 0
-37.766884 29.99811 1.122307 16 3199615891120 1 0
-24.527933 19.488276 -2.1906323 4 3199615893424 1 0
-27.669413 26.78389 0.4483214 10 3199615893424 1 0
-21.335686 18.72847 -2.3175857 11 3199615895728 1 0
-28.39972 20.389736 1.0174705 4 3199615895728 1 0
-27.925152 24.519896 0.64867103 31 3199615898032 1 0
-25.753536 18.495571 -2.032059 11 3199615898032 1 0
-19.576761 18.966785 -1.5874279 3 3199615900336 1 0
-28.228853 22.448881 2.1004465 7 3199615900336 1 0
-33.844055 29.734474 1.8354099 29 3199615902640 1 0
-24.662409 19.618536 -1.4679639 4 3199615902640 1 0
-22.638607 19.895504 -1.5794991 4 3199615904944 1 0
-28.292421 22.51287 4.4394565 13 3199615904944 1 0
-25.810442 22.689665 2.805447 6 3199615907248 1 0
-29.255976 21.036749 -1.4680674 6 3199615907248 1 0
0 0 0 9 3199615909552 1 0
0 0 0 29 3199615911856 1 0
-27.463604 26.638882 -1.3360924 7 3199615909552 1 0
-26.660492 21.233316 -0.79308695 9 3199615911856 1 0
-42.105206 30.378405 -0.90626854 18 3199615932592 1 0
-24.088415 21.250809 -0.9348534 5 3199615934896 1 0
-5.709146 4.560611 -2.045538 4 3199615934896 1 0
-8.437533 7.445886 -2.250642 3 3199615937200 1 0
-35.37681 28.268747 0 15 3199615937200 1 0
-3.0859601 2.7215972 -1.9186869 4 3199615932592 1 0
-27.493366 26.769995 -0.4467382 8 3199615939504 1 0
-16.308456 14.400618 -2.7693148 6 3199615941808 1 0
-12.096286 9.668875 -2.4092166 2 3199615939504 1 0
-41.823227 30.213823 0.2998715 11 3199615941808 1 0
-27.82361 24.57624 -0.21576148 46 3199615944112 1 0
-20.140942 16.10926 -2.7780974 11 3199615944112 1 0
-18.462284 17.993011 -2.4065077 2 3199615946416 1 0
-37.476395 29.984005 1.1168169 16 3199615946416 1 0
-20.268375 19.759232 0.32953578 3 3199615948720 1 0
-24.2438 19.40298 -2.1713796 4 3199615948720 1 0
-21.287008 18.819912 -2.3195384 11 3199615951024 1 0
-28.372534 20.523201 1.0190996 4 3199615951024 1 0
-27.876728 24.653488 0.6495786 19 3199615953328 1 0
-25.791088 18.661917 -2.0402455 7 3199615953328 1 0
-19.40902 18.938816 -1.5792884 3 3199615955632 1 0
-26.715069 21.400892 1.9934708 20 3199615955632 1 0
-33.599987 29.733294 1.8279197 28 3199615957936 1 0
-24.451887 19.594036 -1.4595883 4 3199615957936 1 0
-28.304625 22.688448 4.4540806 13 3199615960240 1 0
-22.414736 19.841347 -1.5688226 4 3199615960240 1 0
-25.74684 22.797913 2.8073997 7 3199615962544 1 0
-28.960283 20.98205 -1.456995 6 3199615962544 1 0
0 0 0 86 3199615964848 1 0
0 0 0 9 3199615964848 1 0
0 0 0 29 3199615967152 1 0
-26.521503 21.279099 -0.7912259 14 3199615967152 1 0
-3.070544 2.7280738 -1.915306 4 3199615987888 1 0
-41.8836 30.452559 -0.903895 9 3199615987888 1 0
-24.034428 21.360027 -0.9357843 5 3199615990192 1 0
-5.6894245 4.579049 -2.0444596 4 3199615990192 1 0
-8.424952 7.4896693 -2.2545643 3 3199615992496 1 0
-20.20265 19.815004 -0.32944265 7 3199615994800 1 0
-12.07637 9.725277 -2.412291 3 3199615994800 1 0
-26.452694 21.296398 0 42 3199615992496 1 0
-16.27081 14.473007 -2.77184 6 3199615997104 1 0
-41.40264 30.139702 0.29763973 11 3199615997104 1 0
-27.77608 24.71427 -0.21608695 25 3199615999408 1 0
-20.051384 16.15729 -2.7738135 11 3199615999408 1 0
-18.405525 18.068127 -2.407623 4 3199616001712 1 0
0 0 0 8 3199616001712 1 0
-20.225365 19.860382 0.3300014 10 3199616004016 1 0
-19.93876 17.756468 -2.1795914 3 3199616006320 1 0
-24.14245 19.465433 -2.1685894 4 3199616004016 1 0
-27.692238 24.66855 0.64734465 25 3199616008624 1 0
-41.339203 30.130333 1.4887372 24 3199616006320 1 0
-25.449572 18.554745 -2.0184999 3 3199616008624 1 0
-19.181368 18.851671 -1.5662652 3 3199616010928 1 0
-33.236588 29.624863 1.8139164 28 3199616013232 1 0
0 0 0 9 3199616010928 1 0
-24.381481 19.681574 -1.4595883 4 3199616013232 1 0
-22.173655 19.769894 -1.55689 4 3199616015536 1 0
-28.26651 22.824493 4.4609056 6 3199616015536 1 0
-25.778334 22.990536 2.8197672 7 3199616017840 1 0
-28.807705 21.028769 -1.4530871 5 3199616017840 1 0
-20.1657 19.842161 -0.98793495 3 3199616020144 1 0
0 0 0 9 3199616020144 1 0
0 0 0 29 3199616022448 1 0
-26.377241 21.317976 -0.7891788 48 3199616022448 1 0
-3.0610025 2.7387755 -1.915306 4 3199616043184 1 0
-28.506348 20.878777 -0.61676806 5 3199616043184 1 0
-24.070114 21.542278 -0.9400897 5 3199616045488 1 0
-5.6704473 4.596414 -2.0433812 5 3199616045488 1 0
-8.404711 7.5241423 -2.2561333 4 3199616047792 1 0
0 0 0 7 3199616047792 1 0
-26.300568 25.975525 -0.43034756 11 3199616050096 1 0
-12.054841 9.777068 -2.4147508 3 3199616050096 1 0
-16.20879 14.518654 -2.7698197 6 3199616052400 1 0
-28.498663 20.89736 0.20539303 5 3199616052400 1 0
-27.773958 24.884806 -0.21673788 41 3199616054704 1 0
-19.992363 16.22395 -2.7733853 11 3199616054704 1 0
-18.38279 18.17066 -2.412828 7 3199616057008 1 0
0 0 0 3 3199616057008 1 0
-22.749535 18.471844 -2.0491662 7 3199616059312 1 0
-26.303274 26.006931 0.43062696 9 3199616059312 1 0
-19.720383 17.683737 -2.1623423 3 3199616061616 1 0
-28.37562 20.831259 1.0244522 4 3199616061616 1 0
-28.077978 25.18519 0.6583746 26 3199616063920 1 0
-25.237865 18.533121 -2.0067317 7 3199616063920 1 0
-19.037346 18.838476 -1.5597537 3 3199616066224 1 0
-36.691822 29.817749 2.753464 14 3199616066224 1 0
-32.995556 29.612583 1.8062634 28 3199616068528 1 0
-21.978424 19.730501 -1.5478883 4 3199616070832 1 0
-24.329716 19.777218 -1.460519 4 3199616068528 1 0
-28.22255 22.948116 4.4662676 6 3199616070832 1 0
-25.723839 23.099258 2.8223708 7 3199616073136 1 0
-28.372252 20.858967 -1.4346874 5 3199616073136 1 0
0 0 0 43 3199616075440 1 0
0 0 0 9 3199616075440 1 0
0 0 0 29 3199616077744 1 0
-26.336018 21.432293 -0.7901093 9 3199616077744 1 0
-3.0545971 2.7513373 -1.9169965 4 3199616098480 1 0
-28.42086 20.961323 -0.616419 11 3199616098480 1 0
-24.004328 21.627506 -0.9403224 5 3199616100784 1 0
-5.6581244 4.617669 -2.0444596 4 3199616100784 1 0
-8.385431 7.557346 -2.2577024 4 3199616103088 1 0
-34.564896 28.217237 0 29 3199616103088 1 0
-27.331247 27.174282 -0.4486939 12 3199616105392 1 0
-12.040506 9.832252 -2.4184403 2 3199616105392 1 0
-16.154238 14.567479 -2.7688096 6 3199616107696 1 0
-28.332066 20.921293 0.2046956 10 3199616107696 1 0
-27.981447 25.240335 -0.21901615 35 3199616110000 1 0
-18.363983 18.274458 -2.4184046 9 3199616112304 1 0
-19.931702 16.28585 -2.7725284 11 3199616110000 1 0
-36.489784 29.824026 1.0966244 15 3199616112304 1 0
0 0 0 12 3199616114608 1 0
-29.291237 29.156923 0.48114926 11 3199616114608 1 0
-19.545195 17.645985 -2.1496494 6 3199616116912 1 0
-28.327673 20.943527 1.0252668 4 3199616116912 1 0
-27.983747 25.271954 0.65816516 19 3199616119216 1 0
-25.040253 18.51867 -1.9959869 3 3199616119216 1 0
0 0 0 9 3199616121520 1 0
-18.93945 18.869062 -1.556963 3 3199616121520 1 0
-32.85032 29.684275 1.803821 28 3199616123824 1 0
-24.126364 19.748373 -1.4523294 4 3199616123824 1 0
-21.86966 19.767689 -1.5449574 4 3199616126128 1 0
-36.6871 30.038736 5.8219423 33 3199616126128 1 0
-25.707006 23.243008 2.8292055 7 3199616128432 1 0
-28.275248 20.936588 -1.4333848 5 3199616128432 1 0
0 0 0 10 3199616130736 1 0
0 0 0 9 3199616130736 1 0
0 0 0 29 3199616133040 1 0
-24.573689 20.138412 -0.7393026 8 3199616133040 1 0
-3.0449746 2.761983 -1.9169965 4 3199616153776 1 0
-26.485508 19.677048 -0.5759294 9 3199616153776 1 0
-23.940533 21.721912 -0.94078785 5 3199616156080 1 0
-5.641971 4.6373916 -2.0444596 4 3199616156080 1 0
-8.361904 7.589206 -2.2584867 3 3199616158384 1 0
-28.93862 23.793015 0 10 3199616158384 1 0
-27.400162 27.433657 -0.45139465 8 3199616160688 1 0
-16.106228 14.626447 -2.7693148 6 3199616162992 1 0
-12.009165 9.876731 -2.4190552 3 3199616160688 1 0
-40.262062 29.948519 0.29164183 10 3199616162992 1 0
-27.905014 25.348612 -0.21910915 15 3199616165296 1 0
-19.865519 16.347744 -2.7712433 11 3199616165296 1 0
-18.328215 18.36664 -2.4221225 9 3199616167600 1 0
-36.268135 29.854643 1.0930884 31 3199616167600 1 0
-29.090412 29.159883 0.4795195 16 3199616169904 1 0
-19.350739 17.593416 -2.1350038 6 3199616172208 1 0
-28.366629 21.125868 1.0293394 4 3199616172208 1 0
-22.25576 18.325584 -2.0159621 21 3199616169904 1 0
-27.963413 25.43137 0.6597708 13 3199616174512 1 0
-24.776985 18.458107 -1.9801254 7 3199616174512 1 0
-18.757889 18.819101 -1.5474281 3 3199616176816 1 0
-36.226974 29.856133 2.7339294 29 3199616176816 1 0
-32.498196 29.572811 1.7901434 28 3199616179120 1 0
-21.673502 19.728285 -1.5359557 4 3199616181424 1 0
-24.180607 19.934135 -1.4597744 4 3199616179120 1 0
-36.392113 30.010012 5.7917185 11 3199616181424 1 0
-25.708256 23.407755 2.8383183 7 3199616183728 1 0
-26.564913 19.814102 -1.3501791 15 3199616183728 1 0
-27.039637 27.159456 -1.3383259 14 3199616186032 1 0
0 0 0 9 3199616186032 1 0
0 0 0 29 3199616188336 1 0
0 0 0 17 3199616188336 1 0
-3.035315 2.7725952 -1.9169965 5 3199616209072 1 0
-28.31866 21.192774 -0.61739635 11 3199616209072 1 0
-24.003134 21.932281 -0.9462569 5 3199616211376 1 0
-5.634617 4.6644673 -2.0476944 4 3199616211376 1 0
-8.341042 7.623762 -2.2600555 3 3199616213680 1 0
-28.707163 23.771849 0 20 3199616213680 1 0
-11.992662 9.93398 -2.4227445 2 3199616215984 1 0
-29.658268 29.903864 -0.4903224 9 3199616215984 1 0
-16.042934 14.672335 -2.7672944 6 3199616218288 1 0
-39.95474 29.938934 0.29017723 21 3199616218288 1 0
-28.004316 25.61967 -0.220597 10 3199616220592 1 0
-19.804674 16.41517 -2.770815 11 3199616220592 1 0
-35.962296 29.816734 1.0870401 38 3199616222896 1 0
-18.313644 18.482225 -2.4288144 7 3199616222896 1 0
-28.708292 28.98141 0.47490963 16 3199616225200 1 0
-22.064793 18.299849 -2.004522 29 3199616225200 1 0
-19.264658 17.64044 -2.1324 6 3199616227504 1 0
-28.313866 21.2432 1.030154 13 3199616227504 1 0
-28.011414 25.657614 0.66305184 26 3199616229808 1 0
-24.599447 18.462234 -1.9711714 7 3199616229808 1 0
-18.659811 18.8546 -1.54487 3 3199616232112 1 0
-35.889915 29.793737 2.7164876 28 3199616232112 1 0
-32.248024 29.556341 1.7821647 28 3199616234416 1 0
-24.18305 20.081612 -1.4642414 4 3199616234416 1 0
-21.47617 19.68963 -1.5269538 4 3199616236720 1 0
-36.17456 30.048702 5.7741694 11 3199616236720 1 0
-25.662367 23.534803 2.8425493 7 3199616239024 1 0
-26.487314 19.904413 -1.3498534 10 3199616239024 1 0
-26.964375 27.279165 -1.3394427 21 3199616241328 1 0
0 0 0 9 3199616241328 1 0
0 0 0 29 3199616243632 1 0
-24.399534 20.286575 -0.7383721 48 3199616243632 1 0
-3.0197973 2.778792 -1.9136155 5 3199616264368 1 0
-28.199284 21.265121 -0.6164888 11 3199616264368 1 0
-23.908197 22.006224 -0.9456751 5 3199616266672 1 0
-5.6175513 4.685006 -2.0476944 5 3199616266672 1 0
-8.31038 7.651384 -2.2592711 3 3199616268976 1 0
-28.571392 23.835075 0 51 3199616268976 1 0
-27.433865 27.862137 -0.45521292 8 3199616271280 1 0
-11.971781 9.990008 -2.4258192 2 3199616271280 1 0
-15.98407 14.72473 -2.7662842 6 3199616273584 1 0
-39.549603 29.858717 0.2880152 21 3199616273584 1 0
-32.144947 29.620546 -0.25405037 14 3199616275888 1 0
-19.724207 16.46837 -2.767816 14 3199616275888 1 0
-18.258572 18.558989 -2.4303014 7 3199616278192 1 0
-35.809345 29.906763 1.0856442 15 3199616278192 1 0
-21.904512 18.299053 -1.9958723 32 3199616280496 1 0
-19.052467 17.570852 -2.1158018 9 3199616282800 1 0
-28.267006 21.365246 1.0312012 13 3199616282800 1 0
-27.994047 25.82425 0.66479707 19 3199616285104 1 0
-24.527674 18.544247 -1.9706597 7 3199616285104 1 0
-18.579338 18.905922 -1.5437073 3 3199616287408 1 0
-28.50948 28.986568 0.47332644 16 3199616280496 1 0
-35.607143 29.771315 2.7029994 42 3199616287408 1 0
-32.03556 29.568897 1.7761401 37 3199616289712 1 0
-21.3897 19.748217 -1.5256978 13 3199616292016 1 0
-35.844112 29.986279 5.738096 10 3199616292016 1 0
-25.700483 23.734764 2.855893 7 3199616294320 1 0
-24.186071 20.227776 -1.4687084 4 3199616289712 1 0
-27.95078 21.15659 -1.4281743 5 3199616294320 1 0
0 0 0 10 3199616296624 1 0
0 0 0 9 3199616296624 1 0
0 0 0 29 3199616298928 1 0
-24.36932 20.403934 -0.73958176 30 3199616298928 1 0
-3.0132253 2.7912543 -1.915306 5 3199616319664 1 0
-28.020313 21.276283 -0.6141153 10 3199616319664 1 0
-23.855299 22.104753 -0.94648963 5 3199616321968 1 0
-5.598966 4.7012134 -2.046616 4 3199616321968 1 0
-8.296245 7.6898065 -2.262409 3 3199616324272 1 0
-28.316912 23.78388 0 35 3199616324272 1 0
-26.998909 27.605295 -0.44953206 20 3199616326576 1 0
-11.944201 10.035259 -2.427049 2 3199616326576 1 0
-15.931384 14.775882 -2.7657793 6 3199616328880 1 0
-39.181156 29.788649 0.2860624 20 3199616328880 1 0
-19.668285 16.535118 -2.767816 11 3199616331184 1 0
-18.295507 18.72357 -2.4436855 2 3199616333488 1 0
-31.944683 29.636814 -0.25325996 13 3199616331184 1 0
-28.64362 24.088144 0.87087893 22 3199616333488 1 0
-28.312416 28.983702 0.4716967 16 3199616335792 1 0
-21.777716 18.319872 -1.9900126 36 3199616335792 1 0
-18.968674 17.614443 -2.113198 3 3199616338096 1 0
-26.717337 20.338423 0.9772092 4 3199616338096 1 0
-31.890018 29.622366 0.75973815 16 3199616340400 1 0
-24.78119 18.87052 -1.9962428 3 3199616340400 1 0
-18.485891 18.941544 -1.5413817 3 3199616342704 1 0
-35.38169 29.791512 2.6936972 42 3199616342704 1 0
-31.871105 29.622938 1.7727207 28 3199616345008 1 0
-24.130892 20.324596 -1.4696391 4 3199616345008 1 0
-21.308933 19.811882 -1.5248604 13 3199616347312 1 0
-35.56616 29.965405 5.71031 10 3199616347312 1 0
-25.660921 23.865429 2.860775 7 3199616349616 1 0
-27.796995 21.19385 -1.4241035 5 3199616349616 1 0
-27.077421 27.77877 -1.3546588 7 3199616351920 1 0
0 0 0 29 3199616354224 1 0
0 0 0 9 3199616351920 1 0
0 0 0 1 3199616354224 1 0
-3.010926 2.8096995 -1.9203774 4 3199616374960 1 0
0 0 0 79 3199616374960 1 0
-23.900288 22.308836 -0.9514932 5 3199616377264 1 0
-5.5847416 4.724069 -2.0476944 4 3199616377264 1 0
-8.2740755 7.725155 -2.263978 3 3199616379568 1 0
-28.25502 23.906944 0 41 3199616379568 1 0
-26.94673 27.751087 -0.45032367 28 3199616381872 1 0
-11.929118 10.096064 -2.4313533 2 3199616381872 1 0
-15.872616 14.827372 -2.764769 6 3199616384176 1 0
-26.639132 20.404015 0.19502458 14 3199616384176 1 0
-28.071825 26.23012 -0.22329372 15 3199616386480 1 0
-19.606325 16.602385 -2.7673876 11 3199616386480 1 0
-18.248632 18.808125 -2.4462879 2 3199616388784 1 0
-28.448456 24.096184 0.86752903 16 3199616388784 1 0
-27.98208 28.84755 0.4678784 16 3199616391088 1 0
-21.646255 18.339506 -1.9838741 31 3199616391088 1 0
-18.79642 17.577074 -2.1008308 3 3199616393392 1 0
-28.267542 21.674776 1.0366703 4 3199616393392 1 0
-31.652714 29.607136 0.7565269 64 3199616395696 1 0
-24.864452 19.070549 -2.0082667 3 3199616395696 1 0
-18.414932 18.999418 -1.5409166 3 3199616398000 1 0
-35.208736 29.853899 2.6883483 28 3199616398000 1 0
-31.63522 29.606304 1.7652305 28 3199616400304 1 0
-24.048946 20.396793 -1.4688945 4 3199616400304 1 0
-21.206388 19.85153 -1.5223483 4 3199616402608 1 0
-35.30654 29.952719 5.6849613 10 3199616402608 1 0
-25.661556 24.028364 2.8698876 7 3199616404912 1 0
-26.583952 20.411488 -1.3654851 10 3199616404912 1 0
-46.03175 47.542572 -2.310905 23 3199616407216 1 0
0 0 0 9 3199616407216 1 0
0 0 0 29 3199616409520 1 0
-3.0020843 2.8191447 -1.9203774 4 3199616430256 1 0
-27.68234 23.50334 -0.8450103 10 3199616409520 1 0
0 0 0 7 3199616430256 1 0
-27.533573 25.86366 -1.0993894 7 3199616432560 1 0
-5.5668364 4.7392154 -2.046616 3 3199616432560 1 0
-8.249427 7.7514706 -2.263978 4 3199616434864 1 0
-28.200045 24.014975 0 46 3199616434864 1 0
-28.78214 29.832119 -0.48259273 9 3199616437168 1 0
-11.899688 10.136832 -2.4319682 2 3199616437168 1 0
-15.813094 14.867672 -2.7627487 6 3199616439472 1 0
-38.400978 29.610123 0.28183132 20 3199616439472 1 0
-27.974756 26.310272 -0.22320074 42 3199616441776 1 0
-19.531065 16.647972 -2.764389 25 3199616441776 1 0
-19.143322 19.859875 -2.5749226 5 3199616444080 1 0
-26.943272 27.96033 0.45204654 10 3199616446384 1 0
-28.521597 24.31888 0.87218165 16 3199616444080 1 0
-21.616081 18.43661 -1.9866644 7 3199616446384 1 0
-18.691582 17.595587 -2.0956233 3 3199616448688 1 0
-28.293621 21.844141 1.0402775 8 3199616448688 1 0
-24.813295 19.163198 -2.00929 7 3199616450992 1 0
-31.419775 29.586504 0.7533157 39 3199616450992 1 0
-18.265139 18.972002 -1.5337074 3 3199616453296 1 0
-31.404026 29.589775 1.7579032 27 3199616455600 1 0
-34.935123 29.824236 2.6750927 41 3199616453296 1 0
-24.022373 20.514326 -1.4715003 5 3199616455600 1 0
-21.176493 19.959206 -1.5250697 4 3199616457904 1 0
-35.020252 29.915407 5.655225 31 3199616457904 1 0
-25.631317 24.165348 2.875746 7 3199616460208 1 0
-27.516138 21.277437 -1.4171019 11 3199616460208 1 0
0 0 0 9 3199616462512 1 0
0 0 0 29 3199616464816 1 0
-27.743496 23.721365 -0.8493838 10 3199616464816 1 0
-28.231543 29.35998 -1.4223639 15 3199616462512 1 0
-2.994365 2.8326204 -1.9220679 4 3199616485552 1 0
-27.568478 21.39201 -0.60908896 5 3199616485552 1 0
-27.482157 26.005625 -1.1011349 7 3199616487856 1 0
-5.5552764 4.764602 -2.0487728 4 3199616487856 1 0
-8.226658 7.787047 -2.265547 4 3199616490160 1 0
-28.042013 24.058268 0 41 3199616490160 1 0
-28.138662 29.379911 -0.47360584 13 3199616492464 1 0
-11.868453 10.185527 -2.433198 2 3199616492464 1 0
-15.74121 14.909159 -2.7597184 6 3199616494768 1 0
-38.001602 29.524897 0.27969253 19 3199616494768 1 0
-27.8491 26.385117 -0.22296825 21 3199616497072 1 0
-19.37035 16.633944 -2.7502522 20 3199616497072 1 0
-19.103445 19.964436 -2.5793839 7 3199616499376 1 0
-27.922657 23.985495 0.85654885 16 3199616499376 1 0
-26.918024 28.139822 0.45335034 15 3199616501680 1 0
-21.493887 18.468903 -1.9816419 7 3199616501680 1 0
-18.638536 17.67495 -2.0969253 3 3199616503984 1 0
-28.244926 21.972244 1.0414411 8 3199616503984 1 0
-31.186354 29.583109 0.7503139 47 3199616506288 1 0
-24.840553 19.330011 -2.0172207 11 3199616506288 1 0
-17.784391 18.608677 -1.4990565 3 3199616508592 1 0
-34.68026 29.827095 2.66393 27 3199616508592 1 0
-31.164917 29.580864 1.7505759 27 3199616510896 1 0
-24.068182 20.70647 -1.4789453 5 3199616510896 1 0
-34.71176 29.872639 5.6230516 20 3199616513200 1 0
-21.158236 20.088945 -1.5290473 4 3199616513200 1 0
-25.574373 24.28933 2.8793259 7 3199616515504 1 0
-25.681911 20.009926 -1.326406 5 3199616515504 1 0
-28.057497 29.393856 -1.4190135 15 3199616517808 1 0
0 0 0 9 3199616517808 1 0
0 0 0 29 3199616520112 1 0
-27.77756 23.927286 -0.8531059 5 3199616520112 1 0
-27.573025 21.542408 -0.61076444 5 3199616541296 1 0
-2.9797046 2.8375344 -1.9186869 4 3199616541296 1 0
-27.4886 26.184664 -1.1048585 7 3199616543600 1 0
-5.5365653 4.7804403 -2.0476944 4 3199616543600 1 0
-8.206583 7.8195767 -2.2671158 4 3199616545904 1 0
-28.01692 24.197783 0 51 3199616545904 1 0
-27.928686 29.353645 -0.4716967 13 3199616548208 1 0
-11.85577 10.242658 -2.4375024 2 3199616548208 1 0
-15.680631 14.949867 -2.757698 6 3199616550512 1 0
-37.69011 29.482067 0.2781117 29 3199616550512 1 0
-27.727678 26.443188 -0.22268929 15 3199616552816 1 0
-19.249498 16.640165 -2.7408276 23 3199616552816 1 0
-17.660511 18.577799 -2.3927522 4 3199616555120 1 0
-27.220013 28.642164 0.46000904 15 3199616557424 1 0
-27.97106 24.1866 0.860457 21 3199616555120 1 0
0 0 0 31 3199616557424 1 0
-18.57797 17.732826 -2.0965998 3 3199616559728 1 0
-28.207819 22.091267 1.0427212 8 3199616559728 1 0
-30.945393 29.546238 0.7468234 47 3199616562032 1 0
-24.670746 19.32696 -2.0085225 7 3199616562032 1 0
0 0 0 61 3199616564336 1 0
-34.40823 29.787828 2.6504416 40 3199616564336 1 0
-30.941872 29.560085 1.7434114 27 3199616566640 1 0
-23.985945 20.771172 -1.4780146 5 3199616566640 1 0
-21.145243 20.206833 -1.5328155 4 3199616568944 1 0
-34.45908 29.849392 5.5977025 20 3199616568944 1 0
-25.516163 24.390877 2.8816042 7 3199616571248 1 0
-25.353153 19.885366 -1.3127284 5 3199616571248 1 0
0 0 0 96 3199616573552 1 0
0 0 0 9 3199616573552 1 0
0 0 0 29 3199616575856 1 0
-24.85145 21.545988 -0.7653573 4 3199616575856 1 0
-2.9750147 2.8529365 -1.9220679 4 3199616596592 1 0
-27.425694 26.308334 -1.1060221 7 3199616598896 1 0
-27.547947 21.678097 -0.6118814 10 3199616596592 1 0
-5.516903 4.79725 -2.046616 4 3199616598896 1 0
-8.181953 7.85101 -2.2679005 4 3199616601200 1 0
-27.953056 24.314215 0 41 3199616601200 1 0
-11.822702 10.286832 -2.4381173 2 3199616603504 1 0
-27.71279 29.33236 -0.46978754 13 3199616603504 1 0
-15.619327 14.996722 -2.756183 6 3199616605808 1 0
-37.347324 29.426405 0.27634487 28 3199616605808 1 0
-27.697706 26.601774 -0.22320074 26 3199616608112 1 0
-19.091705 16.621778 -2.7266908 8 3199616608112 1 0
-28.042215 24.421873 0.86529577 16 3199616610416 1 0
-17.192873 18.214355 -2.338101 2 3199616610416 1 0
-27.217226 28.843111 0.46168536 42 3199616612720 1 0
-21.331572 18.583326 -1.9782935 66 3199616612720 1 0
-28.248528 22.285336 1.0471429 9 3199616615024 1 0
-18.512049 17.795881 -2.0962744 3 3199616615024 1 0
-30.724817 29.545212 0.744031 54 3199616617328 1 0
-24.54859 19.37253 -2.0041735 3 3199616617328 1 0
-34.163418 29.789526 2.639744 26 3199616619632 1 0
-17.747711 18.825184 -1.5067309 3 3199616619632 1 0
-30.706526 29.54568 1.7360841 27 3199616621936 1 0
-23.938726 20.880323 -1.4796897 5 3199616621936 1 0
-21.02964 20.240808 -1.5296754 4 3199616624240 1 0
-34.1965 29.836763 5.572354 20 3199616624240 1 0
-24.713428 23.79369 2.8005652 6 3199616626544 1 0
-25.05905 19.80021 -1.3011675 4 3199616626544 1 0
0 0 0 9 3199616628848 1 0
-18.42959 19.572401 -0.93879646 33 3199616628848 1 0
0 0 0 29 3199616631152 1 0
-24.60807 21.490635 -0.7602394 9 3199616631152 1 0
-2.956716 2.856265 -1.9169965 4 3199616651888 1 0
-27.427227 26.502745 -1.1099784 7 3199616654192 1 0
-26.65037 21.130396 -0.59366107 10 3199616651888 1 0
-5.5022507 4.819896 -2.0476944 4 3199616654192 1 0
-8.150533 7.8779826 -2.2671158 4 3199616656496 1 0
-27.82836 24.38406 0 30 3199616656496 1 0
-27.65016 29.479208 -0.4705326 17 3199616658800 1 0
-11.797259 10.340001 -2.440577 2 3199616658800 1 0
-15.553722 15.041929 -2.7541625 6 3199616661104 1 0
-37.146954 29.48632 0.27564743 9 3199616661104 1 0
-27.555964 26.656609 -0.22282878 21 3199616663408 1 0
-18.987019 16.650925 -2.7202652 8 3199616663408 1 0
-16.95874 18.095583 -2.3150508 2 3199616665712 1 0
-27.972692 24.537872 0.8658541 16 3199616665712 1 0
-27.20452 29.036234 0.46322197 36 3199616668016 1 0
-21.283213 18.67501 -1.9799677 63 3199616668016 1 0
-28.191174 22.402859 1.0479574 9 3199616670320 1 0
-18.437319 17.850374 -2.0949724 3 3199616670320 1 0
-30.51965 29.556236 0.74158764 23 3199616672624 1 0
-24.326853 19.337458 -1.9916378 3 3199616672624 1 0
-17.580368 18.779673 -1.4981263 6 3199616674928 1 0
-33.908333 29.77784 2.6281164 26 3199616674928 1 0
-30.396114 29.452885 1.7243603 27 3199616677232 1 0
-23.895409 20.990475 -1.4815509 5 3199616677232 1 0
-21.093668 20.444757 -1.5395145 4 3199616679536 1 0
-33.92811 29.811817 5.5455427 20 3199616679536 1 0
-24.66778 23.91553 2.8047962 6 3199616681840 1 0
-24.843088 19.77023 -1.2935145 4 3199616681840 1 0
-18.402685 19.679876 -0.94089043 30 3199616684144 1 0
0 0 0 9 3199616684144 1 0
-24.386702 21.445932 -0.75567985 9 3199616686448 1 0
0 0 0 29 3199616686448 1 0
-2.9524262 2.871109 -1.9203774 4 3199616707184 1 0
0 0 0 29 3199616707184 1 0
-5.486202 4.8381557 -2.0476944 4 3199616709488 1 0
-8.12987 7.9105563 -2.2686849 4 3199616711792 1 0
-27.719994 24.452797 0 30 3199616711792 1 0
-27.44527 29.457209 -0.46871656 13 3199616714096 1 0
-11.77157 10.387168 -2.4424217 2 3199616714096 1 0
-15.491944 15.082804 -2.7521422 6 3199616716400 1 0
-26.546404 21.217014 0.19751208 14 3199616716400 1 0
-20.27425 19.721584 -0.82314575 13 3199616709488 1 0
-20.276741 19.746979 -0.1645004 39 3199616718704 1 0
-18.886372 16.675001 -2.7138393 8 3199616718704 1 0
-27.947042 24.68201 0.8676221 16 3199616721008 1 0
-16.811012 18.059174 -2.303154 2 3199616721008 1 0
-27.18017 29.206722 0.4644792 21 3199616723312 1 0
-21.250118 18.772984 -1.982758 31 3199616723312 1 0
0 0 0 20 3199616725616 1 0
-20.25964 19.753304 0.4939031 37 3199616727920 1 0
-24.417143 19.544334 -2.0044293 3 3199616727920 1 0
-17.399704 18.713392 -1.4881264 6 3199616730224 1 0
-18.528292 18.05997 -2.1122217 3 3199616725616 1 0
-33.648674 29.752386 2.6157908 39 3199616730224 1 0
-20.268797 19.773735 1.1536443 12 3199616732528 1 0
-22.584898 19.975574 -1.4044955 4 3199616732528 1 0
0 0 0 42 3199616734832 1 0
-33.6748 29.792948 5.5206814 20 3199616734832 1 0
-20.312464 19.827871 2.3172603 4 3199616737136 1 0
-24.594625 19.709885 -1.2840705 4 3199616737136 1 0
0 0 0 9 3199616739440 1 0
-26.594364 28.635645 -1.36471 22 3199616739440 1 0
0 0 0 29 3199616741744 1 0
-24.190353 21.42064 -0.7518647 9 3199616741744 1 0
-2.939796 2.878861 -1.9186869 5 3199616762480 1 0
-26.44982 21.266201 -0.5924045 35 3199616762480 1 0
-20.202572 19.78929 -0.8230294 9 3199616764784 1 0
-5.4750757 4.862353 -2.049851 4 3199616764784 1 0
-8.102324 7.938769 -2.2686849 4 3199616767088 1 0
-27.700615 24.60745 0 20 3199616767088 1 0
-27.261433 29.464159 -0.46731964 17 3199616769392 1 0
-11.747287 10.43844 -2.4448814 2 3199616769392 1 0
-26.450989 21.291222 0.19734934 14 3199616771696 1 0
0 0 0 9 3199616774000 1 0
-18.79002 16.705788 -2.70827 8 3199616774000 1 0
-16.69459 18.058525 -2.2957184 2 3199616776304 1 0
-28.145676 25.030657 0.87646204 16 3199616776304 1 0
-27.19085 29.420475 0.46638834 10 3199616778608 1 0
-21.441813 19.07405 -2.0067542 10 3199616778608 1 0
-15.425474 15.122451 -2.7496169 6 3199616771696 1 0
-18.466192 18.12346 -2.1122217 6 3199616780912 1 0
-26.465834 21.327286 0.9891945 12 3199616780912 1 0
-30.049486 29.499924 0.7350255 38 3199616783216 1 0
-24.449509 19.708017 -2.012616 3 3199616783216 1 0
-17.297712 18.731682 -1.4848706 6 3199616785520 1 0
-33.302223 29.649485 2.5967212 38 3199616785520 1 0
-22.388329 19.938221 -1.3964921 4 3199616787824 1 0
-29.926914 29.395838 1.7090545 36 3199616787824 1 0
-20.1733 19.820787 -1.4821543 4 3199616790128 1 0
-33.42202 29.772701 5.49582 20 3199616790128 1 0
-24.6864 24.261728 2.8256254 7 3199616792432 1 0
-24.508884 19.778236 -1.2830935 4 3199616792432 1 0
-27.161226 29.445507 -1.3989115 23 3199616794736 1 0
0 0 0 9 3199616794736 1 0
0 0 0 29 3199616797040 1 0
-24.10584 21.491676 -0.7514925 4 3199616797040 1 0
-2.9276514 2.8860488 -1.9169965 4 3199616817776 1 0
0 0 0 7 3199616817776 1 0
-26.334381 25.968094 -1.0763497 22 3199616820080 1 0
-5.4645934 4.885696 -2.0520077 4 3199616820080 1 0
-8.081306 7.9713373 -2.2702537 3 3199616822384 1 0
-28.047487 25.083956 0 52 3199616822384 1 0
-27.15958 29.552639 -0.4672731 26 3199616824688 1 0
-11.720986 10.485755 -2.446726 2 3199616824688 1 0
-36.09283 29.253483 0.2700215 9 3199616826992 1 0
-15.360239 15.160478 -2.7470915 6 3199616826992 1 0
-26.323519 25.989117 -0.21499431 15 3199616829296 1 0
-18.694777 16.734886 -2.702701 8 3199616829296 1 0
-16.63842 18.121105 -2.296462 2 3199616831600 1 0
-28.03649 25.104961 0.87571764 16 3199616831600 1 0
-27.14693 29.575117 0.46736622 16 3199616833904 1 0
-21.224909 19.011448 -1.9925239 58 3199616833904 1 0
-18.420889 18.203554 -2.1141744 6 3199616836208 1 0
-36.622234 29.719654 1.3726077 21 3199616836208 1 0
-26.30692 26.004482 0.6456692 12 3199616838512 1 0
-24.183079 19.631165 -1.9962428 3 3199616838512 1 0
-17.124811 18.673723 -1.4755683 6 3199616840816 1 0
-26.346535 26.059557 1.5097517 7 3199616843120 1 0
-22.152306 19.866533 -1.386069 4 3199616843120 1 0
-33.0537 29.633966 2.585326 38 3199616840816 1 0
-19.550278 19.343237 -1.4413322 4 3199616845424 1 0
-33.164215 29.751326 5.470471 19 3199616845424 1 0
-24.694715 24.440657 2.8363655 7 3199616847728 1 0
-27.119518 29.608727 -1.4021221 23 3199616850032 1 0
-24.309147 19.75815 -1.2762547 4 3199616847728 1 0
0 0 0 9 3199616850032 1 0
0 0 0 29 3199616852336 1 0
-24.02378 21.571394 -0.75130635 4 3199616852336 1 0
-2.9221985 2.9018688 -1.9203774 4 3199616873072 1 0
-36.816654 30.02693 -0.8292685 16 3199616873072 1 0
-27.359898 27.177063 -1.1223128 7 3199616875376 1 0
-5.440997 4.900457 -2.049851 3 3199616875376 1 0
-8.057833 8.006198 -2.2718227 4 3199616877680 1 0
-27.917461 25.150967 0 36 3199616877680 1 0
-26.906801 29.49125 -0.4647586 25 3199616879984 1 0
-15.297012 15.207392 -2.7455761 6 3199616882288 1 0
-11.697616 10.541364 -2.4498007 2 3199616879984 1 0
-35.739212 29.181097 0.26816168 18 3199616882288 1 0
-27.262392 27.110159 -0.22345646 15 3199616884592 1 0
-16.546648 18.151089 -2.2927442 2 3199616886896 1 0
-28.0623 25.309565 0.8793467 16 3199616886896 1 0
-18.602047 16.772644 -2.6979887 8 3199616884592 1 0
-26.928217 29.547503 0.4654105 15 3199616889200 1 0
-21.198507 19.12438 -1.9964303 58 3199616889200 1 0
0 0 0 13 3199616891504 1 0
-36.371037 29.7305 1.3671387 49 3199616891504 1 0
-29.579214 29.446577 0.72853327 68 3199616893808 1 0
-22.837255 18.672949 -1.8905848 10 3199616893808 1 0
-17.032093 18.704357 -1.4732428 6 3199616896112 1 0
-32.80989 29.624348 2.574396 37 3199616896112 1 0
0 0 0 10 3199616898416 1 0
-21.940199 19.815508 -1.3771352 4 3199616898416 1 0
-19.3553 19.28449 -1.4319117 4 3199616900720 1 0
-32.9217 29.74182 5.44756 29 3199616900720 1 0
-24.651964 24.568563 2.8412473 7 3199616903024 1 0
-26.788227 29.451061 -1.3902564 15 3199616905328 1 0
-24.268152 19.865316 -1.2777201 4 3199616903024 1 0
0 0 0 9 3199616905328 1 0
0 0 0 29 3199616907632 1 0
-24.008606 21.707716 -0.75316745 4 3199616907632 1 0
-2.9125595 2.9115431 -1.9203774 4 3199616928368 1 0
-36.58397 30.03972 -0.8262667 16 3199616928368 1 0
-27.311836 27.310247 -1.1240582 7 3199616930672 1 0
-5.4246807 4.9185123 -2.049851 3 3199616930672 1 0
-8.031122 8.032991 -2.2718227 4 3199616932976 1 0
-27.82761 25.238438 0 21 3199616932976 1 0
-26.171648 28.878496 -0.45372286 8 3199616935280 1 0
-11.677001 10.59363 -2.4528751 2 3199616935280 1 0
-28.859179 23.724886 0.21713309 16 3199616937584 1 0
-27.210928 27.241022 -0.22378193 15 3199616939888 1 0
-18.504486 16.79749 -2.6919913 8 3199616939888 1 0
-16.488245 18.20953 -2.293116 2 3199616942192 1 0
-27.941582 25.371447 0.8782301 16 3199616942192 1 0
-26.83126 29.640968 0.46545708 15 3199616944496 1 0
0 0 0 1 3199616944496 1 0
-15.243251 15.255671 -2.7450712 6 3199616937584 1 0
0 0 0 19 3199616946800 1 0
-36.08528 29.700603 1.360157 35 3199616946800 1 0
-29.346704 29.413366 0.7252522 45 3199616949104 1 0
-16.87218 18.65535 -1.4648708 6 3199616951408 1 0
-22.52128 18.542015 -1.8696069 10 3199616949104 1 0
-32.561573 29.601059 2.562768 37 3199616951408 1 0
-29.29854 29.382181 1.6904919 35 3199616953712 1 0
-19.188032 19.248407 -1.4243754 4 3199616956016 1 0
-21.736792 19.766249 -1.3685734 4 3199616953712 1 0
-32.6705 29.717447 5.4226985 19 3199616956016 1 0
-24.689037 24.773928 2.855242 7 3199616958320 1 0
-25.449284 20.977526 -1.343666 5 3199616958320 1 0
0 0 0 86 3199616960624 1 0
0 0 0 9 3199616960624 1 0
0 0 0 29 3199616962928 1 0
-23.928198 21.78444 -0.7529813 4 3199616962928 1 0
-2.8998237 2.91912 -1.9186869 4 3199616983664 1 0
-36.318623 30.034702 -0.8226366 16 3199616983664 1 0
-27.159992 27.348679 -1.121731 15 3199616985968 1 0
-5.413168 4.9426126 -2.0520077 3 3199616985968 1 0
-28.33595 25.880325 0 10 3199616988272 1 0
-8.003033 8.060976 -2.2718227 4 3199616988272 1 0
0 0 0 11 3199616990576 1 0
-11.657459 10.650321 -2.4565647 3 3199616990576 1 0
-15.187111 15.30597 -2.7445662 6 3199616992880 1 0
-28.800837 23.845886 0.21731907 16 3199616992880 1 0
-29.228363 29.465685 -0.24121767 6 3199616995184 1 0
-18.41345 16.832462 -2.6872792 8 3199616995184 1 0
-16.413929 18.255129 -2.2916288 2 3199616997488 1 0
-27.99155 25.595657 0.8826035 16 3199616997488 1 0
-26.757044 29.767168 0.46596926 16 3199616999792 1 0
-19.562296 17.893116 -1.8538481 3 3199616999792 1 0
-18.339775 18.504827 -2.1268673 6 3199617002096 1 0
-29.122814 29.393461 0.7222504 52 3199617004400 1 0
-35.864418 29.72942 1.3557353 35 3199617002096 1 0
-22.42569 18.595037 -1.8670485 10 3199617004400 1 0
-32.31372 29.582415 2.5513728 36 3199617006704 1 0
-16.796286 18.702248 -1.4639405 6 3199617006704 1 0
-29.15643 29.444513 1.6882124 8 3199617009008 1 0
-21.611673 19.790733 -1.3650371 4 3199617009008 1 0
-18.983025 19.176168 -1.4141176 4 3199617011312 1 0
-32.426044 29.702585 5.3992996 28 3199617011312 1 0
-24.655691 24.913797 2.8614259 7 3199617013616 1 0
-24.207357 20.096146 -1.2817909 4 3199617013616 1 0
0 0 0 100 3199617015920 1 0
0 0 0 29 3199617018224 1 0
-23.952229 21.959713 -0.7561451 4 3199617018224 1 0
-2.8896165 2.9292247 -1.9186869 4 3199617038960 1 0
0 0 0 72 3199617038960 1 0
0 0 0 28 3199617041264 1 0
-5.3987174 4.9640856 -2.053086 3 3199617041264 1 0
-7.980354 8.094449 -2.2733917 4 3199617043568 1 0
-30.506487 28.058704 0 12 3199617043568 1 0
0 0 0 9 3199617015920 1 0
-27.139412 30.369778 -0.4741646 49 3199617045872 1 0
-11.626029 10.6963005 -2.4577944 3 3199617045872 1 0
-15.136375 15.361716 -2.7450712 10 3199617048176 1 0
0 0 0 38 3199617050480 1 0
-28.523884 23.784891 0.21585448 16 3199617048176 1 0
-18.325323 16.8697 -2.6829953 8 3199617050480 1 0
-16.366022 18.330137 -2.2938597 2 3199617052784 1 0
-28.155022 25.926168 0.89060605 16 3199617052784 1 0
-27.132391 30.397497 0.47435087 44 3199617055088 1 0
-19.367645 17.83964 -1.8412919 3 3199617055088 1 0
-18.361761 18.656818 -2.1369565 3 3199617057392 1 0
-28.896616 29.369501 0.71917874 60 3199617059696 1 0
-22.16149 18.506891 -1.8504195 9 3199617059696 1 0
-28.654991 23.922491 1.0863569 9 3199617057392 1 0
-16.709639 18.736921 -1.4620801 6 3199617062000 1 0
-32.072273 29.567818 2.5404427 36 3199617062000 1 0
0 0 0 87 3199617064304 1 0
-18.868368 19.193888 -1.4105587 4 3199617066608 1 0
-21.445528 19.776663 -1.358895 4 3199617064304 1 0
-32.176254 29.680998 5.3749256 28 3199617066608 1 0
-24.652409 25.085014 2.8711896 7 3199617068912 1 0
-24.091068 20.142069 -1.2793484 4 3199617068912 1 0
-27.123981 30.450422 -1.424039 47 3199617071216 1 0
0 0 0 9 3199617071216 1 0
0 0 0 29 3199617073520 1 0
-23.90481 22.070314 -0.7570756 4 3199617073520 1 0
-2.8819108 2.941883 -1.9203774 4 3199617094256 1 0
-28.107536 23.576666 -0.6403637 23 3199617094256 1 0
0 0 0 9 3199617096560 1 0
-5.3897996 4.9907904 -2.056321 4 3199617096560 1 0
-7.95742 8.127977 -2.2749605 4 3199617098864 1 0
-30.281763 28.048584 0 12 3199617098864 1 0
-27.104246 30.545692 -0.47542185 13 3199617101168 1 0
-11.6231785 10.769306 -2.4651735 12 3199617101168 1 0
-15.084988 15.417733 -2.7455761 8 3199617103472 1 0
-28.424675 23.872278 0.21573824 16 3199617103472 1 0
-27.060223 27.665571 -0.22492106 10 3199617105776 1 0
-18.230713 16.901783 -2.6778545 7 3199617105776 1 0
-16.433235 18.536875 -2.3124485 2 3199617108080 1 0
-31.959988 29.63934 1.0142729 20 3199617108080 1 0
-27.109459 30.589184 0.47584093 28 3199617110384 1 0
-19.275091 17.880981 -1.8385016 3 3199617110384 1 0
-17.835682 18.251392 -2.083256 3 3199617112688 1 0
-28.582155 24.034327 1.0868224 13 3199617112688 1 0
-28.671816 29.34906 0.7161769 44 3199617114992 1 0
-22.003891 18.508495 -1.8427446 9 3199617114992 1 0
-31.820395 29.546059 2.5288148 36 3199617117296 1 0
-16.634823 18.787376 -1.4613824 6 3199617117296 1 0
-28.63787 29.332232 1.6701384 43 3199617119600 1 0
0 0 0 12 3199617119600 1 0
-18.72982 19.18981 -1.405325 4 3199617121904 1 0
