# .PCD v.7 - Point Cloud Data file format
VERSION .7
FIELDS x y z rgb timestamp_ns device_id active
SIZE 4 4 4 4 8 1 1
TYPE F F F F F U U
COUNT 1 1 1 1 1 1 1
WIDTH 1006
HEIGHT 1
VIEWPOINT 0 0 0 1 0 0 0
POINTS 1006               
DATA ascii
0 0 0 29 3198864660816 1 0
35.454544 -23.918892 -0.9951971 21 3198864660816 1 0
0 0 0 8 3198864681552 1 0
41.652233 -25.305044 -0.8507001 16 3198864681552 1 0
33.241898 -24.94814 -1.2095844 8 3198864683856 1 0
0 0 0 1 3198864683856 1 0
6.6028748 -4.956978 -1.6513076 2 3198864686160 1 0
39.725273 -26.892662 0 8 3198864686160 1 0
30.408562 -25.250156 -0.46014872 4 3198864688464 1 0
8.48605 -5.7465677 -1.5944611 5 3198864688464 1 0
10.180815 -7.647678 -1.6207789 3 3198864690768 1 0
0 0 0 5 3198864690768 1 0
32.345505 -24.304825 -0.23515002 5 3198864693072 1 0
11.710881 -7.9353228 -1.5237768 10 3198864693072 1 0
10.576345 -8.7900095 -1.2837435 21 3198864695376 1 0
42.29405 -28.667532 1.1889325 35 3198864695376 1 0
29.751049 -24.73344 0.4504168 10 3198864697680 1 0
17.679222 -11.986991 -1.4936256 5 3198864697680 1 0
15.077014 -11.339357 -1.5400667 4 3198864699984 1 0
45.944733 -27.986116 1.5656525 8 3198864699984 1 0
38.316185 -28.82616 0.8369476 18 3198864702288 1 0
19.375877 -11.806209 -1.4541386 3 3198864702288 1 0
19.286116 -16.047686 -1.4611499 6 3198864704592 1 0
39.048588 -26.500877 2.7483478 44 3198864704592 1 0
34.916363 -26.284307 1.7805364 18 3198864706896 1 0
24.119474 -16.374147 -1.3579643 4 3198864706896 1 0
22.531672 -16.966505 -1.4781767 4 3198864709200 1 0
0 0 0 1 3198864709200 1 0
27.35579 -16.690401 -1.3055639 4 3198864711504 1 0
28.462765 -23.711475 -1.2936546 13 3198864713808 1 0
0 0 0 9 3198864713808 1 0
0 0 0 29 3198864716112 1 0
34.94285 -26.32017 3.5712495 12 3198864711504 1 0
35.38737 -24.053747 -0.9956624 14 3198864716112 1 0
0 0 0 8 3198864736296 1 0
40.891727 -25.038853 -0.8369476 16 3198864736296 1 0
33.164177 -25.071257 -1.2099335 8 3198864738600 1 0
0 0 0 1 3198864738600 1 0
6.58866 -4.982362 -1.6520921 2 3198864740904 1 0
39.274273 -26.787743 0 8 3198864740904 1 0
0 0 0 15 3198864743208 1 0
8.475734 -5.7828374 -1.5963058 5 3198864743208 1 0
10.157222 -7.685563 -1.621284 3 3198864745512 1 0
32.196682 -24.369305 -0.23468508 5 3198864747816 1 0
44.030136 -26.995796 0.30017373 11 3198864745512 1 0
11.68311 -7.976153 -1.5237768 9 3198864747816 1 0
10.505896 -8.793643 -1.2789104 25 3198864750120 1 0
42.279583 -28.873627 1.1913519 26 3198864750120 1 0
29.7872 -24.939846 0.45227936 15 3198864752424 1 0
17.647156 -12.055383 -1.4944627 5 3198864752424 1 0
15.043696 -11.396731 -1.5407177 4 3198864754728 1 0
45.485577 -27.924583 1.5533181 8 3198864754728 1 0
37.887012 -28.710936 0.8297572 18 3198864757032 1 0
19.334547 -11.873771 -1.4541386 3 3198864757032 1 0
19.22692 -16.112345 -1.4609174 6 3198864759336 1 0
38.71851 -26.474737 2.7316039 43 3198864759336 1 0
34.67154 -26.290115 1.7727207 18 3198864761640 1 0
23.973125 -16.397335 -1.352939 4 3198864761640 1 0
22.561422 -17.112642 -1.4840384 4 3198864763944 1 0
34.685604 -26.316677 3.5543256 24 3198864766248 1 0
0 0 0 1 3198864763944 1 0
27.28715 -16.779509 -1.3050754 4 3198864766248 1 0
28.382885 -23.813255 -1.2937942 13 3198864768552 1 0
0 0 0 9 3198864768552 1 0
0 0 0 29 3198864770856 1 0
35.435165 -24.267506 -0.9993845 21 3198864770856 1 0
0 0 0 8 3198864791592 1 0
41.563046 -25.649822 -0.85251516 17 3198864791592 1 0
33.07328 -25.184446 -1.2098172 8 3198864793896 1 0
0 0 0 1 3198864793896 1 0
6.5743484 -5.0077066 -1.6528765 2 3198864796200 1 0
37.331112 -25.653765 0 7 3198864796200 1 0
29.699232 -25.013506 -0.45204654 16 3198864798504 1 0
8.452239 -5.8101487 -1.595691 4 3198864798504 1 0
10.130333 -7.7209716 -1.621284 3 3198864800808 1 0
43.901608 -27.1283 0.29994124 11 3198864800808 1 0
31.996908 -24.39424 -0.23384815 5 3198864803112 1 0
11.6486435 -8.012379 -1.52292 9 3198864803112 1 0
10.450775 -8.809726 -1.2759361 38 3198864805416 1 0
39.1279 -26.922037 1.1051853 15 3198864805416 1 0
29.599058 -24.958586 0.45074275 10 3198864807720 1 0
17.611542 -12.121433 -1.4950207 5 3198864807720 1 0
15.01967 -11.4612665 -1.5423449 4 3198864810024 1 0
45.30622 -28.032696 1.5505254 25 3198864810024 1 0
37.627605 -28.721678 0.8262667 17 3198864812328 1 0
19.299772 -11.945391 -1.4546503 3 3198864812328 1 0
19.173613 -16.181936 -1.4611499 6 3198864814632 1 0
38.431843 -26.476068 2.7178829 43 3198864814632 1 0
34.398514 -26.272705 1.7634394 9 3198864816936 1 0
22.444416 -17.147642 -1.4802701 4 3198864819240 1 0
24.004576 -16.542133 -1.3579643 4 3198864816936 1 0
0 0 0 1 3198864819240 1 0
34.43515 -26.316551 3.5380528 36 3198864821544 1 0
27.238604 -16.880972 -1.3055639 4 3198864821544 1 0
28.308748 -23.919926 -1.2942129 13 3198864823848 1 0
0 0 0 9 3198864823848 1 0
0 0 0 29 3198864826152 1 0
35.27783 -24.341087 -0.99733734 21 3198864826152 1 0
0 0 0 8 3198864846888 1 0
40.705738 -25.31738 -0.83673817 16 3198864846888 1 0
32.988525 -25.301933 -1.2099335 8 3198864849192 1 0
0 0 0 1 3198864849192 1 0
6.5569015 -5.0305295 -1.6528765 2 3198864851496 1 0
37.353527 -25.86079 0 15 3198864851496 1 0
29.612286 -25.116377 -0.45204654 16 3198864853800 1 0
10.122431 -7.770489 -1.6243144 4 3198864856104 1 0
8.438532 -5.843934 -1.5969207 5 3198864853800 1 0
43.47129 -27.07078 0.29763973 33 3198864856104 1 0
31.87121 -24.47295 -0.23354594 11 3198864858408 1 0
11.6241665 -8.054833 -1.5233485 9 3198864858408 1 0
0 0 0 84 3198864860712 1 0
38.86068 -26.936012 1.1002535 15 3198864860712 1 0
29.51608 -25.06284 0.4507893 10 3198864863016 1 0
17.582859 -12.191035 -1.4961369 3 3198864863016 1 0
14.992885 -11.522471 -1.5436468 4 3198864865320 1 0
45.18259 -28.17112 1.5495945 8 3198864865320 1 0
37.354618 -28.71633 0.8224272 17 3198864867624 1 0
19.265516 -12.015651 -1.4551619 3 3198864867624 1 0
19.121233 -16.249962 -1.4613824 6 3198864869928 1 0
38.154125 -26.4775 2.7046273 42 3198864869928 1 0
34.156643 -26.272911 1.7556236 9 3198864872232 1 0
23.944733 -16.62163 -1.3577782 4 3198864872232 1 0
22.468239 -17.287262 -1.4857131 4 3198864874536 1 0
0 0 0 1 3198864874536 1 0
34.19077 -26.3142 3.5221052 35 3198864876840 1 0
27.269257 -17.02842 -1.3097974 4 3198864876840 1 0
28.23666 -24.023493 -1.2946317 13 3198864879144 1 0
0 0 0 9 3198864879144 1 0
0 0 0 29 3198864881448 1 0
35.247856 -24.496758 -0.9988262 21 3198864881448 1 0
0 0 0 8 3198864902184 1 0
31.491367 -19.731527 -0.64867103 11 3198864902184 1 1
32.91989 -25.423885 -1.2105153 17 3198864904488 1 0
0 0 0 1 3198864904488 1 0
6.5338283 -5.04764 -1.6513076 2 3198864906792 1 0
38.3627 -26.74975 0 16 3198864906792 1 0
30.07522 -25.68326 -0.46042812 21 3198864909096 1 0
8.425334 -5.876775 -1.5981506 4 3198864909096 1 0
10.086735 -7.797321 -1.6227992 3 3198864911400 1 0
43.38648 -27.221561 0.29768622 33 3198864911400 1 0
0 0 0 31 3198864913704 1 0
11.603325 -8.098732 -1.5242052 9 3198864913704 1 0
10.341741 -8.839707 -1.2699877 2 3198864916008 1 0
38.535984 -26.905579 1.0936468 15 3198864916008 1 0
30.254086 -25.867981 0.46340823 5 3198864918312 1 0
17.541088 -12.251061 -1.4961369 3 3198864918312 1 0
14.959551 -11.578747 -1.5442977 5 3198864920616 1 0
0 0 0 27 3198864920616 1 0
37.378742 -28.940409 0.8251498 26 3198864922920 1 0
19.230743 -12.086236 -1.4556736 3 3198864922920 1 0
19.07397 -16.323843 -1.4620801 3 3198864925224 1 0
37.869152 -26.474424 2.6909065 42 3198864925224 1 0
33.89766 -26.261753 1.7469937 18 3198864927528 1 0
23.919554 -16.727663 -1.3596394 4 3198864927528 1 0
22.398287 -17.358244 -1.4850851 4 3198864929832 1 0
45.06953 -31.528727 6.7535114 21 3198864929832 1 0
33.947083 -26.316639 3.5064833 35 3198864932136 1 0
27.21955 -17.130285 -1.3102859 4 3198864932136 1 0
28.161036 -24.130533 -1.2950505 13 3198864934440 1 0
0 0 0 9 3198864934440 1 0
0 0 0 29 3198864936744 1 0
35.154507 -24.616592 -0.99864006 14 3198864936744 1 0
0 0 0 4 3198864957480 1 0
0 0 0 29 3198864957480 1 0
32.82667 -25.544134 -1.2105153 17 3198864959784 1 0
0 0 0 1 3198864959784 1 0
6.515358 -5.071459 -1.6513076 2 3198864962088 1 0
38.146973 -26.806826 0 16 3198864962088 1 0
29.277998 -25.187498 -0.4496252 100 3198864964392 1 0
8.403867 -5.907432 -1.5981506 3 3198864964392 1 0
10.058316 -7.8339453 -1.6227992 3 3198864966696 1 0
43.371723 -27.432592 0.29826742 33 3198864966696 1 0
0 0 0 9 3198864969000 1 0
11.599883 -8.159089 -1.5276324 10 3198864969000 1 0
10.327768 -8.892694 -1.2722185 2 3198864971304 1 0
38.264954 -26.923002 1.088715 15 3198864971304 1 0
0 0 0 24 3198864973608 1 0
17.506485 -12.321269 -1.4969739 3 3198864973608 1 0
14.933409 -11.644888 -1.545925 5 3198864975912 1 0
45.270283 -28.670319 1.5594853 43 3198864975912 1 0
37.312164 -29.104292 0.8259875 26 3198864978216 1 0
19.2006 -12.163929 -1.4566969 3 3198864978216 1 0
19.030327 -16.405298 -1.4632429 3 3198864980520 1 0
37.54528 -26.449314 2.6746275 41 3198864980520 1 0
33.645756 -26.260162 1.7388521 9 3198864982824 1 0
23.843098 -16.801804 -1.3587089 4 3198864982824 1 0
22.35178 -17.450563 -1.4861318 4 3198864985128 1 0
45.06352 -31.765265 6.7695985 42 3198864985128 1 0
33.698936 -26.317446 3.490536 34 3198864987432 1 0
27.17846 -17.240211 -1.311263 5 3198864987432 1 0
28.071844 -24.228115 -1.2949109 13 3198864989736 1 0
0 0 0 9 3198864989736 1 0
0 0 0 29 3198864992040 1 0
34.883766 -24.612349 -0.9934291 21 3198864992040 1 0
0 0 0 4 3198865012776 1 0
31.15706 -19.83395 -0.6446919 41 3198865012776 1 1
32.715466 -25.641062 -1.2097008 17 3198865015080 1 0
0 0 0 1 3198865015080 1 0
6.5007763 -5.0964966 -1.6520921 2 3198865017384 1 0
37.909912 -26.837574 0 8 3198865017384 1 0
8.383325 -5.936548 -1.5981506 4 3198865019688 1 0
10.031138 -7.868716 -1.6227992 3 3198865021992 1 0
44.91244 -28.62524 0.30954254 12 3198865021992 1 0
31.704445 -24.876965 -0.23422012 5 3198865024296 1 0
11.581366 -8.206008 -1.5289174 11 3198865024296 1 0
0 0 0 37 3198865026600 1 0
37.995743 -26.929874 1.0836902 15 3198865026600 1 0
29.39904 -25.469616 -0.45283812 53 3198865019688 1 0
29.11906 -25.255243 0.44874048 56 3198865028904 1 0
17.463999 -12.381414 -1.4969739 3 3198865028904 1 0
14.902757 -11.703465 -1.5469013 5 3198865031208 1 0
45.26598 -28.885763 1.5627435 51 3198865031208 1 0
37.294025 -29.296158 0.82780254 27 3198865033512 1 0
19.168919 -12.236067 -1.4574645 3 3198865033512 1 0
18.992237 -16.485952 -1.4646382 3 3198865035816 1 0
37.27229 -26.448078 2.6616044 40 3198865035816 1 0
33.411453 -26.261154 1.7313621 9 3198865038120 1 0
23.798687 -16.892277 -1.3594533 4 3198865038120 1 0
22.29854 -17.531471 -1.4865505 4 3198865040424 1 0
45.091114 -32.014984 6.7900724 64 3198865040424 1 0
33.386868 -26.25676 3.4674284 34 3198865042728 1 0
27.113016 -17.32811 -1.3109373 5 3198865042728 1 0
0 0 0 9 3198865045032 1 0
28.001648 -24.333597 -1.2954693 13 3198865045032 1 0
0 0 0 29 3198865047336 1 0
34.793816 -24.725536 -0.99324304 21 3198865047336 1 0
0 0 0 4 3198865068072 1 0
30.996851 -19.876713 -0.6427372 5 3198865068072 1 1
31.817142 -25.108135 -1.1795629 8 3198865070376 1 0
0 0 0 1 3198865070376 1 0
6.4837656 -5.11812 -1.6520921 2 3198865072680 1 0
37.826828 -26.968334 0 8 3198865072680 1 0
29.371132 -25.617558 -0.45372286 61 3198865074984 1 0
8.3634615 -5.964498 -1.5981506 4 3198865074984 1 0
10.010987 -7.907147 -1.6238093 3 3198865077288 1 0
31.683638 -25.032707 -0.23468508 5 3198865079592 1 0
30.925528 -19.856377 0.21359946 5 3198865077288 1 1
11.550552 -8.242478 -1.5284891 10 3198865079592 1 0
10.1649885 -8.873735 -1.259578 45 3198865081896 1 0
37.771606 -26.962122 1.079875 7 3198865081896 1 0
29.295969 -25.582026 0.45279157 15 3198865084200 1 0
14.872561 -11.761104 -1.5478778 5 3198865086504 1 0
17.441696 -12.454059 -1.498648 3 3198865084200 1 0
45.25906 -29.096718 1.5658853 34 3198865086504 1 0
38.559204 -30.501427 0.85816973 18 3198865088808 1 0
19.137505 -12.307295 -1.4582319 3 3198865088808 1 0
18.91822 -16.534452 -1.4632429 3 3198865091112 1 0
36.971275 -26.423311 2.6464882 40 3198865091112 1 0
33.155983 -26.243008 1.7227321 9 3198865093416 1 0
23.750933 -16.979975 -1.3600117 4 3198865093416 1 0
22.254404 -17.619658 -1.4875972 4 3198865095720 1 0
33.143982 -26.249195 3.4514809 33 3198865098024 1 0
27.05712 -17.422646 -1.3111001 5 3198865098024 1 0
44.968975 -32.159023 6.7881227 43 3198865095720 1 0
27.94238 -24.450222 -1.2965862 13 3198865100328 1 0
0 0 0 9 3198865100328 1 0
0 0 0 29 3198865102632 1 0
35.541367 -25.440428 -1.0170645 14 3198865102632 1 0
0 0 0 4 3198865123368 1 0
30.695501 -19.83502 -0.6379204 17 3198865123368 1 1
30.461458 -24.211699 -1.1324363 16 3198865125672 1 0
0 0 0 1 3198865125672 1 0
6.468856 -5.1432567 -1.6528765 3 3198865127976 1 0
37.871765 -27.201097 0 8 3198865127976 1 0
29.338066 -25.770718 -0.45460758 49 3198865130280 1 0
8.34888 -5.9984503 -1.5993804 3 3198865130280 1 0
9.986199 -7.9448047 -1.6243144 5 3198865132584 1 0
0 0 0 21 3198865132584 1 0
31.638968 -25.17917 -0.23501053 5 3198865134888 1 0
11.527867 -8.287808 -1.5293459 10 3198865134888 1 0
10.097671 -8.878049 -1.2551167 37 3198865137192 1 0
37.77023 -27.163158 1.0825735 15 3198865137192 1 0
29.20218 -25.682976 0.45274502 15 3198865139496 1 0
17.403957 -12.5204115 -1.4992062 3 3198865139496 1 0
14.855677 -11.833681 -1.5504814 5 3198865141800 1 0
43.890476 -28.437508 1.5220168 8 3198865141800 1 0
38.35353 -30.561092 0.8560056 28 3198865144104 1 0
19.093616 -12.375272 -1.4582319 3 3198865144104 1 0
18.880163 -16.62023 -1.4648708 3 3198865146408 1 0
36.698654 -26.426546 2.6336977 40 3198865146408 1 0
32.89332 -26.226683 1.7139393 9 3198865148712 1 0
23.712847 -17.08102 -1.3613145 4 3198865148712 1 0
22.22557 -17.726568 -1.4899 4 3198865151016 1 0
44.966362 -32.400948 6.8051844 43 3198865151016 1 0
32.90007 -26.248508 3.435859 33 3198865153320 1 0
27.021301 -17.536945 -1.3124027 5 3198865153320 1 0
27.86636 -24.561018 -1.2971445 13 3198865155624 1 0
0 0 0 9 3198865155624 1 0
0 0 0 29 3198865157928 1 0
34.65494 -24.99508 -0.9942666 14 3198865157928 1 0
0 0 0 87 3198865178664 1 0
0 0 0 4 3198865178664 1 0
30.36957 -24.320461 -1.1323199 24 3198865180968 1 0
0 0 0 1 3198865180968 1 0
6.446975 -5.1643853 -1.6520921 2 3198865183272 1 0
37.94071 -27.461128 0 8 3198865183272 1 0
29.231997 -25.866835 -0.4544213 57 3198865185576 1 0
8.330172 -6.0311465 -1.5999953 4 3198865185576 1 0
9.963438 -7.9860263 -1.6253246 5 3198865187880 1 0
30.739094 -20.048758 0.21329723 26 3198865187880 1 1
31.662855 -25.386395 -0.2358707 5 3198865190184 1 0
11.497717 -8.329587 -1.5293459 10 3198865190184 1 0
10.035637 -8.888154 -1.2513989 17 3198865192488 1 0
40.903194 -29.641624 1.17544 25 3198865192488 1 0
29.210957 -25.878532 0.45432818 15 3198865194792 1 0
17.361822 -12.585574 -1.4994851 3 3198865194792 1 0
14.825334 -11.89717 -1.5517832 5 3198865197096 1 0
43.389244 -28.335478 1.5081697 8 3198865197096 1 0
38.065495 -30.556252 0.85202646 74 3198865199400 1 0
19.062313 -12.452657 -1.4592552 4 3198865199400 1 0
18.820333 -16.687948 -1.4648708 3 3198865201704 1 0
36.40309 -26.412817 2.6192791 39 3198865201704 1 0
23.644989 -17.161232 -1.3609424 4 3198865204008 1 0
32.637047 -26.214296 1.7054722 18 3198865204008 1 0
22.162004 -17.805975 -1.4899 4 3198865206312 1 0
44.952953 -32.636265 6.8207836 43 3198865206312 1 0
32.656975 -26.245937 3.420237 33 3198865208616 1 0
26.98527 -17.650818 -1.3137053 5 3198865208616 1 0
27.841442 -24.715893 -1.300076 13 3198865210920 1 0
0 0 0 9 3198865210920 1 0
0 0 0 29 3198865213224 1 0
35.329292 -25.672945 -1.016227 14 3198865213224 1 0
0 0 0 4 3198865233960 1 0
30.422384 -19.968573 -0.63519776 100 3198865233960 1 1
30.275509 -24.418352 -1.1319709 24 3198865236264 1 0
0 0 0 1 3198865236264 1 0
6.42906 -5.1866713 -1.6520921 2 3198865238568 1 0
36.55902 -26.65441 0 7 3198865238568 1 0
29.244192 -26.057915 -0.4560045 51 3198865240872 1 0
8.302945 -6.0551667 -1.5987655 4 3198865240872 1 0
9.935967 -8.020179 -1.6253246 5 3198865243176 1 0
0 0 0 1 3198865243176 1 0
31.743958 -25.630157 -0.23712608 5 3198865245480 1 0
11.48203 -8.378213 -1.5310594 19 3198865245480 1 0
0 0 0 56 3198865247784 1 0
40.5792 -29.617992 1.1690193 17 3198865247784 1 0
29.191742 -26.03861 0.4553992 15 3198865250088 1 0
17.331963 -12.65375 -1.5006013 3 3198865250088 1 0
14.794407 -11.954644 -1.5527596 5 3198865252392 1 0
43.08629 -28.34548 1.5009552 8 3198865252392 1 0
0 0 0 21 3198865254696 1 0
19.023703 -12.518826 -1.459511 4 3198865254696 1 0
18.767382 -16.753471 -1.4651034 3 3198865257000 1 0
36.127525 -26.397804 2.6057909 39 3198865257000 1 0
0 0 0 9 3198865259304 1 0
23.610281 -17.256393 -1.3622452 4 3198865259304 1 0
22.127682 -17.899467 -1.4915748 4 3198865261608 1 0
44.956657 -32.867165 6.8378453 44 3198865261608 1 0
32.42138 -26.233242 3.404615 32 3198865263912 1 0
27.006947 -17.792587 -1.3176132 5 3198865263912 1 0
0 0 0 9 3198865266216 1 0
27.75707 -24.804611 -1.2999364 20 3198865266216 1 0
0 0 0 29 3198865268520 1 0
35.27091 -25.807314 -1.0169715 14 3198865268520 1 0
0 0 0 4 3198865289256 1 0
30.392866 -20.0861 -0.6358959 17 3198865289256 1 1
30.139309 -24.465906 -1.12976 24 3198865291560 1 0
6.415627 -5.2095017 -1.6528765 3 3198865293864 1 0
0 0 0 1 3198865291560 1 0
9.912909 -8.889661 -0.15501267 5 3198865296168 1 0
33.372185 -24.49339 0 6 3198865293864 1 0
8.2899885 -6.086261 -1.5999953 2 3198865296168 1 0
9.904095 -8.046926 -1.6243144 5 3198865298472 1 0
38.94481 -25.77049 0.27141637 9 3198865298472 1 0
31.080952 -25.260305 -0.23277877 5 3198865300776 1 0
11.445425 -8.408013 -1.5297742 11 3198865300776 1 0
9.93201 -8.914613 -1.2458223 2 3198865303080 1 0
40.2739 -29.594944 1.1629709 25 3198865303080 1 0
29.145824 -26.167892 0.4560045 15 3198865305384 1 0
17.319767 -12.731168 -1.5031126 3 3198865305384 1 0
14.761566 -12.007812 -1.5534105 5 3198865307688 1 0
42.667065 -28.269281 1.4895517 8 3198865307688 1 0
18.98596 -12.583219 -1.4597669 4 3198865309992 1 0
31.077555 -25.28758 0.69935286 7 3198865309992 1 0
18.721123 -16.823078 -1.465801 3 3198865312296 1 0
35.863655 -26.386257 2.5930004 38 3198865312296 1 0
32.632935 -26.568964 1.7144278 27 3198865314600 1 0
22.130148 -18.023197 -1.4957616 4 3198865316904 1 0
23.559614 -17.338987 -1.3626174 4 3198865314600 1 0
44.968914 -33.105507 6.8563695 44 3198865316904 1 0
32.179283 -26.21518 3.3883421 31 3198865319208 1 0
26.950865 -17.88465 -1.3177761 5 3198865319208 1 0
27.685825 -24.90802 -1.3004948 20 3198865321512 1 0
0 0 0 9 3198865321512 1 0
35.180782 -25.923298 -1.0168784 14 3198865323816 1 0
0 0 0 29 3198865323816 1 0
0 0 0 4 3198865344552 1 0
0 0 0 7 3198865344552 1 0
30.081583 -24.593739 -1.1308073 24 3198865346856 1 0
0 0 0 1 3198865346856 1 0
6.4004397 -5.234348 -1.653661 3 3198865349160 1 0
33.161045 -24.516989 0 6 3198865349160 1 0
9.908533 -8.948336 -0.15543175 11 3198865351464 1 0
8.271871 -6.1175117 -1.6006103 4 3198865351464 1 0
9.879016 -8.0839615 -1.6248195 5 3198865353768 1 0
38.15573 -25.440296 0.26653436 8 3198865353768 1 0
30.90592 -25.297705 -0.23212783 5 3198865356072 1 0
11.409613 -8.443183 -1.5289174 10 3198865356072 1 0
9.868331 -8.91985 -1.2417327 2 3198865358376 1 0
40.13178 -29.706795 1.1618543 41 3198865358376 1 0
17.281635 -12.796297 -1.5036706 3 3198865360680 1 0
14.738065 -12.074426 -1.5553633 5 3198865362984 1 0
29.098806 -26.309708 0.45670298 15 3198865360680 1 0
29.974478 -24.564419 0.67645526 13 3198865365288 1 0
18.94856 -12.653849 -1.4602785 4 3198865365288 1 0
18.659325 -16.885645 -1.4655684 3 3198865367592 1 0
42.25887 -28.211586 1.4787301 16 3198865362984 1 0
35.594883 -26.38051 2.5802097 37 3198865367592 1 0
32.620346 -26.748602 1.7186614 27 3198865369896 1 0
23.579191 -17.48061 -1.3672706 4 3198865369896 1 0
22.082542 -18.113003 -1.4968083 4 3198865372200 1 0
32.038265 -26.286886 3.3831348 31 3198865374504 1 0
44.974262 -33.352142 6.874893 45 3198865372200 1 0
26.914852 -17.99639 -1.3190787 5 3198865374504 1 0
27.613523 -25.017931 -1.3011929 20 3198865376808 1 0
0 0 0 29 3198865379112 1 0
0 0 0 9 3198865376808 1 0
35.074024 -26.034025 -1.0164131 14 3198865379112 1 0
0 0 0 4 3198865400296 1 0
37.638027 -25.25358 -0.7911525 7 3198865400296 1 0
30.035677 -24.731634 -1.1323199 24 3198865402600 1 0
0 0 0 1 3198865402600 1 0
6.3821297 -5.256658 -1.653661 2 3198865404904 1 0
32.77691 -24.410398 0 5 3198865404904 1 0
9.918664 -9.020544 -0.15608364 11 3198865407208 1 0
8.256805 -6.151071 -1.60184 3 3198865407208 1 0
9.856861 -8.123444 -1.6258297 6 3198865409512 1 0
37.98369 -25.517565 0.26595318 8 3198865409512 1 0
30.684711 -25.296024 -0.23112819 5 3198865411816 1 0
11.392825 -8.492466 -1.5306311 9 3198865411816 1 0
39.832283 -29.700884 1.1561781 16 3198865414120 1 0
0 0 0 28 3198865414120 1 0
29.074814 -26.473055 0.45777395 15 3198865416424 1 0
17.252855 -12.868471 -1.5050657 3 3198865416424 1 0
14.711203 -12.138484 -1.5569905 5 3198865418728 1 0
42.239758 -28.412483 1.4815227 24 3198865418728 1 0
29.88855 -24.6689 0.67645526 20 3198865421032 1 0
18.910898 -12.724371 -1.4607902 4 3198865421032 1 0
18.617977 -16.966814 -1.4669638 3 3198865423336 1 0
35.329784 -26.3756 2.5676517 37 3198865423336 1 0
29.6855 -24.51583 1.568533 16 3198865425640 1 0
23.518028 -17.56281 -1.3672706 4 3198865425640 1 0
22.019182 -18.189974 -1.4968083 4 3198865427944 1 0
44.975254 -33.596844 6.89293 68 3198865427944 1 0
32.03236 -26.469667 3.3922477 10 3198865430248 1 0
26.851868 -18.090229 -1.3190787 5 3198865430248 1 0
27.517168 -25.106085 -1.3007741 20 3198865432552 1 0
0 0 0 9 3198865432552 1 0
0 0 0 29 3198865434856 1 0
33.416824 -24.985336 -0.97091043 6 3198865434856 1 0
0 0 0 4 3198865455592 1 0
37.38398 -25.272812 -0.787662 7 3198865455592 1 0
0 0 0 1 3198865457896 1 0
29.936493 -24.826553 -1.1318545 24 3198865457896 1 0
6.363588 -5.2790885 -1.653661 4 3198865460200 1 0
0 0 0 46 3198865460200 1 0
9.933912 -9.098767 -0.15682867 11 3198865462504 1 0
8.244498 -6.1873317 -1.6036848 2 3198865462504 1 0
9.834077 -8.163442 -1.6268398 7 3198865464808 1 0
37.64447 -25.484028 0.2642096 8 3198865464808 1 0
0 0 0 66 3198865467112 1 0
11.387932 -8.5521145 -1.5340581 11 3198865467112 1 0
9.781549 -8.967851 -1.2387586 36 3198865469416 1 0
38.523598 -28.94011 1.1211903 16 3198865469416 1 0
29.023739 -26.617886 0.45847243 5 3198865471720 1 0
17.209703 -12.932766 -1.5053447 3 3198865471720 1 0
14.682653 -12.20421 -1.5586178 5 3198865474024 1 0
42.19326 -28.602798 1.4835008 24 3198865474024 1 0
29.780563 -24.761639 0.6760364 20 3198865476328 1 0
18.95059 -12.851026 -1.4674418 4 3198865476328 1 0
9.95761 -9.141002 -0.78720236 1 3198865478632 1 0
35.061325 -26.374262 2.5550938 36 3198865478632 1 0
29.73713 -24.741623 1.5760231 16 3198865480936 1 0
23.460142 -17.653355 -1.3676428 4 3198865480936 1 0
21.970787 -18.285889 -1.4980644 4 3198865483240 1 0
44.956486 -33.840252 6.9090166 69 3198865483240 1 0
29.615393 -24.656376 3.145876 8 3198865485544 1 0
26.804958 -18.202387 -1.3200557 5 3198865485544 1 0
0 0 0 15 3198865487848 1 0
0 0 0 9 3198865487848 1 0
0 0 0 29 3198865490152 1 0
33.30157 -25.092255 -0.9702591 6 3198865490152 1 0
0 0 0 4 3198865510888 1 0
37.27675 -25.409412 -0.7874526 7 3198865510888 1 0
29.91187 -24.999859 -1.1345308 32 3198865513192 1 0
0 0 0 1 3198865513192 1 0
6.3434253 -5.3032994 -1.653661 3 3198865515496 1 0
0 0 0 3 3198865515496 1 0
9.855213 -9.095721 -0.15613021 15 3198865517800 1 0
8.214646 -6.213815 -1.6024549 3 3198865517800 1 0
9.800093 -8.198025 -1.6263347 7 3198865520104 1 0
37.31987 -25.470617 0.26260552 8 3198865520104 1 0
29.878798 -25.001757 -0.22643216 43 3198865522408 1 0
11.387346 -8.618953 -1.538342 10 3198865522408 1 0
9.715649 -8.974766 -1.234669 33 3198865524712 1 0
38.48168 -29.135153 1.1231444 16 3198865524712 1 0
0 0 0 15 3198865527016 1 0
17.161242 -12.997004 -1.5053447 3 3198865527016 1 0
14.640167 -12.261354 -1.5589433 5 3198865529320 1 0
42.162395 -28.811584 1.4861772 16 3198865529320 1 0
29.709982 -24.889898 0.67652506 20 3198865531624 1 0
18.899504 -12.918968 -1.467186 4 3198865531624 1 0
0 0 0 93 3198865533928 1 0
34.79181 -26.373344 2.5425358 36 3198865533928 1 0
29.612194 -24.822638 1.574232 16 3198865536232 1 0
23.414127 -17.754047 -1.3687595 4 3198865536232 1 0
21.931166 -18.38939 -1.4999485 4 3198865538536 1 0
44.933376 -34.081573 6.924616 69 3198865538536 1 0
29.439655 -24.69259 3.136763 8 3198865540840 1 0
26.764715 -18.318178 -1.3213583 5 3198865540840 1 0
0 0 0 109 3198865543144 1 0
0 0 0 9 3198865543144 1 0
0 0 0 29 3198865545448 1 0
33.33788 -25.309414 -0.97398114 13 3198865545448 1 0
0 0 0 4 3198865566184 1 0
37.37904 -25.670696 -0.7915015 7 3198865566184 1 0
29.739136 -25.031591 -1.1312727 24 3198865568488 1 0
0 0 0 1 3198865568488 1 0
6.322029 -5.3227 -1.6528765 3 3198865570792 1 0
32.08517 -24.437923 0 5 3198865570792 1 0
9.823801 -9.129639 -0.15613021 11 3198865573096 1 0
8.193178 -6.2420945 -1.6024549 3 3198865573096 1 0
9.771895 -8.231615 -1.6263347 7 3198865575400 1 0
37.24211 -25.605364 0.26267526 8 3198865575400 1 0
29.658579 -24.99033 -0.22540925 16 3198865577704 1 0
11.376798 -8.67229 -1.5409124 11 3198865577704 1 0
9.655885 -8.980657 -1.2309512 17 3198865580008 1 0
38.46816 -29.331419 1.1256568 24 3198865580008 1 0
9.807306 -9.123883 0.15594395 12 3198865582312 1 0
17.110754 -13.050246 -1.5047866 3 3198865582312 1 0
14.601758 -12.313254 -1.5592687 5 3198865584616 1 0
42.871853 -29.509096 1.5146859 8 3198865584616 1 0
29.571163 -24.94316 0.67526853 20 3198865586920 1 0
18.87243 -12.993712 -1.4684651 4 3198865586920 1 0
9.828719 -9.151007 -0.78208613 106 3198865589224 1 0
34.53516 -26.36117 2.5302103 36 3198865589224 1 0
29.486593 -24.88504 1.5719523 24 3198865591528 1 0
23.367567 -17.841633 -1.369504 4 3198865591528 1 0
21.897535 -18.485207 -1.5018326 4 3198865593832 1 0
44.94001 -34.32196 6.94314 47 3198865593832 1 0
29.443262 -24.861671 3.145876 8 3198865596136 1 0
26.713963 -18.41325 -1.3218468 5 3198865596136 1 0
9.808258 -9.141549 -0.46821165 109 3198865598440 1 0
0 0 0 9 3198865598440 1 0
33.28347 -25.440233 -0.97481865 6 3198865600744 1 0
0 0 0 29 3198865600744 1 0
0 0 0 4 3198865621480 1 0
37.32124 -25.80392 -0.7919902 7 3198865621480 1 0
29.69928 -25.159355 -1.1327854 24 3198865623784 1 0
0 0 0 1 3198865623784 1 0
6.304965 -5.3429017 -1.6528765 4 3198865626088 1 0
0 0 0 11 3198865626088 1 0
9.943245 -9.300656 -0.158505 11 3198865628392 1 0
8.179254 -6.2733274 -1.6036848 3 3198865628392 1 0
9.748052 -8.265974 -1.6268398 9 3198865630696 1 0
37.28017 -25.810806 0.2635354 8 3198865630696 1 0
29.615929 -25.121319 -0.22571148 5 3198865633000 1 0
11.357695 -8.716903 -1.5421975 16 3198865633000 1 0
0 0 0 56 3198865635304 1 0
38.45632 -29.524574 1.1281693 24 3198865635304 1 0
28.90689 -27.07347 0.46108 15 3198865637608 1 0
17.076496 -13.114703 -1.5056237 3 3198865637608 1 0
0 0 0 240 3198865639912 1 0
42.430305 -29.416672 1.5025842 8 3198865639912 1 0
29.547066 -25.095438 0.6766647 6 3198865642216 1 0
18.831379 -13.060142 -1.4687209 4 3198865642216 1 0
0 0 0 49 3198865644520 1 0
34.279846 -26.352999 2.5181172 35 3198865644520 1 0
0 0 0 19 3198865646824 1 0
23.324673 -17.937029 -1.3706207 4 3198865646824 1 0
21.8907 -18.610691 -1.5058101 4 3198865649128 1 0
44.942657 -34.573032 6.962152 71 3198865649128 1 0
39.107357 -33.258457 4.1909213 18 3198865651432 1 0
26.655552 -18.51172 -1.3221725 5 3198865651432 1 0
0 0 0 43 3198865653736 1 0
0 0 0 9 3198865653736 1 0
0 0 0 29 3198865656040 1 0
34.47544 -26.547268 -1.0125049 14 3198865656040 1 0
0 0 0 4 3198865676776 1 0
37.313747 -26.011072 -0.7939449 7 3198865676776 1 0
29.681887 -25.340275 -1.1358109 24 3198865679080 1 0
0 0 0 1 3198865679080 1 0
6.290525 -5.371983 -1.6544454 4 3198865681384 1 0
31.808617 -24.581537 0 39 3198865681384 1 0
28.908619 -27.246868 -0.46247694 34 3198865683688 1 0
8.152253 -6.3019137 -1.6030699 3 3198865683688 1 0
9.734824 -8.318244 -1.6298702 11 3198865685992 1 0
38.39919 -26.800932 0.2721603 9 3198865685992 1 0
29.5819 -25.284681 -0.22617643 16 3198865688296 1 0
11.343652 -8.774225 -1.5447679 23 3198865688296 1 0
9.577678 -9.03502 -1.2290924 3 3198865690600 1 0
37.276253 -28.84155 1.0967175 15 3198865690600 1 0
28.866581 -27.238977 0.46205786 21 3198865692904 1 0
17.027355 -13.178442 -1.5056237 3 3198865692904 1 0
0 0 0 226 3198865695208 1 0
42.169724 -29.469097 1.4972316 24 3198865695208 1 0
29.396053 -25.155443 0.6753383 13 3198865697512 1 0
18.799171 -13.141329 -1.47 4 3198865697512 1 0
0 0 0 24 3198865699816 1 0
34.024414 -26.357185 2.5064895 34 3198865699816 1 0
30.537651 -26.147749 1.6378981 17 3198865702120 1 0
23.277462 -18.03742 -1.3717375 4 3198865702120 1 0
21.843578 -18.708988 -1.5072756 4 3198865704424 1 0
44.91919 -34.817787 6.9782386 72 3198865704424 1 0
38.797974 -33.240185 4.170743 18 3198865706728 1 0
26.66638 -18.663908 -1.3260803 5 3198865706728 1 0
0 0 0 32 3198865709032 1 0
0 0 0 9 3198865709032 1 0
0 0 0 29 3198865711336 1 0
34.366436 -26.662142 -1.0121326 14 3198865711336 1 0
0 0 0 4 3198865732072 1 0
37.923126 -26.633049 -0.80888414 8 3198865732072 1 0
29.347677 -25.23259 -1.1263855 24 3198865734376 1 0
0 0 0 1 3198865734376 1 0
6.2747087 -5.396466 -1.6552299 4 3198865736680 1 0
0 0 0 7 3198865736680 1 0
28.871355 -27.402681 -0.46340823 59 3198865738984 1 0
8.133325 -6.3327603 -1.6036848 3 3198865738984 1 0
38.037098 -26.746145 0.270254 9 3198865741288 1 0
29.341885 -25.257313 -0.22501405 32 3198865743592 1 0
11.31923 -8.818657 -1.5456246 20 3198865743592 1 0
9.717759 -8.362527 -1.6318905 18 3198865741288 1 0
9.546082 -9.0683975 -1.2290924 5 3198865745896 1 0
37.320442 -29.084566 1.1009979 23 3198865745896 1 0
28.820614 -27.386412 0.46284947 21 3198865748200 1 0
10.302463 -8.876125 -1.1101369 107 3198865750504 1 0
16.99069 -13.245158 -1.5064608 4 3198865748200 1 0
42.11237 -29.648342 1.4988607 24 3198865750504 1 0
0 0 0 17 3198865752808 1 0
18.746656 -13.202273 -1.4694884 4 3198865752808 1 0
18.327742 -17.430922 -1.4730102 6 3198865755112 1 0
33.77164 -26.350512 2.4946291 34 3198865755112 1 0
30.39474 -26.209816 1.63513 17 3198865757416 1 0
23.208057 -18.113647 -1.3713653 4 3198865757416 1 0
21.781162 -18.787731 -1.5074849 4 3198865759720 1 0
44.906906 -35.059883 6.9953003 72 3198865759720 1 0
38.419098 -33.148827 4.142428 18 3198865762024 1 0
26.604334 -18.759182 -1.3262432 5 3198865762024 1 0
26.915588 -25.628384 -1.2978425 13 3198865764328 1 0
0 0 0 9 3198865764328 1 0
30.319654 -26.175842 7.3031826 8 3198865766632 1 0
34.279457 -26.786865 -1.0123188 14 3198865766632 1 0
0 0 0 4 3198865787368 1 0
37.679745 -26.659006 -0.8056729 15 3198865787368 1 0
29.177807 -25.264212 -1.1232437 23 3198865789672 1 0
0 0 0 1 3198865789672 1 0
6.255833 -5.418336 -1.6552299 3 3198865791976 1 0
31.696041 -24.849894 0 5 3198865791976 1 0
28.833355 -27.558567 -0.46433952 59 3198865794280 1 0
8.11739 -6.3659906 -1.6049145 4 3198865794280 1 0
9.691508 -8.398996 -1.6323956 34 3198865796584 1 0
37.953297 -26.885693 0.27032372 9 3198865796584 1 0
29.41675 -25.501064 -0.22626942 64 3198865798888 1 0
11.30715 -8.872845 -1.5481949 19 3198865798888 1 0
9.531636 -9.118183 -1.231323 10 3198865801192 1 0
37.253292 -29.241823 1.1020215 23 3198865801192 1 0
28.77108 -27.531092 0.4635945 15 3198865803496 1 0
16.953768 -13.311779 -1.5072979 4 3198865803496 1 0
10.277439 -8.917259 -1.1107877 213 3198865805800 1 0
42.083633 -29.848362 1.501537 24 3198865805800 1 0
29.3496 -25.472775 0.67834014 27 3198865808104 1 0
18.710226 -13.274561 -1.470256 4 3198865808104 1 0
18.27832 -17.505838 -1.4739405 6 3198865810408 1 0
33.513054 -26.337461 2.4823036 34 3198865810408 1 0
32.596466 -28.307386 1.7588801 46 3198865812712 1 0
23.232643 -18.26369 -1.3765768 4 3198865812712 1 0
21.724495 -18.871506 -1.5081129 4 3198865815016 1 0
44.902843 -35.30968 7.0138245 73 3198865815016 1 0
26.548466 -18.858877 -1.3267317 5 3198865817320 1 0
38.110554 -33.11538 4.1215987 17 3198865817320 1 0
26.851934 -25.74708 -1.2990988 13 3198865819624 1 0
30.183556 -26.242788 7.2924204 24 3198865821928 1 0
0 0 0 9 3198865819624 1 0
34.185745 -26.90636 -1.0123188 14 3198865821928 1 0
39.315807 -28.022991 -0.8427418 8 3198865842664 1 0
0 0 0 4 3198865842664 1 0
28.95986 -25.252914 -1.1182401 23 3198865844968 1 0
0 0 0 1 3198865844968 1 0
6.233926 -5.4375615 -1.6544454 4 3198865847272 1 0
31.740953 -25.064497 0 5 3198865847272 1 0
28.785973 -27.706198 -0.46513113 55 3198865849576 1 0
8.092017 -6.3918366 -1.6042997 4 3198865849576 1 0
9.626257 -8.401464 -1.6263347 34 3198865851880 1 0
37.84945 -27.01104 0.270254 9 3198865851880 1 0
29.378778 -25.648314 -0.22666463 64 3198865854184 1 0
11.29483 -8.927056 -1.5507653 14 3198865854184 1 0
9.350599 -9.007717 -1.2119906 20 3198865856488 1 0
37.191772 -29.403925 1.1032312 15 3198865856488 1 0
28.738167 -27.692411 0.46461892 15 3198865858792 1 0
16.907198 -13.370877 -1.5072979 4 3198865858792 1 0
10.285276 -8.987182 -1.1150187 118 3198865861096 1 0
42.070274 -30.060165 1.5047952 24 3198865861096 1 0
29.332775 -25.638237 0.68001556 27 3198865863400 1 0
18.65728 -13.335149 -1.4697442 4 3198865863400 1 0
18.234348 -17.586168 -1.4753358 6 3198865865704 1 0
33.26749 -26.332842 2.4709084 33 3198865865704 1 0
32.578682 -28.492037 1.7632766 27 3198865868008 1 0
23.203207 -18.371962 -1.3786241 4 3198865868008 1 0
21.679535 -18.965635 -1.5095783 4 3198865870312 1 0
44.891357 -35.554947 7.0313735 73 3198865870312 1 0
30.236172 -26.458895 3.2799647 28 3198865872616 1 0
26.482473 -18.951433 -1.3267317 5 3198865872616 1 0
26.802156 -25.87953 -1.3010533 13 3198865874920 1 0
0 0 0 9 3198865874920 1 0
29.994066 -26.262444 7.268744 16 3198865877224 1 0
31.703732 -25.132572 -0.94141275 6 3198865877224 1 0
0 0 0 4 3198865897960 1 0
36.91445 -26.506191 -0.7932468 7 3198865897960 1 0
28.748358 -25.24568 -1.1134692 31 3198865900264 1 0
0 0 0 1 3198865900264 1 0
6.217854 -5.4618773 -1.6552299 5 3198865902568 1 0
31.700228 -25.212488 0 5 3198865902568 1 0
28.740782 -27.856619 -0.46596926 56 3198865904872 1 0
8.072749 -6.422505 -1.6049145 4 3198865904872 1 0
9.602833 -8.440255 -1.6273448 30 3198865907176 1 0
37.68348 -27.091627 0.26974255 9 3198865907176 1 0
29.292074 -25.75335 -0.22668788 48 3198865909480 1 0
11.276046 -8.9763365 -1.5524788 14 3198865909480 1 0
9.29623 -9.018117 -1.2090164 15 3198865911784 1 0
38.487247 -30.647057 1.1448257 24 3198865911784 1 0
28.692995 -27.842695 0.46545708 21 3198865914088 1 0
16.869785 -13.437271 -1.508135 4 3198865914088 1 0
0 0 0 19 3198865916392 1 0
42.03648 -30.258223 1.5073551 8 3198865916392 1 0
29.291134 -25.782751 0.6811325 48 3198865918696 1 0
18.17858 -17.655275 -1.4758009 3 3198865921000 1 0
18.617096 -13.404859 -1.470256 4 3198865918696 1 0
33.022373 -26.326832 2.4595132 33 3198865921000 1 0
32.578003 -28.692755 1.7686499 28 3198865923304 1 0
23.160803 -18.470282 -1.379927 4 3198865923304 1 0
21.622192 -19.049116 -1.5102063 4 3198865925608 1 0
44.888016 -35.807987 7.0503855 75 3198865925608 1 0
29.994078 -26.432484 3.2636917 19 3198865927912 1 0
26.44858 -19.067131 -1.32836 5 3198865927912 1 0
26.705925 -25.967356 -1.3007741 13 3198865930216 1 0
0 0 0 9 3198865930216 1 0
29.99961 -26.452868 7.2924204 16 3198865932520 1 0
31.643934 -25.265543 -0.94225025 6 3198865932520 1 0
7.4394364 -9.343723 -1.5202694 49 3198868727512 1 0
28.43703 -29.317423 0.2373818 26 3198868727512 1 0
28.691545 -36.046535 -0.26776648 23 3198868729816 1 0
10.312038 -14.345436 -1.6491996 2 3198868732120 1 0
8.113656 -9.229624 -1.3237195 3 3198868729816 1 0
28.393866 -32.308685 1.0008733 33 3198868732120 1 0
29.365326 -40.863667 0.58582586 25 3198868734424 1 0
14.687939 -16.717949 -1.5561274 4 3198868734424 1 0
12.218608 -15.364565 -1.6025547 3 3198868736728 1 0
28.416767 -29.330658 1.1885228 31 3198868736728 1 0
29.572632 -37.19788 0.82947797 54 3198868739032 1 0
16.407705 -16.940311 -1.5114446 4 3198868739032 1 0
15.349752 -21.379808 -1.5327772 6 3198868741336 1 0
27.68406 -31.537998 2.4439318 21 3198868741336 1 0
27.59506 -34.73113 1.8072404 28 3198868743640 1 0
20.330153 -23.167137 -1.4357643 9 3198868743640 1 0
31.539385 -35.95112 5.8721523 22 3198868745944 1 0
32.075497 -40.394325 4.2107744 19 3198868748248 1 0
23.590267 -24.384394 -1.3822564 11 3198868748248 1 0
18.789997 -26.2037 -1.1259973 45 3198868750552 1 0
18.655832 -23.487234 -1.5719628 9 3198868745944 1 0
0 0 0 9 3198868750552 1 0
21.335575 -26.885042 6.257821 18 3198868752856 1 0
22.803019 -26.015594 -0.8049977 35 3198868752856 1 0
0 0 0 4 3198868773592 1 0
24.772043 -25.688066 -0.6229113 38 3198868773592 1 0
19.827316 -25.059244 -0.9299662 50 3198868775896 1 0
3.9517088 -4.5216913 -1.681072 1 3198868775896 1 0
5.190229 -6.561761 -1.6732727 3 3198868778200 1 0
28.423223 -32.53245 0 47 3198868778200 1 0
29.571785 -41.40459 -0.5923449 20 3198868780504 1 0
6.9135695 -7.9154077 -1.6350452 4 3198868780504 1 0
7.3920107 -9.350958 -1.517239 45 3198868782808 1 0
28.417767 -29.502934 0.23807923 26 3198868782808 1 0
28.689548 -36.30338 -0.26892886 24 3198868785112 1 0
8.076159 -9.251897 -1.3228627 15 3198868785112 1 0
10.2642145 -14.384586 -1.6495713 2 3198868787416 1 0
28.388718 -32.531136 1.0046885 41 3198868787416 1 0
14.634739 -16.775131 -1.5566854 4 3198868789720 1 0
29.329353 -41.115707 0.5879678 17 3198868789720 1 0
12.172313 -15.416509 -1.603531 3 3198868792024 1 0
28.411234 -29.530518 1.1925955 37 3198868792024 1 0
29.568981 -37.460983 0.8330383 54 3198868794328 1 0
16.442556 -17.0953 -1.5201428 4 3198868794328 1 0
15.288935 -21.45277 -1.5341725 6 3198868796632 1 0
27.676132 -31.75184 2.4530015 22 3198868796632 1 0
27.582573 -34.96531 1.814405 19 3198868798936 1 0
20.251785 -23.240974 -1.4359505 9 3198868798936 1 0
18.581154 -23.56162 -1.5725908 9 3198868801240 1 0
31.525837 -36.189716 5.893114 22 3198868801240 1 0
32.00341 -40.593704 4.2198873 19 3198868803544 1 0
23.521618 -24.483883 -1.3832334 11 3198868803544 1 0
18.661324 -26.21702 -1.1237638 45 3198868805848 1 0
21.173407 -26.872807 6.2377315 18 3198868808152 1 0
0 0 0 9 3198868805848 1 0
22.633307 -26.004541 -0.8022061 40 3198868808152 1 0
0 0 0 4 3198868828888 1 0
24.629667 -25.719498 -0.6215849 33 3198868828888 1 0
19.761951 -25.156599 -0.93101346 45 3198868831192 1 0
3.915704 -4.512184 -1.6724455 1 3198868831192 1 0
5.1648703 -6.576753 -1.6724882 3 3198868833496 1 0
28.422205 -32.76139 0 55 3198868833496 1 0
29.584377 -41.729443 -0.59551126 33 3198868835800 1 0
6.8781285 -7.930535 -1.6332004 5 3198868835800 1 0
7.3519754 -9.36734 -1.5157237 19 3198868838104 1 0
28.419674 -29.711792 0.23896265 26 3198868838104 1 0
28.505861 -36.330925 -0.26839417 24 3198868840408 1 0
8.03079 -9.265006 -1.3207208 69 3198868840408 1 0
28.37974 -32.750916 1.0084106 34 3198868842712 1 0
10.223148 -14.433328 -1.6510584 2 3198868842712 1 0
29.359007 -41.462654 0.59146017 25 3198868845016 1 0
14.620509 -16.877384 -1.5614289 4 3198868845016 1 0
28.40189 -29.727804 1.1965518 37 3198868847320 1 0
12.125804 -15.468317 -1.6045074 3 3198868847320 1 0
29.573719 -37.737106 0.8368778 63 3198868849624 1 0
16.37727 -17.146818 -1.5196311 4 3198868849624 1 0
15.21857 -21.512527 -1.5346376 6 3198868851928 1 0
27.672276 -31.972048 2.4625363 22 3198868851928 1 0
27.598356 -35.23758 1.8235233 28 3198868854232 1 0
20.17838 -23.32059 -1.4365089 14 3198868854232 1 0
18.51357 -23.645208 -1.5738468 9 3198868856536 1 0
31.518797 -36.437664 5.915538 34 3198868856536 1 0
31.696877 -40.49483 4.1980815 18 3198868858840 1 0
23.447046 -24.577406 -1.3838847 11 3198868858840 1 0
18.532787 -26.229763 -1.1215302 39 3198868861144 1 0
0 0 0 9 3198868861144 1 0
22.458721 -25.98657 -0.7992284 39 3198868863448 1 0
21.026133 -26.878365 6.221947 24 3198868863448 1 0
0 0 0 4 3198868884184 1 0
24.470839 -25.73286 -0.61983967 33 3198868884184 1 0
19.691599 -25.247211 -0.93182796 45 3198868886488 1 0
3.9150825 -4.543276 -1.6789154 1 3198868886488 1 0
5.1444855 -6.5976853 -1.6732727 3 3198868888792 1 0
28.363455 -32.923218 0 41 3198868888792 1 0
29.49791 -41.912945 -0.59667534 67 3198868891096 1 0
6.850751 -7.9541965 -1.6332004 4 3198868891096 1 0
0 0 0 22 3198868893400 1 0
28.416697 -29.913567 0.23979956 26 3198868893400 1 0
28.396269 -36.44708 -0.26853365 24 3198868895704 1 0
7.962752 -9.250203 -1.3147234 62 3198868895704 1 0
10.176257 -14.471295 -1.6514302 2 3198868898008 1 0
28.309849 -32.89581 1.0098995 27 3198868898008 1 0
29.331043 -41.72224 0.59374183 25 3198868900312 1 0
14.558025 -16.920784 -1.5608709 4 3198868900312 1 0
12.083336 -15.5217285 -1.6058092 3 3198868902616 1 0
28.403252 -29.930782 1.2008573 43 3198868902616 1 0
29.93558 -38.464333 0.85076994 18 3198868904920 1 0
16.32781 -17.210432 -1.5203986 4 3198868904920 1 0
15.155702 -21.576387 -1.5355679 6 3198868907224 1 0
27.664087 -32.179504 2.4713736 22 3198868907224 1 0
30.999681 -39.853123 2.0570202 23 3198868909528 1 0
20.168306 -23.466454 -1.4413481 9 3198868909528 1 0
18.49391 -23.782152 -1.5788711 9 3198868911832 1 0
31.558208 -36.728683 5.9457617 34 3198868911832 1 0
0 0 0 8 3198868914136 1 0
23.41526 -24.706902 -1.3868157 11 3198868914136 1 0
18.389069 -26.208729 -1.1180403 39 3198868916440 1 0
0 0 0 9 3198868916440 1 0
20.897017 -26.894203 6.20975 30 3198868918744 1 0
22.298018 -25.971937 -0.79652995 39 3198868918744 1 0
0 0 0 4 3198868939480 1 0
24.334938 -25.751474 -0.6184435 38 3198868939480 1 0
19.633858 -25.337679 -0.9328752 45 3198868941784 1 0
3.893208 -4.546832 -1.6756804 1 3198868941784 1 0
5.1235404 -6.6139636 -1.6732727 3 3198868944088 1 0
28.370773 -33.14365 0 35 3198868944088 1 0
29.533836 -42.249275 -0.60012114 55 3198868946392 1 0
6.82795 -7.9789805 -1.6338153 4 3198868946392 1 0
7.250822 -9.365692 -1.5076426 3 3198868948696 1 0
28.408693 -30.097422 0.24054348 40 3198868948696 1 0
28.362207 -36.645714 -0.2693241 24 3198868951000 1 0
7.9200535 -9.260638 -1.3125814 53 3198868951000 1 0
10.13632 -14.513873 -1.6525456 2 3198868953304 1 0
28.315228 -33.117744 1.0139008 20 3198868953304 1 0
29.319208 -41.994247 0.59625626 17 3198868955608 1 0
14.50566 -16.970947 -1.5611498 4 3198868955608 1 0
12.042458 -15.573628 -1.6071111 3 3198868957912 1 0
28.404327 -30.127892 1.2050463 44 3198868957912 1 0
29.594296 -38.283638 0.84462667 18 3198868960216 1 0
16.271402 -17.263773 -1.5203986 4 3198868960216 1 0
15.146379 -21.714518 -1.5418469 6 3198868962520 1 0
27.664486 -32.394768 2.4809084 22 3198868962520 1 0
30.990107 -40.11339 2.0651617 24 3198868964824 1 0
20.09591 -23.538992 -1.4417204 9 3198868964824 1 0
18.432034 -23.865479 -1.5803366 9 3198868967128 1 0
31.5316 -36.94487 5.963798 34 3198868967128 1 0
0 0 0 8 3198868969432 1 0
23.341059 -24.793482 -1.3873041 16 3198868969432 1 0
18.262445 -26.214336 -1.1156671 43 3198868971736 1 0
0 0 0 9 3198868971736 1 0
20.758461 -26.90195 6.1954007 36 3198868974040 1 0
22.130198 -25.95238 -0.79364526 34 3198868974040 1 0
24.192902 -25.780851 -0.6171171 38 3198868994776 1 0
0 0 0 4 3198868994776 1 0
19.566866 -25.434866 -0.9339225 45 3198868997080 1 0
3.8722565 -4.5545816 -1.6735239 1 3198868997080 1 0
5.1074023 -6.641284 -1.6756262 3 3198868999384 1 0
28.360147 -33.368267 0 42 3198868999384 1 0
29.523409 -42.553852 -0.60296154 56 3198869001688 1 0
6.809944 -8.015111 -1.6362749 4 3198869001688 1 0
7.2102857 -9.381927 -1.5061274 3 3198869003992 1 0
28.457615 -30.364407 0.2418686 27 3198869003992 1 0
28.433708 -37.00981 -0.27125365 24 3198869006296 1 0
7.8895783 -9.291833 -1.3130099 20 3198869006296 1 0
10.084326 -14.550047 -1.6525456 2 3198869008600 1 0
28.297478 -33.33774 1.0175297 21 3198869008600 1 0
29.311663 -42.30643 0.5991898 26 3198869010904 1 0
14.449762 -17.029034 -1.561708 4 3198869010904 1 0
11.988633 -15.620127 -1.6074365 3 3198869013208 1 0
28.396566 -30.338156 1.2093517 44 3198869013208 1 0
29.528492 -38.485756 0.84672093 46 3198869015512 1 0
16.203318 -17.316757 -1.519887 4 3198869015512 1 0
15.080959 -21.789148 -1.5432422 7 3198869017816 1 0
27.654963 -32.623077 2.4906757 34 3198869017816 1 0
31.072058 -40.524395 2.0804677 38 3198869020120 1 0
18.36874 -23.964579 -1.58243 9 3198869022424 1 0
31.526861 -37.214684 5.9886594 23 3198869022424 1 0
0 0 0 8 3198869024728 1 0
23.255125 -24.885044 -1.3876297 16 3198869024728 1 0
20.01501 -23.618294 -1.4420925 9 3198869020120 1 0
18.12911 -26.229008 -1.1134336 43 3198869027032 1 0
0 0 0 9 3198869027032 1 0
20.617872 -26.92564 6.183203 24 3198869029336 1 0
0 0 0 4 3198869050072 1 0
21.951124 -25.936598 -0.7906676 39 3198869029336 1 0
24.03922 -25.815018 -0.6157209 37 3198869050072 1 0
19.49126 -25.538132 -0.9349698 45 3198869052376 1 0
3.8622575 -4.5781927 -1.6767588 1 3198869052376 1 0
5.0796785 -6.65758 -1.6748416 2 3198869054680 1 0
28.346256 -33.610634 0 42 3198869054680 1 0
29.49544 -42.86002 -0.60570884 49 3198869056984 1 0
6.779469 -8.040904 -1.6362749 4 3198869056984 1 0
7.1651316 -9.396504 -1.5041071 3 3198869059288 1 0
28.446106 -30.5831 0.24275202 27 3198869059288 1 0
28.347439 -37.18664 -0.27176508 16 3198869061592 1 0
0 0 0 4 3198869061592 1 0
10.079297 -14.6599865 -1.6607246 2 3198869063896 1 0
28.288115 -33.581318 1.0217171 21 3198869063896 1 0
29.293785 -42.620068 0.6020768 26 3198869066200 1 0
14.39372 -17.092083 -1.5625451 4 3198869066200 1 0
11.935222 -15.671 -1.6080874 3 3198869068504 1 0
28.3841 -30.55206 1.213657 44 3198869068504 1 0
29.504267 -38.750927 0.85014164 46 3198869070808 1 0
16.149849 -17.388433 -1.5209103 4 3198869070808 1 0
15.000361 -21.844713 -1.5432422 7 3198869073112 1 0
27.642233 -32.85335 2.500443 23 3198869073112 1 0
31.150227 -40.93743 2.0957737 40 3198869075416 1 0
19.935682 -23.700956 -1.4426509 9 3198869075416 1 0
18.348497 -24.12076 -1.5882916 14 3198869077720 1 0
31.558891 -37.530537 6.020833 35 3198869077720 1 0
0 0 0 8 3198869080024 1 0
23.16956 -24.975634 -1.3879554 16 3198869080024 1 0
17.983877 -26.222225 -1.1103624 34 3198869082328 1 0
0 0 0 9 3198869082328 1 0
20.491652 -26.962538 6.174594 30 3198869084632 1 0
21.800459 -25.948566 -0.7886205 43 3198869084632 1 0
0 0 0 4 3198869105368 1 0
23.90552 -25.851791 -0.61460394 37 3198869105368 1 0
19.430975 -25.644255 -0.9363661 46 3198869107672 1 0
5.0564084 -6.6752706 -1.6748416 3 3198869109976 1 0
3.841306 -4.585741 -1.6746022 2 3198869107672 1 0
17.932701 -26.253893 -0.37013987 50 3198869112280 1 0
6.753897 -8.067551 -1.6368899 4 3198869112280 1 0
0 0 0 29 3198869114584 1 0
28.28269 -33.773777 0 49 3198869109976 1 0
28.442308 -30.793865 0.24363542 28 3198869114584 1 0
19.802914 -26.166737 -0.19072376 39 3198869116888 1 0
7.798966 -9.321396 -1.3091543 2 3198869116888 1 0
10.030308 -14.69837 -1.6610963 2 3198869119192 1 0
28.24256 -33.765747 1.0243226 35 3198869119192 1 0
29.298111 -42.94674 0.6052432 17 3198869121496 1 0
14.336529 -17.145283 -1.562824 4 3198869121496 1 0
11.890064 -15.7252865 -1.6093893 3 3198869123800 1 0
29.494226 -39.019585 0.85377175 46 3198869126104 1 0
28.383017 -30.765562 1.2181952 39 3198869123800 1 0
16.094465 -17.45057 -1.5214219 4 3198869126104 1 0
14.935262 -21.91344 -1.544405 7 3198869128408 1 0
27.634914 -33.07835 2.5102103 23 3198869128408 1 0
31.180592 -41.275528 2.1074972 14 3198869130712 1 0
19.881002 -23.804136 -1.4446983 14 3198869130712 1 0
18.27141 -24.194225 -1.5889196 9 3198869133016 1 0
31.552376 -37.7898 6.044719 36 3198869133016 1 0
0 0 0 8 3198869135320 1 0
0 0 0 19 3198869135320 1 0
17.87199 -26.2551 -1.1091061 47 3198869137624 1 0
0 0 0 9 3198869137624 1 0
20.364227 -26.989923 6.164549 30 3198869139928 1 0
21.632898 -25.932384 -0.7858289 38 3198869139928 1 0
0 0 0 4 3198869160664 1 0
23.763739 -25.879108 -0.61327755 32 3198869160664 1 0
19.358166 -25.734291 -0.93718064 46 3198869162968 1 0
3.8252754 -4.5991216 -1.6746022 2 3198869162968 1 0
5.035434 -6.696015 -1.6756262 2 3198869165272 1 0
21.553751 -25.921703 0 57 3198869165272 1 0
0 0 0 100 3198869167576 1 0
6.7206416 -8.084998 -1.63566 4 3198869167576 1 0
7.1041255 -9.452641 -1.5051172 43 3198869169880 1 0
28.43468 -31.002028 0.24449559 35 3198869169880 1 0
0 0 0 100 3198869172184 1 0
7.7435083 -9.321031 -1.3052988 3 3198869172184 1 0
9.9722395 -14.7234 -1.659981 2 3198869174488 1 0
28.229275 -33.990253 1.0281378 35 3198869174488 1 0
29.278086 -43.24084 0.60794395 26 3198869176792 1 0
14.271496 -17.189083 -1.562266 4 3198869176792 1 0
11.837494 -15.769883 -1.6097147 3 3198869179096 1 0
29.487469 -39.29504 0.85754144 56 3198869181400 1 0
28.372683 -30.970583 1.2223842 39 3198869179096 1 0
16.025366 -17.497812 -1.5206544 4 3198869181400 1 0
