# .PCD v.7 - Point Cloud Data file format
VERSION .7
FIELDS x y z rgb timestamp_ns device_id active
SIZE 4 4 4 4 8 1 1
TYPE F F F F F U U
COUNT 1 1 1 1 1 1 1
WIDTH 1002
HEIGHT 1
VIEWPOINT 0 0 0 1 0 0 0
POINTS 1002               
DATA ascii
-2.326139 -20.290308 -1.9064687 3 3206480448712 1 0
-1.094991 -66.736946 1.5531403 17 3206480448712 1 0
-7.9558964 -69.308136 0.8121751 58 3206480451016 1 0
-0.44835824 -27.08614 -1.8943068 6 3206480451016 1 0
-1.5016848 -22.870508 -1.8710574 12 3206480453320 1 0
2.4101944 -74.8895 2.1806264 70 3206480453320 1 0
-4.5963306 -69.84627 1.2218081 64 3206480455624 1 0
0.92888993 -28.99361 -1.8591177 10 3206480455624 1 0
-1.9427798 -16.859678 -0.9883634 36 3206480457928 1 1
-1.1392599 -67.05669 3.9057794 28 3206480457928 1 0
-4.618269 -69.869446 2.8527663 87 3206480460232 1 0
-0.5326536 -31.085724 -1.4482347 43 3206480460232 1 0
-2.089586 -31.54348 -1.656747 38 3206480462536 1 0
0 0 0 1 3206480462536 1 0
0 0 0 8 3206480464840 1 0
0.96126145 -30.55952 -1.2456428 36 3206480464840 1 0
-2.0121963 -17.3732 -0.6107412 2 3206480467144 1 1
0 0 0 9 3206480467144 1 0
0 0 0 29 3206480469448 1 0
-0.8054222 -45.460556 -1.0580076 24 3206480469448 1 0
-0.25405592 -3.736236 -1.7462586 1 3206480490184 1 0
0.9134637 -30.597704 -0.53432286 4 3206480490184 1 0
-2.8482347 -41.79733 -1.2192425 8 3206480492488 1 0
-0.11916958 -6.2158523 -1.7403785 6 3206480492488 1 0
-0.6060848 -8.875155 -1.7791761 4 3206480494792 1 0
-1.3608487 -70.44685 0 61 3206480494792 1 0
-7.712697 -65.50705 -0.7678924 21 3206480497096 1 0
-0.20943014 -10.760492 -1.6743994 23 3206480497096 1 0
-0.7683331 -11.20308 -1.4293563 12 3206480499400 1 0
2.13682 -72.9995 0.42445567 33 3206480499400 1 0
-4.437287 -64.5626 -0.37612382 14 3206480501704 1 0
-0.32863536 -16.6365 -1.7923762 2 3206480501704 1 0
-2.3960164 -20.274155 -1.9057251 3 3206480504008 1 0
-1.3121072 -65.937096 1.5346228 17 3206480504008 1 0
-8.1916685 -69.22831 0.81156975 57 3206480506312 1 0
-0.5429837 -27.088398 -1.8945858 6 3206480506312 1 0
-1.5828841 -22.885012 -1.8726847 15 3206480508616 1 0
2.1379883 -74.521774 2.1696885 69 3206480508616 1 0
-4.838176 -69.801865 1.2213194 64 3206480510920 1 0
0.82904446 -29.04456 -1.8621877 10 3206480510920 1 0
-1.9870192 -16.729868 -0.98115414 36 3206480513224 1 1
-1.4404576 -70.33006 4.096708 28 3206480513224 1 0
-4.8576903 -69.78911 2.8501608 87 3206480515528 1 0
-0.6415718 -31.10365 -1.4491653 48 3206480515528 1 0
0 0 0 1 3206480517832 1 0
-2.20246 -31.575842 -1.6588404 44 3206480517832 1 0
0 0 0 8 3206480520136 1 0
0.85603523 -30.614628 -1.2477596 36 3206480520136 1 0
-2.0372937 -17.068365 -0.60027134 2 3206480522440 1 1
0 0 0 9 3206480522440 1 0
0 0 0 29 3206480524744 1 0
-0.9615604 -45.33753 -1.0552161 15 3206480524744 1 0
-0.2668377 -3.7317104 -1.7445682 1 3206480545480 1 0
0.80876005 -30.680668 -0.5357191 4 3206480545480 1 0
-3.0618405 -42.732307 -1.2468203 9 3206480547784 1 0
-0.14086622 -6.2153983 -1.7403785 5 3206480547784 1 0
-0.6373421 -8.876898 -1.7799605 5 3206480550088 1 0
-1.6064721 -70.42968 0 41 3206480550088 1 0
-9.58871 -79.06327 -0.927189 14 3206480552392 1 0
-0.2470807 -10.763647 -1.6750143 23 3206480552392 1 0
-0.80743444 -11.20033 -1.4293563 10 3206480554696 1 0
1.8426157 -71.47905 0.4155751 62 3206480554696 1 0
-3.1017885 -42.93939 -0.25021452 6 3206480557000 1 0
-0.38707528 -16.651154 -1.7940898 2 3206480557000 1 0
-2.4686966 -20.28148 -1.9072123 3 3206480559304 1 0
-1.5513337 -66.3199 1.543649 17 3206480559304 1 0
-9.859702 -80.90389 0.9488414 28 3206480561608 1 0
-0.63791215 -27.102295 -1.8957019 6 3206480561608 1 0
-1.663625 -22.891275 -1.873661 17 3206480563912 1 0
1.8717024 -74.28496 2.1625903 68 3206480563912 1 0
-5.0800576 -69.76062 1.2209005 64 3206480566216 1 0
0 0 0 12 3206480568520 1 0
0.72835475 -29.07521 -1.8639785 10 3206480566216 1 0
-1.6207712 -67.605995 3.9383373 28 3206480568520 1 0
-5.0995216 -69.74781 2.849184 87 3206480570824 1 0
-0.751007 -31.13717 -1.4508405 48 3206480570824 1 0
-2.3150017 -31.599833 -1.6605152 44 3206480573128 1 0
0 0 0 1 3206480573128 1 0
0 0 0 8 3206480575432 1 0
0.7500449 -30.653389 -1.249225 36 3206480575432 1 0
-2.0812564 -16.934183 -0.5958042 2 3206480577736 1 1
0 0 0 9 3206480577736 1 0
-1.6819894 -68.09279 -1.5849643 19 3206480580040 1 0
0 0 0 29 3206480580040 1 0
-0.2793198 -3.7235262 -1.7411872 1 3206480600776 1 0
1.0255165 -44.845444 -0.78298473 22 3206480600776 1 0
-3.2238715 -42.892803 -1.2518239 9 3206480603080 1 0
-0.16266188 -6.2187195 -1.7414569 6 3206480603080 1 0
-0.66802984 -8.8707075 -1.7791761 4 3206480605384 1 0
-1.8515716 -70.39565 0 20 3206480605384 1 0
-9.99889 -80.1049 -0.93980795 28 3206480607688 1 0
-0.28496483 -10.774572 -1.676859 21 3206480607688 1 0
-0.8471242 -11.205357 -1.4303664 11 3206480609992 1 0
1.5930068 -71.48104 0.41555184 31 3206480609992 1 0
-3.2486348 -42.888412 -0.24998203 6 3206480612296 1 0
-0.44562152 -16.665604 -1.7958033 2 3206480612296 1 0
-2.5419524 -20.2925 -1.9090712 1 3206480614600 1 0
-1.8015237 -67.00964 1.5598401 17 3206480614600 1 0
-10.145534 -80.89677 0.9491674 85 3206480616904 1 0
-0.73283637 -27.11187 -1.896539 6 3206480616904 1 0
-1.7465488 -22.925081 -1.8769157 22 3206480619208 1 0
1.6043196 -73.91929 2.1517687 100 3206480619208 1 0
-5.322319 -69.72652 1.2206213 64 3206480621512 1 0
0.6278053 -29.121475 -1.8667927 10 3206480621512 1 0
-2.1187255 -16.834448 -0.9881308 1 3206480623816 1 1
-1.9273583 -70.17059 4.0881033 28 3206480623816 1 0
-5.3417344 -69.713646 2.8485327 87 3206480626120 1 0
-0.86134577 -31.194273 -1.4536324 39 3206480626120 1 0
-2.4280436 -31.627405 -1.6623993 44 3206480628424 1 0
0 0 0 1 3206480628424 1 0
0 0 0 8 3206480630728 1 0
0.64387816 -30.695778 -1.2508533 36 3206480630728 1 0
-2.1313283 -16.855429 -0.59329146 2 3206480633032 1 1
0 0 0 9 3206480633032 1 0
0 0 0 29 3206480635336 1 0
-1.9204563 -68.11449 -1.5856156 19 3206480635336 1 0
-0.29203182 -3.7189145 -1.7394967 2 3206480656072 1 0
0.8692029 -44.860744 -0.7831942 7 3206480656072 1 0
-3.369499 -42.82947 -1.2503111 18 3206480658376 1 0
-0.18459658 -6.225814 -1.7436135 6 3206480658376 1 0
-0.69991493 -8.880053 -1.7815294 4 3206480660680 1 0
-2.0969296 -70.37677 0 20 3206480660680 1 0
-9.827241 -76.55459 -0.89855194 13 3206480662984 1 0
-0.32269165 -10.777462 -1.6774739 23 3206480662984 1 0
-0.8862331 -11.202332 -1.4303664 11 3206480665288 1 0
1.3431811 -71.47017 0.41545883 31 3206480665288 1 0
-5.0704646 -63.974293 -0.37298536 14 3206480667592 1 0
-0.5037926 -16.663946 -1.7958033 2 3206480667592 1 0
-2.1309218 -16.542807 -1.5569991 2 3206480669896 1 1
-2.1355944 -70.30053 1.6366085 20 3206480669896 1 0
-10.430411 -80.88069 0.9494002 57 3206480672200 1 0
-0.8275917 -27.113134 -1.896818 6 3206480672200 1 0
-1.8281453 -22.938717 -1.8785429 25 3206480674504 1 0
1.3417696 -73.67658 2.1445541 99 3206480674504 1 0
-5.564086 -69.68758 1.2202723 64 3206480676808 1 0
0.52629274 -29.131472 -1.8673043 10 3206480676808 1 0
-2.1692765 -16.763586 -0.9844099 1 3206480679112 1 1
-2.1717935 -70.14748 4.087173 28 3206480679112 1 0
-5.5834517 -69.67465 2.8477185 87 3206480681416 1 0
-0.9712227 -31.223026 -1.4551213 39 3206480681416 1 0
-2.541306 -31.654572 -1.6642834 38 3206480683720 1 0
0 0 0 1 3206480683720 1 0
0 0 0 8 3206480686024 1 0
0 0 0 10 3206480688328 1 0
0 0 0 9 3206480688328 1 0
0 0 0 29 3206480690632 1 0
-2.1203384 -66.91229 -1.5577929 36 3206480690632 1 0
0.5375644 -30.74579 -1.2528073 27 3206480686024 1 0
-0.30590072 -3.7287116 -1.7445682 4 3206480711368 1 0
0 0 0 79 3206480711368 1 0
-5.222306 -63.542767 -1.8555106 22 3206480713672 1 0
-0.2062 -6.221282 -1.7425351 5 3206480713672 1 0
-0.730586 -8.873646 -1.780745 5 3206480715976 1 0
-2.336855 -70.19711 0 61 3206480715976 1 0
-2.3801394 -18.042452 -0.21186772 6 3206480718280 1 1
-0.36057422 -10.784171 -1.6787038 21 3206480718280 1 0
-0.92565787 -11.203124 -1.4308715 10 3206480720584 1 0
1.1212964 -73.27818 0.42594352 33 3206480720584 1 0
-5.274938 -63.728985 -0.37166026 14 3206480722888 1 0
-0.5622257 -16.670036 -1.7966601 2 3206480722888 1 0
-2.1886542 -16.535267 -1.5569991 3 3206480725192 1 1
-2.2350416 -65.98428 1.5362978 34 3206480725192 1 0
-10.724759 -80.93499 0.95047116 85 3206480727496 1 0
-0.92317885 -27.137995 -1.8987712 6 3206480727496 1 0
-1.9085358 -22.936169 -1.8788685 20 3206480729800 1 0
1.0792269 -73.31701 2.1339653 64 3206480729800 1 0
-5.8049817 -69.63983 1.2197835 64 3206480732104 1 0
0.42547432 -29.193 -1.8711418 10 3206480732104 1 0
0 0 0 16 3206480734408 1 0
-2.4158154 -70.115524 4.0857778 28 3206480734408 1 0
-5.8249617 -69.63483 2.8469043 87 3206480736712 1 0
-1.0818635 -31.267365 -1.4573548 34 3206480736712 1 0
-2.655121 -31.685314 -1.6663768 38 3206480739016 1 0
0 0 0 1 3206480739016 1 0
0 0 0 8 3206480741320 1 0
0.43062973 -30.775454 -1.253947 36 3206480741320 1 0
0 0 0 10 3206480743624 1 0
0 0 0 9 3206480743624 1 0
0 0 0 29 3206480745928 1 0
-2.3515027 -66.83654 -1.556211 36 3206480745928 1 0
-0.3189145 -3.727621 -1.7445682 1 3206480766664 1 0
0 0 0 14 3206480766664 1 0
-5.420522 -63.249275 -1.8474816 22 3206480768968 1 0
-0.227633 -6.212826 -1.7403785 6 3206480768968 1 0
-0.7622273 -8.878858 -1.782314 4 3206480771272 1 0
-2.448656 -66.56698 0 17 3206480771272 1 0
0 0 0 28 3206480773576 1 0
-0.3986534 -10.794696 -1.6805484 23 3206480773576 1 0
-0.965099 -11.203778 -1.4313766 9 3206480775880 1 0
0.8636115 -73.121666 0.42501363 66 3206480775880 1 0
-5.446126 -63.1164 -0.36819637 13 3206480778184 1 0
-0.62055945 -16.671946 -1.7970885 2 3206480778184 1 0
-2.2436779 -16.507793 -1.5551401 8 3206480780488 1 1
-2.469836 -66.09596 1.5390893 34 3206480780488 1 0
-11.007749 -80.901024 0.9505177 85 3206480782792 1 0
-1.0182017 -27.142582 -1.8993293 6 3206480782792 1 0
-1.9899642 -22.945253 -1.8801702 20 3206480785096 1 0
0.819166 -72.952515 2.1232598 95 3206480785096 1 0
-6.04665 -69.6032 1.2195044 64 3206480787400 1 0
-2.252768 -16.502728 -0.96999145 100 3206480789704 1 1
0.32383457 -29.218258 -1.8726767 10 3206480787400 1 0
-2.6600952 -70.09469 4.08508 28 3206480789704 1 0
-6.066609 -69.598145 2.8462532 87 3206480792008 1 0
-1.1925215 -31.303326 -1.459216 39 3206480792008 1 0
-2.7688344 -31.711668 -1.6682609 39 3206480794312 1 0
0 0 0 1 3206480794312 1 0
0.32357845 -30.812738 -1.2554126 40 3206480796616 1 0
-2.2805681 -16.63416 -0.5863115 2 3206480798920 1 1
0 0 0 9 3206480798920 1 0
0 0 0 29 3206480801224 1 0
-2.5697997 -66.44032 -1.547185 17 3206480801224 1 0
-0.33063784 -3.7120414 -1.7378063 1 3206480821960 1 0
0.2818003 -31.657923 -0.552613 9 3206480821960 1 0
-5.644008 -63.265854 -1.8485289 22 3206480824264 1 0
0 0 0 8 3206480796616 1 0
-0.24942769 -6.2158437 -1.7414569 6 3206480824264 1 0
-0.7927375 -8.872248 -1.7815294 5 3206480826568 1 0
-2.670862 -66.330246 0 17 3206480826568 1 0
0 0 0 28 3206480828872 1 0
-0.43625557 -10.797197 -1.6811634 21 3206480828872 1 0
0.5988369 -71.72829 0.4169002 62 3206480831176 1 0
-1.0038757 -11.20037 -1.4313766 11 3206480831176 1 0
-5.7646093 -64.21669 -0.37472895 14 3206480833480 1 0
-0.6786305 -16.681623 -1.7983736 2 3206480833480 1 0
-2.3071668 -16.547297 -1.5596014 27 3206480835784 1 1
-2.8625484 -70.1266 1.6331655 20 3206480835784 1 0
-11.274905 -80.783455 0.94958645 85 3206480838088 1 0
-1.1117225 -27.142906 -1.8996083 6 3206480838088 1 0
0.56694573 -72.723 2.1165109 94 3206480840392 1 0
-2.071576 -22.970053 -1.8827739 22 3206480840392 1 0
-6.2814217 -69.54225 1.2188063 64 3206480842696 1 0
0.22384593 -29.23117 -1.8734442 10 3206480842696 1 0
-2.303624 -16.455385 -0.96766585 92 3206480845000 1 1
-2.8994935 -70.0812 4.0848475 28 3206480845000 1 0
-6.2956543 -69.4855 2.842508 58 3206480847304 1 0
-1.300771 -31.335007 -1.4608911 39 3206480847304 1 0
-2.8799944 -31.737864 -1.670145 39 3206480849608 1 0
0 0 0 1 3206480849608 1 0
0 0 0 8 3206480851912 1 0
0.21918859 -30.849628 -1.256878 40 3206480851912 1 0
0 0 0 9 3206480854216 1 0
0 0 0 29 3206480856520 1 0
0 0 0 14 3206480856520 1 0
0 0 0 15 3206480854216 1 0
-0.3432792 -3.7145345 -1.7394967 1 3206480877256 1 0
0.17909563 -32.066616 -0.55973357 9 3206480877256 1 0
-2.94628 -31.8304 -0.93031526 16 3206480879560 1 0
-0.27041847 -6.222677 -1.7436135 5 3206480879560 1 0
-0.82264566 -8.873464 -1.782314 4 3206480881864 1 0
-2.8785284 -66.01727 0 17 3206480881864 1 0
0 0 0 28 3206480884168 1 0
-0.47281176 -10.807527 -1.6830081 23 3206480884168 1 0
-1.0413377 -11.196949 -1.4313766 10 3206480886472 1 0
0.36277 -72.50587 0.42141023 64 3206480886472 1 0
-6.4754944 -69.51788 -0.40578783 19 3206480888776 1 0
-0.73525137 -16.695148 -1.8000872 2 3206480888776 1 0
-2.3627486 -16.539452 -1.5596014 26 3206480891080 1 1
-2.9627476 -67.05241 1.5617942 36 3206480891080 1 0
-11.544576 -80.729195 0.9494002 57 3206480893384 1 0
-1.2084086 -27.2586 -1.907979 6 3206480893384 1 0
-2.1501868 -22.97484 -1.8837503 17 3206480895688 1 0
0.3200862 -72.39264 2.1068528 30 3206480895688 1 0
-6.5158014 -69.51265 1.2186667 64 3206480897992 1 0
0.12511691 -29.259703 -1.8752351 10 3206480897992 1 0
-2.3610764 -16.459341 -0.9683635 100 3206480900296 1 1
-3.1305416 -69.92736 4.0764756 28 3206480900296 1 0
-6.5375853 -69.52738 2.8451133 87 3206480902600 1 0
-1.4091527 -31.374315 -1.4629385 39 3206480902600 1 0
0 0 0 1 3206480904904 1 0
0 0 0 8 3206480907208 1 0
0.11410268 -30.886168 -1.2583435 41 3206480907208 1 0
-2.381201 -16.531202 -0.5832404 76 3206480909512 1 1
0 0 0 9 3206480909512 1 0
-2.9928627 -31.779577 -1.6728665 33 3206480904904 1 0
0 0 0 29 3206480911816 1 0
0 0 0 1 3206480911816 1 0
-0.35589707 -3.7097049 -1.7378063 1 3206480932552 1 0
0.068141185 -32.534973 -0.5679013 14 3206480932552 1 0
-3.0497227 -31.740322 -0.92798805 11 3206480934856 1 0
-0.292138 -6.2216954 -1.7436135 6 3206480934856 1 0
-0.8539905 -8.874442 -1.7830985 4 3206480937160 1 0
-3.1580727 -67.04967 0 18 3206480937160 1 0
0 0 0 28 3206480939464 1 0
-0.51090723 -10.813706 -1.684238 24 3206480939464 1 0
-1.0796535 -11.185347 -1.4303664 10 3206480941768 1 0
0.109070025 -72.1067 0.41908547 63 3206480941768 1 0
-6.675781 -69.0569 -0.40323058 19 3206480944072 1 0
-0.7939015 -16.700424 -1.800944 2 3206480944072 1 0
-2.4221988 -16.542925 -1.5607167 40 3206480946376 1 1
-3.1708827 -66.49842 1.549139 52 3206480946376 1 0
-11.840804 -80.78734 0.95056427 57 3206480948680 1 0
-1.3043141 -27.270159 -1.9090952 6 3206480948680 1 0
0.0619939 -66.59977 1.9382441 21 3206480950984 1 0
0 0 0 19 3206480950984 1 0
-6.7568574 -69.473564 1.2183874 64 3206480953288 1 0
0.022980725 -29.259962 -1.8752351 10 3206480953288 1 0
-2.420839 -16.466803 -0.9692938 91 3206480955592 1 1
-3.3744218 -69.91202 4.076243 28 3206480955592 1 0
-1.5203999 -31.405125 -1.4646137 39 3206480957896 1 0
-6.779465 -69.496185 2.8447876 87 3206480957896 1 0
-3.1088252 -31.82062 -1.675588 39 3206480960200 1 0
0 0 0 1 3206480960200 1 0
0 0 0 8 3206480962504 1 0
0.0062956484 -30.91835 -1.259646 41 3206480962504 1 0
0 0 0 9 3206480964808 1 0
-2.434805 -16.495108 -0.58226323 24 3206480964808 1 1
0 0 0 29 3206480967112 1 0
-2.1596873 -44.079178 -1.0269281 15 3206480967112 1 0
-0.36949143 -3.7083755 -1.7378063 2 3206480987296 1 0
-0.11162259 -71.06109 -1.2403774 42 3206480987296 1 0
-0.31513447 -6.2244296 -1.7446917 6 3206480989600 1 0
-0.8857312 -8.863447 -1.7815294 4 3206480991904 1 0
-3.3987298 -66.937775 0 17 3206480991904 1 0
0 0 0 28 3206480994208 1 0
-6.2713323 -62.849144 -1.8381727 22 3206480989600 1 0
-0.551141 -10.823604 -1.6860827 26 3206480994208 1 0
-1.1218297 -11.193159 -1.4318817 10 3206480996512 1 0
-0.15188286 -70.55865 0.41008863 29 3206480996512 1 0
-6.9284425 -69.02799 -0.40320733 19 3206480998816 1 0
-0.8544961 -16.685488 -1.7996588 2 3206480998816 1 0
-2.486364 -16.557568 -1.5629475 51 3206481001120 1 1
-3.4324346 -66.8338 1.5572346 35 3206481001120 1 0
-12.139203 -80.75922 0.9507505 57 3206481003424 1 0
-1.404666 -27.273165 -1.9096532 6 3206481003424 1 0
-1.7526962 -17.385748 -1.426482 3 3206481005728 1 1
-0.196232 -71.76534 2.088584 29 3206481005728 1 0
-7.0110435 -69.44435 1.2183176 64 3206481008032 1 0
-0.084308535 -29.275816 -1.8762584 10 3206481008032 1 0
-2.483558 -16.473614 -0.97022396 84 3206481010336 1 1
-3.6289825 -69.86728 4.074383 28 3206481010336 1 0
-7.029707 -69.42713 2.8429964 87 3206481012640 1 0
-1.7831758 -17.585567 -0.9263464 2 3206481014944 1 1
0 0 0 1 3206481014944 1 0
0 0 0 8 3206481017248 1 0
-1.6375737 -31.439243 -1.4664749 43 3206481012640 1 0
-0.10716416 -30.958132 -1.2612743 41 3206481017248 1 0
0 0 0 10 3206481019552 1 0
0 0 0 9 3206481019552 1 0
0 0 0 29 3206481021856 1 0
-3.4852118 -66.17034 -1.541881 35 3206481021856 1 0
-0.38354987 -3.7178814 -1.7428777 2 3206481042592 1 0
-0.35944873 -71.01627 -1.2396095 20 3206481042592 1 0
-6.5534925 -63.439396 -1.8560925 45 3206481044896 1 0
-0.33639827 -6.2156014 -1.7425351 6 3206481044896 1 0
-0.91693974 -8.864216 -1.782314 4 3206481047200 1 0
-3.5501213 -65.42776 0 16 3206481047200 1 0
0 0 0 28 3206481049504 1 0
-0.5895418 -10.837413 -1.6885424 26 3206481049504 1 0
-0.3951595 -70.385704 0.40908897 58 3206481051808 1 0
-1.1609782 -11.193155 -1.4323868 11 3206481051808 1 0
-7.164365 -68.979774 -0.40306783 19 3206481054112 1 0
-0.9127789 -16.69435 -1.800944 2 3206481054112 1 0
-2.5434234 -16.548899 -1.5629475 53 3206481056416 1 1
-3.8378875 -70.015915 1.6316767 20 3206481056416 1 0
-12.423004 -80.756516 0.95121616 57 3206481058720 1 0
-1.500003 -27.29606 -1.9116064 6 3206481058720 1 0
-1.8032651 -17.292395 -1.4193219 4 3206481061024 1 1
-0.4128522 -66.94638 1.9483676 43 3206481061024 1 0
-7.2467866 -69.40004 1.2179686 64 3206481063328 1 0
-0.18488564 -29.323257 -1.8793284 10 3206481063328 1 0
-2.542893 -16.484762 -0.9713868 91 3206481065632 1 1
-3.867542 -69.85048 4.07415 28 3206481065632 1 0
-7.2639613 -69.3789 2.8420196 87 3206481067936 1 0
-1.7461213 -31.457413 -1.4675916 43 3206481067936 1 0
-1.822191 -17.380758 -0.91587925 11 3206481070240 1 1
0 0 0 8 3206481072544 1 0
-0.21252014 -30.989563 -1.262577 41 3206481072544 1 0
-2.5529354 -16.489372 -0.582682 2 3206481074848 1 1
0 0 0 9 3206481074848 1 0
0 0 0 1 3206481070240 1 0
0 0 0 29 3206481077152 1 0
-2.4633079 -43.93909 -1.0240434 7 3206481077152 1 0
-0.3958767 -3.7165892 -1.7428777 2 3206481097888 1 0
-0.5928344 -70.76273 -1.2352115 20 3206481097888 1 0
0 0 0 28 3206481100192 1 0
-0.35754046 -6.222138 -1.7446917 5 3206481100192 1 0
-0.94658726 -8.861099 -1.782314 3 3206481102496 1 0
-3.8264916 -66.41386 0 17 3206481102496 1 0
0 0 0 28 3206481104800 1 0
-0.6266333 -10.847209 -1.690387 21 3206481104800 1 0
-1.199586 -11.197065 -1.4333969 11 3206481107104 1 0
-0.6340257 -70.53596 0.4099724 29 3206481107104 1 0
-7.3997917 -68.97101 -0.40316084 19 3206481109408 1 0
-0.9700399 -16.703072 -1.8022292 2 3206481109408 1 0
-2.6028228 -16.559818 -1.5648063 57 3206481111712 1 1
-4.0740643 -69.966515 1.6308392 20 3206481111712 1 0
-12.70206 -80.73334 0.95144904 57 3206481114016 1 0
-1.5930578 -27.28679 -1.9113274 6 3206481114016 1 0
-1.8532138 -17.198898 -1.4121618 4 3206481116320 1 1
-0.6420274 -66.8806 1.9465058 21 3206481116320 1 0
-7.4842505 -69.35874 1.2176893 64 3206481118624 1 0
-0.28666306 -29.394295 -1.8839333 10 3206481118624 1 0
-2.6049201 -16.507416 -0.97324723 89 3206481120928 1 1
-4.109545 -69.84066 4.074383 28 3206481120928 1 0
-7.5042257 -69.34528 2.8416939 87 3206481123232 1 0
-1.8580486 -31.49503 -1.4696391 43 3206481123232 1 0
-1.8626229 -17.187643 -0.9060401 19 3206481125536 1 1
0 0 0 1 3206481125536 1 0
0 0 0 8 3206481127840 1 0
-0.32155746 -31.028591 -1.2642053 41 3206481127840 1 0
-2.604077 -16.436853 -0.5811464 2 3206481130144 1 1
0 0 0 9 3206481130144 1 0
0 0 0 29 3206481132448 1 0
-2.6078782 -43.75048 -1.0198561 7 3206481132448 1 0
-0.40909883 -3.7115097 -1.7411872 1 3206481153184 1 0
-0.8479987 -70.41217 -1.2291381 20 3206481153184 1 0
-4.575411 -41.45461 -1.2137735 8 3206481155488 1 0
-0.38006306 -6.2169437 -1.7436135 6 3206481155488 1 0
-0.97936046 -8.861483 -1.7830985 4 3206481157792 1 0
-3.9710555 -64.802444 0 16 3206481157792 1 0
-2.679593 -16.70126 -0.19692056 12 3206481160096 1 1
-0.66639185 -10.848799 -1.691002 26 3206481160096 1 0
-1.2416028 -11.204461 -1.4349121 10 3206481162400 1 0
0 0 0 66 3206481164704 1 0
-0.8882246 -70.3532 0.40892625 58 3206481162400 1 0
-1.030646 -16.69944 -1.8022292 2 3206481164704 1 0
-2.664676 -16.56208 -1.5659217 58 3206481167008 1 1
-4.327178 -69.94731 1.6307461 20 3206481167008 1 0
-12.99822 -80.71455 0.95177495 85 3206481169312 1 0
-1.6933981 -27.308733 -1.9132806 6 3206481169312 1 0
-1.9642338 -17.63191 -1.4482876 3 3206481171616 1 1
-0.88025224 -66.64996 1.9398732 21 3206481171616 1 0
-7.7321014 -69.31545 1.2174101 64 3206481173920 1 0
-2.666752 -16.51372 -0.9741774 84 3206481176224 1 1
-0.3927393 -29.413029 -1.8852124 10 3206481173920 1 0
-4.3504634 -69.66602 4.06508 28 3206481176224 1 0
-7.750572 -69.29807 2.8408797 58 3206481178528 1 0
-1.9076577 -17.033989 -0.8982943 26 3206481180832 1 1
0 0 0 1 3206481180832 1 0
-1.97245 -31.512093 -1.4707558 45 3206481178528 1 0
0 0 0 8 3206481183136 1 0
-0.43290436 -31.06721 -1.2658336 41 3206481183136 1 0
-2.647281 -16.332764 -0.57779604 4 3206481185440 1 1
0 0 0 9 3206481185440 1 0
0 0 0 29 3206481187744 1 0
-2.7510881 -43.545372 -1.0152965 7 3206481187744 1 0
-0.4224617 -3.7136612 -1.7428777 1 3206481208480 1 0
-0.70446074 -45.34762 -0.7916412 23 3206481208480 1 0
-4.695651 -41.22386 -1.2074898 8 3206481210784 1 0
-0.40225884 -6.223267 -1.7457701 6 3206481210784 1 0
-1.0102868 -8.85801 -1.7830985 5 3206481213088 1 0
-4.1943893 -64.74428 0 16 3206481213088 1 0
-2.7359328 -16.679962 -0.19678088 33 3206481215392 1 1
-0.7047693 -10.854295 -1.6922318 26 3206481215392 1 0
-1.2820585 -11.211885 -1.4364274 13 3206481217696 1 0
-7.9334087 -69.29013 -0.4053461 58 3206481220000 1 0
-1.1270298 -69.92974 0.40648523 57 3206481217696 1 0
-1.0904846 -16.719553 -1.8047994 2 3206481220000 1 0
0 0 0 84 3206481222304 1 0
-4.572096 -69.94375 1.6310253 61 3206481222304 1 0
-13.284436 -80.69631 0.95210093 85 3206481224608 1 0
-1.7897564 -27.318583 -1.9143966 6 3206481224608 1 0
-1.0976114 -65.731 1.9132262 39 3206481226912 1 0
0 0 0 38 3206481226912 1 0
-7.969438 -69.24831 1.216712 64 3206481229216 1 0
-0.49587816 -29.439419 -1.8870033 10 3206481229216 1 0
-2.7289321 -16.53189 -0.97580534 73 3206481231520 1 1
-7.99013 -69.25075 2.8400655 58 3206481233824 1 0
-4.5928283 -69.63846 4.0643826 28 3206481231520 1 0
-2.085598 -31.552858 -1.4729892 45 3206481233824 1 0
-1.9538115 -16.912151 -0.89222336 30 3206481236128 1 1
0 0 0 1 3206481236128 1 0
0 0 0 8 3206481238432 1 0
-0.5417644 -31.089485 -1.2668105 41 3206481238432 1 0
-2.7454388 -16.571884 -0.58659077 6 3206481240736 1 1
0 0 0 9 3206481240736 1 0
0 0 0 29 3206481243040 1 0
0 0 0 6 3206481243040 1 0
-0.43499988 -3.7085633 -1.7411872 1 3206481263776 1 0
-0.86290133 -45.352882 -0.79178077 7 3206481263776 1 0
-2.1182523 -18.03635 -0.5285168 6 3206481266080 1 1
-0.42397964 -6.2218246 -1.7457701 6 3206481266080 1 0
-1.0421171 -8.862221 -1.7846674 4 3206481268384 1 0
-4.5051193 -65.97035 0 17 3206481268384 1 0
-0.74346316 -10.863598 -1.6940765 25 3206481270688 1 0
-1.3211874 -11.207342 -1.4364274 12 3206481272992 1 0
-1.3168585 -67.15796 0.39039788 24 3206481272992 1 0
-8.190701 -69.393105 -0.40611327 19 3206481275296 1 0
-2.79414 -16.670311 -0.19678088 17 3206481270688 1 1
-2.7815554 -16.550928 -1.5666652 2 3206481277600 1 1
-1.1496582 -16.727547 -1.8060846 2 3206481275296 1 0
-4.8123703 -69.87151 1.6297226 61 3206481277600 1 0
-13.572673 -80.68889 0.95256656 57 3206481279904 1 0
-1.8927984 -27.423632 -1.9222094 6 3206481279904 1 0
-1.9845566 -16.750736 -1.3770124 4 3206481282208 1 1
-1.327533 -65.750755 1.9139245 19 3206481282208 1 0
-8.230427 -69.382904 1.2195742 64 3206481284512 1 0
-0.59953064 -29.48141 -1.8898174 10 3206481284512 1 0
-2.7906072 -16.545889 -0.9772007 75 3206481286816 1 1
-4.834777 -69.60607 4.0634522 28 3206481286816 1 0
-8.230867 -69.21449 2.8397398 87 3206481289120 1 0
-2.1985 -31.585247 -1.4748505 45 3206481289120 1 0
-2.001027 -16.806067 -0.8869898 36 3206481291424 1 1
0 0 0 1 3206481291424 1 0
0 0 0 8 3206481293728 1 0
-0.65103585 -31.123367 -1.268276 41 3206481293728 1 0
-2.8139427 -16.625263 -0.58882433 63 3206481296032 1 1
0 0 0 9 3206481296032 1 0
0 0 0 29 3206481298336 1 0
-2.9007454 -41.32711 -0.96402454 6 3206481298336 1 0
-0.44750765 -3.7034233 -1.7394967 3 3206481319072 1 0
-1.5523394 -68.93602 -1.2035878 19 3206481319072 1 0
0 0 0 9 3206481321376 1 0
-0.44569528 -6.220307 -1.7457701 6 3206481321376 1 0
-1.0730456 -8.858529 -1.7846674 5 3206481323680 1 0
-4.7210484 -65.75474 0 17 3206481323680 1 0
0 0 0 28 3206481325984 1 0
-0.78194696 -10.868821 -1.6953063 26 3206481325984 1 0
-1.3617352 -11.214479 -1.4379425 14 3206481328288 1 0
-1.623791 -70.29206 0.40864727 87 3206481328288 1 0
-9.741087 -80.12468 -0.46911442 85 3206481330592 1 0
-1.2083278 -16.7274 -1.8065131 2 3206481330592 1 0
-2.8433545 -16.56467 -1.5688958 2 3206481332896 1 1
-5.05133 -69.78648 1.6281407 60 3206481332896 1 0
-1.9888018 -27.420837 -1.9224885 6 3206481335200 1 0
-2.0125947 -16.49439 -1.3565085 4 3206481337504 1 1
-13.864405 -80.70015 0.953265 85 3206481335200 1 0
-1.6058847 -67.808266 1.9739673 23 3206481337504 1 0
-0.70262647 -29.487118 -1.890329 10 3206481339808 1 0
-9.882885 -80.898155 1.4225806 6 3206481339808 1 0
-2.8510575 -16.551788 -0.9781309 75 3206481342112 1 1
-5.0782995 -69.59673 4.0639176 28 3206481342112 1 0
-8.471935 -69.18137 2.839577 87 3206481344416 1 0
-2.3104877 -31.60129 -1.4759673 45 3206481344416 1 0
-2.0489845 -16.711752 -0.88238424 36 3206481346720 1 1
0 0 0 1 3206481346720 1 0
0 0 0 8 3206481349024 1 0
-0.760453 -31.152868 -1.2695787 41 3206481349024 1 0
-2.863788 -16.56807 -0.58714914 76 3206481351328 1 1
0 0 0 9 3206481351328 1 0
0 0 0 29 3206481353632 1 0
-3.1587324 -42.860126 -1.0000359 7 3206481353632 1 0
-0.4608797 -3.7054362 -1.7411872 4 3206481374368 1 0
-0.81645733 -31.3886 -0.5480754 4 3206481374368 1 0
0 0 0 9 3206481376672 1 0
-0.46736026 -6.2187166 -1.7457701 6 3206481376672 1 0
-1.1033472 -8.850853 -1.7838829 3 3206481378976 1 0
-4.9270663 -65.438774 0 16 3206481378976 1 0
0 0 0 28 3206481381280 1 0
-0.82053626 -10.877868 -1.6971511 23 3206481381280 1 0
-1.4010386 -11.213635 -1.4384476 13 3206481383584 1 0
-1.8673141 -70.294014 0.40869376 29 3206481383584 1 0
-10.025745 -80.15405 -0.4694864 85 3206481385888 1 0
-1.2664021 -16.72709 -1.8069414 3 3206481385888 1 0
-2.9114332 -16.617538 -1.5748442 2 3206481388192 1 1
-5.290041 -69.744736 1.6275823 60 3206481388192 1 0
-14.138457 -80.632286 0.9530322 28 3206481390496 1 0
-2.0831108 -27.413834 -1.9224885 6 3206481390496 1 0
0 0 0 53 3206481392800 1 0
-1.8140222 -66.89507 1.947553 21 3206481392800 1 0
-15.775347 -125.55758 2.2088463 119 3206481395104 1 0
-0.80405676 -29.5005 -1.8913524 10 3206481395104 1 0
-2.9110703 -16.561611 -0.97929364 71 3206481397408 1 1
-5.3134084 -69.54314 4.061825 28 3206481397408 1 0
-8.705843 -69.136215 2.8389258 87 3206481399712 1 0
-2.4197803 -31.613146 -1.4768978 40 3206481399712 1 0
-2.0948577 -16.617493 -0.87777865 27 3206481402016 1 1
0 0 0 1 3206481402016 1 0
0 0 0 8 3206481404320 1 0
-0.8674694 -31.194054 -1.2713698 41 3206481404320 1 0
-2.9240835 -16.581892 -0.5879867 74 3206481406624 1 1
0 0 0 9 3206481406624 1 0
0 0 0 29 3206481408928 1 0
-3.3119488 -42.956852 -1.0025483 14 3206481408928 1 0
-0.47316486 -3.7038875 -1.7411872 1 3206481429664 1 0
-0.920424 -31.381723 -0.5480056 4 3206481429664 1 0
0 0 0 9 3206481431968 1 0
-0.48832634 -6.220969 -1.7468483 6 3206481431968 1 0
-1.1333184 -8.85102 -1.7846674 3 3206481434272 1 0
-5.1371536 -65.32231 0 16 3206481434272 1 0
0 0 0 28 3206481436576 1 0
-0.8574622 -10.882948 -1.6983808 22 3206481436576 1 0
-2.1024518 -70.28738 0.40869376 29 3206481438880 1 0
-10.019649 -77.981606 -0.4569559 27 3206481441184 1 0
-1.3234128 -16.734646 -1.8082266 3 3206481441184 1 0
-1.4410683 -11.228564 -1.4409729 12 3206481438880 1 0
-2.9693491 -16.619425 -1.5759597 2 3206481443488 1 1
-5.522757 -69.706635 1.627117 60 3206481443488 1 0
-2.1772964 -27.43053 -1.9241626 6 3206481445792 1 0
-12.277289 -68.65821 0.81198883 19 3206481445792 1 0
-2.125331 -16.484264 -1.3568339 61 3206481448096 1 1
-2.041442 -66.94453 1.9491822 21 3206481448096 1 0
-16.201885 -125.51938 2.2091255 14 3206481450400 1 0
-0.90429914 -29.51357 -1.8923757 10 3206481450400 1 0
-5.5493665 -69.52871 4.062057 28 3206481452704 1 0
-2.9699967 -16.567373 -0.9802239 71 3206481452704 1 1
-8.939562 -69.09833 2.8386002 58 3206481455008 1 0
-2.5306313 -31.64856 -1.4789453 40 3206481455008 1 0
0 0 0 8 3206481457312 1 0
0 0 0 1 3206481457312 1 0
0 0 0 8 3206481459616 1 0
-0.9749791 -31.226866 -1.2728353 41 3206481459616 1 0
-2.9864035 -16.603275 -0.5891035 69 3206481461920 1 1
0 0 0 9 3206481461920 1 0
0 0 0 29 3206481464224 1 0
-3.451681 -42.853577 -1.000408 21 3206481464224 1 0
-0.48703483 -3.7094018 -1.7445682 1 3206481484960 1 0
-2.1773508 -66.33417 -1.1584908 33 3206481484960 1 0
0 0 0 9 3206481487264 1 0
-0.51035345 -6.223066 -1.7479266 7 3206481487264 1 0
-1.1636956 -8.843122 -1.7838829 4 3206481489568 1 0
-5.3592443 -65.23222 0 16 3206481489568 1 0
0 0 0 28 3206481491872 1 0
-0.89609396 -10.887767 -1.6996107 23 3206481491872 1 0
-1.4823298 -11.239202 -1.4429933 13 3206481494176 1 0
-2.343247 -70.143684 0.40790334 58 3206481494176 1 0
-10.594433 -80.23823 -0.47039303 57 3206481496480 1 0
-1.3837838 -16.753704 -1.8107969 2 3206481496480 1 0
-3.033771 -16.64422 -1.5793056 6 3206481498784 1 1
-5.7637367 -69.659035 1.6264657 60 3206481498784 1 0
-12.516158 -68.61101 0.8119423 19 3206481501088 1 0
-2.2740226 -27.434694 -1.9249996 6 3206481501088 1 0
-2.179717 -16.453032 -1.3548812 63 3206481503392 1 1
-10.7238035 -80.85553 1.4236975 12 3206481505696 1 0
-2.2689977 -66.75717 1.9439459 21 3206481503392 1 0
-1.0096302 -29.578056 -1.8967248 10 3206481505696 1 0
-5.7834115 -69.40545 4.0560107 28 3206481508000 1 0
-9.179125 -69.05481 2.8381116 87 3206481510304 1 0
-3.0321195 -16.580475 -0.98161924 33 3206481508000 1 1
-2.645411 -31.691296 -1.4813648 40 3206481510304 1 0
0 0 0 1 3206481512608 1 0
-2.196723 -16.507626 -0.8727544 31 3206481512608 1 1
0 0 0 8 3206481514912 1 0
-1.085362 -31.263214 -1.2744635 41 3206481514912 1 0
-3.0479486 -16.61241 -0.5898015 74 3206481517216 1 1
0 0 0 9 3206481517216 1 0
0 0 0 29 3206481519520 1 0
-5.348778 -63.630302 -1.4858633 15 3206481519520 1 0
-0.49901113 -3.7004938 -1.7411872 2 3206481540256 1 0
0 0 0 9 3206481542560 1 0
-0.53240114 -6.2250843 -1.749005 7 3206481542560 1 0
-1.196658 -8.854553 -1.7870208 5 3206481544864 1 0
-5.567453 -64.98595 0 16 3206481544864 1 0
-1.1389049 -31.358545 -0.54772633 4 3206481540256 1 0
0 0 0 28 3206481547168 1 0
-0.9354457 -10.900325 -1.7020704 21 3206481547168 1 0
-1.5236832 -11.249687 -1.4450135 14 3206481549472 1 0
-2.5883749 -70.143074 0.40794984 58 3206481549472 1 0
-10.951842 -80.77152 -0.4737407 85 3206481551776 1 0
-1.4422567 -16.748772 -1.8107969 3 3206481551776 1 0
-3.0947633 -16.649193 -1.5807927 12 3206481554080 1 1
-6.005482 -69.62255 1.6260935 60 3206481554080 1 0
-12.762163 -68.60229 0.81236136 19 3206481556384 1 0
-2.3711476 -27.44249 -1.9261158 6 3206481556384 1 0
-2.2398226 -16.465075 -1.3565085 60 3206481558688 1 1
-2.627814 -70.105064 2.04169 54 3206481558688 1 0
-11.009214 -80.841385 1.4241164 10 3206481560992 1 0
-1.1137714 -29.598286 -1.8982598 10 3206481560992 1 0
-3.0943701 -16.593342 -0.9830146 21 3206481563296 1 1
-6.0342836 -69.4843 4.061825 28 3206481563296 1 0
-9.419035 -69.014435 2.837786 87 3206481565600 1 0
-2.7598271 -31.725657 -1.4834123 45 3206481565600 1 0
-2.258117 -16.527561 -0.87421983 90 3206481567904 1 1
0 0 0 1 3206481567904 1 0
0 0 0 8 3206481570208 1 0
-1.1963156 -31.307161 -1.2764175 38 3206481570208 1 0
-3.110329 -16.625246 -0.59063905 74 3206481572512 1 1
0 0 0 9 3206481572512 1 0
0 0 0 29 3206481574816 1 0
-5.5443416 -63.308483 -1.4787912 15 3206481574816 1 0
-0.51142824 -3.6951385 -1.7394967 2 3206481595552 1 0
0 0 0 50 3206481595552 1 0
-0.55378586 -6.2193513 -1.7479266 6 3206481597856 1 0
0 0 0 9 3206481597856 1 0
-1.2275589 -8.850322 -1.7870208 4 3206481600160 1 0
-5.6322246 -63.14933 0 15 3206481600160 1 0
0 0 0 28 3206481602464 1 0
-0.9741926 -10.904866 -1.7033001 22 3206481602464 1 0
-1.5645815 -11.25609 -1.4465288 15 3206481604768 1 0
-2.832074 -70.10564 0.4077871 58 3206481604768 1 0
-2.4999962 -17.966595 -0.105428115 1 3206481607072 1 1
-1.501067 -16.747597 -1.8112253 3 3206481607072 1 0
-3.1550853 -16.650026 -1.581908 3 3206481609376 1 1
-12.997081 -68.533745 0.81208193 19 3206481611680 1 0
-2.4697843 -27.46584 -1.928348 6 3206481611680 1 0
-6.245613 -69.569305 1.625349 60 3206481609376 1 0
-2.301141 -16.484795 -1.3587867 57 3206481613984 1 1
-2.872183 -70.08747 2.0414574 27 3206481613984 1 0
-11.297425 -80.84603 1.4248843 58 3206481616288 1 0
-1.2185582 -29.630114 -1.9005623 10 3206481616288 1 0
-6.278949 -69.48667 4.06322 28 3206481618592 1 0
-3.1552558 -16.598131 -0.9839448 24 3206481618592 1 1
-9.658774 -68.97321 2.8374603 87 3206481620896 1 0
-2.8727145 -31.739706 -1.484529 40 3206481620896 1 0
0 0 0 1 3206481623200 1 0
-2.3096952 -16.476063 -0.871917 78 3206481623200 1 1
0 0 0 8 3206481625504 1 0
-1.3075893 -31.350714 -1.2783715 42 3206481625504 1 0
-3.173585 -16.641775 -0.5916163 69 3206481627808 1 1
0 0 0 9 3206481627808 1 0
0 0 0 29 3206481630112 1 0
-5.7652955 -63.288746 -1.4787912 15 3206481630112 1 0
-0.5248331 -3.69692 -1.7411872 3 3206481651296 1 0
0 0 0 14 3206481651296 1 0
0 0 0 9 3206481653600 1 0
-0.575137 -6.213545 -1.7468483 5 3206481653600 1 0
-1.2578924 -8.8421 -1.7862363 6 3206481655904 1 0
-6.445639 -69.525856 0 40 3206481655904 1 0
0 0 0 28 3206481658208 1 0
-1.0137135 -10.917142 -1.7057598 22 3206481658208 1 0
-1.6044232 -11.254489 -1.4470339 15 3206481660512 1 0
-3.0753677 -70.063354 0.40760112 58 3206481660512 1 0
-2.5112727 -17.597414 -0.103312574 1 3206481662816 1 1
-1.5598868 -16.746216 -1.8116536 3 3206481662816 1 0
-6.4854455 -69.51523 1.6246047 40 3206481665120 1 0
-13.262793 -68.625404 0.8137117 19 3206481667424 1 0
-2.5756664 -27.564322 -1.9358816 6 3206481667424 1 0
-2.3597996 -16.484554 -1.3594376 64 3206481669728 1 1
-3.219982 -16.674107 -1.5852541 2 3206481665120 1 1
-2.9713154 -66.80564 1.9461567 21 3206481669728 1 0
-11.581264 -80.81798 1.4250937 29 3206481672032 1 0
-1.3237586 -29.665558 -1.9031205 10 3206481672032 1 0
-3.2200098 -16.622301 -0.9860378 26 3206481674336 1 1
-6.6360526 -70.68488 4.1346145 28 3206481674336 1 0
-9.898909 -68.93513 2.8372974 87 3206481676640 1 0
-2.987604 -31.773243 -1.4865763 35 3206481676640 1 0
-2.36833 -16.47581 -0.87233573 83 3206481678944 1 1
0 0 0 1 3206481678944 1 0
0 0 0 8 3206481681248 1 0
-1.4182792 -31.373905 -1.2795112 42 3206481681248 1 0
-3.2339437 -16.642368 -0.59203506 67 3206481683552 1 1
0 0 0 9 3206481683552 1 0
0 0 0 29 3206481685856 1 0
-3.0058968 -31.769476 -0.74255943 9 3206481685856 1 0
-0.53877866 -3.7022402 -1.7445682 3 3206481706592 1 0
-2.0635736 -44.085007 -0.7703492 7 3206481706592 1 0
0 0 0 16 3206481708896 1 0
-0.5975597 -6.2191677 -1.749005 5 3206481708896 1 0
-1.2887493 -8.837655 -1.7862363 5 3206481711200 1 0
-6.687141 -69.49099 0 60 3206481711200 1 0
-1.0525737 -10.921405 -1.7069896 26 3206481713504 1 0
0 0 0 28 3206481713504 1 0
-1.6436988 -11.248819 -1.4470339 14 3206481715808 1 0
-3.320105 -70.05618 0.40762436 29 3206481715808 1 0
-2.5448961 -17.398567 -0.10219669 1 3206481718112 1 1
-1.6194805 -16.752544 -1.8129388 3 3206481718112 1 0
-3.2758594 -16.651041 -1.5841388 3 3206481720416 1 1
-6.7249765 -69.46032 1.6238602 60 3206481720416 1 0
-12.448348 -63.225826 0.75019795 14 3206481722720 1 0
0 0 0 7 3206481722720 1 0
-2.419063 -16.48805 -1.360414 64 3206481725024 1 1
-3.3593044 -70.02178 2.0401773 26 3206481725024 1 0
-12.418285 -84.55595 1.4917619 29 3206481727328 1 0
-1.4317156 -29.752462 -1.9090047 10 3206481727328 1 0
-3.2818785 -16.630547 -0.98720056 29 3206481729632 1 1
-6.8827486 -70.66129 4.1346145 28 3206481729632 1 0
-10.138313 -68.89224 2.8369718 58 3206481731936 1 0
-3.1043143 -31.822273 -1.4893682 40 3206481731936 1 0
-2.426409 -16.471394 -0.87254506 83 3206481734240 1 1
0 0 0 1 3206481734240 1 0
0 0 0 8 3206481736544 1 0
-3.2966743 -16.654507 -0.5928727 72 3206481738848 1 1
-1.5291469 -31.396708 -1.2806511 42 3206481736544 1 0
0 0 0 9 3206481738848 1 0
0 0 0 29 3206481741152 1 0
-3.1179464 -31.77073 -0.7428386 13 3206481741152 1 0
-0.55062944 -3.6931658 -1.7411872 3 3206481761888 1 0
-2.4734535 -16.573349 -0.4876737 74 3206481764192 1 1
-3.3429487 -66.44983 -1.161353 16 3206481761888 1 0
-0.6196468 -6.220877 -1.7500832 4 3206481764192 1 0
-1.3195907 -8.833103 -1.7862363 4 3206481766496 1 0
-6.9185514 -69.355774 0 20 3206481766496 1 0
0 0 0 28 3206481768800 1 0
-1.6817797 -11.235166 -1.4460237 12 3206481771104 1 0
-3.5627968 -70.00822 0.40741515 29 3206481771104 1 0
-2.579533 -17.215523 -0.101173796 1 3206481773408 1 1
-1.0910829 -10.9215975 -1.7076045 26 3206481768800 1 0
-1.6787409 -16.754704 -1.8137956 3 3206481773408 1 0
-6.967797 -69.4404 1.6239533 60 3206481775712 1 0
-3.3355274 -16.647316 -1.5848823 3 3206481775712 1 1
-3.7005885 -18.455368 0.21913175 1 3206481778016 1 1
-1.7335143 -17.250782 -1.2123675 16 3206481778016 1 1
-2.4807498 -16.507103 -1.3626922 64 3206481780320 1 1
-3.6037056 -70.00963 2.0401773 26 3206481780320 1 0
-12.721099 -84.56349 1.4926695 29 3206481782624 1 0
-1.5363855 -29.76323 -1.910028 10 3206481782624 1 0
-3.3446305 -16.64248 -0.9885959 31 3206481784928 1 1
-7.1466036 -70.80768 4.1446147 28 3206481784928 1 0
-10.376943 -68.844574 2.8364832 58 3206481787232 1 0
-3.2189922 -31.847023 -1.4910433 15 3206481787232 1 0
-2.4868698 -16.482573 -0.8735918 83 3206481789536 1 1
0 0 0 1 3206481789536 1 0
0 0 0 8 3206481791840 1 0
-1.6410245 -31.435081 -1.2824422 38 3206481791840 1 0
-3.3587387 -16.66249 -0.59357065 71 3206481794144 1 1
0 0 0 9 3206481794144 1 0
0 0 0 29 3206481796448 1 0
-6.3872795 -62.82706 -1.469486 29 3206481796448 1 0
-0.56351763 -3.6912212 -1.7411872 3 3206481817184 1 0
-1.6892368 -31.393797 -0.54877347 4 3206481817184 1 0
0 0 0 37 3206481819488 1 0
-0.6409627 -6.2148447 -1.749005 5 3206481819488 1 0
-1.3521951 -8.840075 -1.7885897 4 3206481821792 1 0
-7.1519766 -69.24765 0 20 3206481821792 1 0
0 0 0 28 3206481824096 1 0
-1.7209876 -11.229226 -1.4460237 13 3206481826400 1 0
-1.1316395 -10.941311 -1.7112939 21 3206481824096 1 0
-3.8080184 -70.01133 0.40750813 29 3206481826400 1 0
-2.6177757 -17.064081 -0.10033688 1 3206481828704 1 1
-1.7388567 -16.764565 -1.8155092 3 3206481828704 1 0
-3.4859602 -17.08824 -1.6280082 3 3206481831008 1 0
-7.2097335 -69.41168 1.6238602 60 3206481831008 1 0
-3.7433863 -18.336527 0.21787451 3 3206481833312 1 1
-1.7825739 -17.137468 -1.2048339 8 3206481833312 1 1
-2.541993 -16.521986 -1.3646449 63 3206481835616 1 1
-3.842576 -69.89682 2.0372682 26 3206481835616 1 0
-13.030204 -84.60949 1.4942751 29 3206481837920 1 0
-1.6413677 -29.777613 -1.9113071 10 3206481837920 1 0
-3.4115083 -16.673738 -0.991154 35 3206481840224 1 1
-7.3729815 -70.58372 4.1329865 28 3206481840224 1 0
-10.61902 -68.819786 2.8369718 87 3206481842528 1 0
-1.8273989 -17.469637 -0.8182033 5 3206481842528 1 1
-2.548048 -16.497477 -0.8748478 83 3206481844832 1 1
0 0 0 1 3206481844832 1 0
0 0 0 8 3206481847136 1 0
-1.7529663 -31.469067 -1.2840705 42 3206481847136 1 0
-3.419292 -16.662413 -0.59398943 68 3206481849440 1 1
0 0 0 9 3206481849440 1 0
0 0 0 29 3206481851744 1 0
-4.380101 -41.638924 -0.97426033 6 3206481851744 1 0
-0.5758394 -3.68565 -1.7394967 3 3206481872480 1 0
-1.8043032 -31.483538 -0.5504489 4 3206481872480 1 0
0 0 0 9 3206481874784 1 0
-0.6626527 -6.212569 -1.749005 5 3206481874784 1 0
-1.3860775 -8.854676 -1.792512 4 3206481877088 1 0
-7.3906784 -69.19442 0 20 3206481877088 1 0
0 0 0 48 3206481879392 1 0
-1.171086 -10.949084 -1.7131387 24 3206481879392 1 0
-1.7607892 -11.227071 -1.4465288 12 3206481881696 1 0
-3.8715966 -66.87489 0.38932848 24 3206481881696 1 0
-2.6655383 -16.979761 -0.09989517 4 3206481884000 1 1
-1.7960931 -16.746529 -1.814224 3 3206481884000 1 0
-3.4856718 -16.787403 -1.6004969 3 3206481886304 1 0
-7.4498463 -69.36621 1.623395 60 3206481886304 1 0
-3.7764487 -18.174538 0.21610507 3 3206481888608 1 1
0 0 0 3 3206481888608 1 0
-2.6015098 -16.524826 -1.3656213 68 3206481890912 1 1
-13.327957 -84.57929 1.4945543 29 3206481893216 1 0
-4.085604 -69.86701 2.0368028 26 3206481890912 1 0
-3.4713178 -16.669546 -0.99161917 31 3206481895520 1 1
-7.639899 -70.748116 4.1441493 28 3206481895520 1 0
-10.857312 -68.770454 2.8364832 87 3206481897824 1 0
-1.8690377 -17.28439 -0.8098277 16 3206481897824 1 1
-2.6112309 -16.523993 -0.87673193 81 3206481900128 1 1
-1.746469 -29.791628 -1.9125862 10 3206481893216 1 0
0 0 0 1 3206481900128 1 0
0 0 0 8 3206481902432 1 0
-1.8644567 -31.490685 -1.2852103 42 3206481902432 1 0
-3.4847891 -16.685595 -0.59524584 73 3206481904736 1 1
0 0 0 9 3206481904736 1 0
0 0 0 29 3206481907040 1 0
0 0 0 6 3206481907040 1 0
-0.5887012 -3.6836176 -1.7394967 2 3206481927776 1 0
-1.9158896 -31.504992 -0.5509376 4 3206481927776 1 0
-2.614661 -16.345184 -0.48173925 2 3206481930080 1 1
-0.6843346 -6.2102184 -1.749005 6 3206481930080 1 0
-1.4163575 -8.845911 -1.7917275 5 3206481932384 1 0
-7.6571736 -69.39482 0 60 3206481932384 1 0
-3.5429897 -16.805422 -0.19994724 17 3206481934688 1 1
-1.2106005 -10.956716 -1.7149835 24 3206481934688 1 0
-1.7987113 -11.21302 -1.4455186 13 3206481936992 1 0
-4.2876234 -69.83532 0.40664798 28 3206481936992 1 0
0 0 0 57 3206481939296 1 0
-1.856728 -16.759922 -1.816366 3 3206481939296 1 0
-3.6175222 -17.121937 -1.633585 3 3206481941600 1 0
-7.6897297 -69.31991 1.6229297 60 3206481941600 1 0
-3.7893965 -17.922539 0.21326464 3 3206481943904 1 1
-1.8867533 -16.9858 -1.1950679 2 3206481943904 1 1
-2.6623452 -16.535324 -1.3672487 70 3206481946208 1 1
-4.328224 -69.832375 2.036221 53 3206481946208 1 0
-13.627567 -84.55989 1.4950429 29 3206481948512 1 0
-1.8521832 -29.813238 -1.9143771 10 3206481948512 1 0
-3.5419004 -16.715925 -0.9951075 61 3206481950816 1 1
-7.9129214 -70.95517 4.1578703 28 3206481950816 1 0
-11.089655 -68.68479 2.8345294 87 3206481953120 1 0
-1.9129533 -17.130833 -0.8029411 19 3206481953120 1 1
-2.6695318 -16.51872 -0.87694126 83 3206481955424 1 1
0 0 0 1 3206481955424 1 0
0 0 0 8 3206481957728 1 0
-1.9763694 -31.515896 -1.2865129 42 3206481957728 1 0
-3.5513208 -16.712431 -0.5966418 68 3206481960032 1 1
0 0 0 9 3206481960032 1 0
0 0 0 29 3206481962336 1 0
-4.6492734 -41.41658 -0.9697938 13 3206481962336 1 0
-0.6015558 -3.68154 -1.7394967 3 3206481983072 1 0
-2.6565547 -41.30435 -0.7224598 21 3206481983072 1 0
0 0 0 9 3206481985376 1 0
-0.7063982 -6.211624 -1.7500832 6 3206481985376 1 0
-1.444564 -8.825451 -1.7885897 4 3206481987680 1 0
0 0 0 54 3206481987680 1 0
0 0 0 28 3206481989984 1 0
-1.2499433 -10.9642315 -1.7168281 23 3206481989984 1 0
-1.838157 -11.210642 -1.4460237 14 3206481992288 1 0
-4.5295963 -69.82405 0.40667123 57 3206481992288 1 0
-2.7607255 -16.82269 -0.0990815 21 3206481994592 1 1
-3.6840508 -17.14441 -1.636931 3 3206481996896 1 0
-7.9281764 -69.28902 1.6228367 60 3206481996896 1 0
-3.8131855 -17.733433 0.21116924 3 3206481999200 1 1
-1.9351776 -16.891994 -1.1889293 7 3206481999200 1 1
-1.9146105 -16.753408 -1.816366 3 3206481994592 1 0
-2.7216754 -16.541824 -1.3685504 26 3206482001504 1 1
-4.572595 -69.88892 2.0383155 80 3206482001504 1 0
-13.9210205 -84.53639 1.4954618 29 3206482003808 1 0
-1.9571615 -29.850536 -1.9171911 10 3206482003808 1 0
-3.5973313 -16.695915 -0.9946424 75 3206482006112 1 1
-8.12757 -70.685715 4.1436844 28 3206482006112 1 0
-11.32255 -68.63868 2.8342037 87 3206482008416 1 0
-1.9581175 -17.009094 -0.79754347 24 3206482008416 1 1
-2.72964 -16.533186 -0.8781974 76 3206482010720 1 1
0 0 0 1 3206482010720 1 0
0 0 0 8 3206482013024 1 0
-2.0852354 -31.536917 -1.2876527 38 3206482013024 1 0
-3.613001 -16.723745 -0.5974794 73 3206482015328 1 1
0 0 0 29 3206482017632 1 0
0 0 0 9 3206482015328 1 0
-7.5727186 -65.4616 -1.5334132 17 3206482017632 1 0
-2.1338003 -31.543095 -0.5518451 4 3206482038368 1 0
-0.6149539 -3.6866767 -1.7428777 2 3206482038368 1 0
0 0 0 9 3206482040672 1 0
-0.72753114 -6.213063 -1.7511616 5 3206482040672 1 0
-1.4760184 -8.832175 -1.7909431 6 3206482042976 1 0
-8.119177 -69.24563 0 20 3206482042976 1 0
0 0 0 28 3206482045280 1 0
-1.2886169 -10.975672 -1.7192878 21 3206482045280 1 0
-1.8759747 -11.204376 -1.4460237 14 3206482047584 1 0
-4.7646327 -69.80039 0.40662473 28 3206482047584 1 0
-2.8078022 -16.754063 -0.09873279 34 3206482049888 1 1
-1.972769 -16.758673 -1.8176512 3 3206482049888 1 0
-3.7483282 -17.159008 -1.6395334 2 3206482052192 1 0
-8.160671 -69.23383 1.6221853 60 3206482052192 1 0
-1.9709196 -16.699032 -1.1758151 15 3206482054496 1 1
-3.8421695 -17.57572 0.20944637 3 3206482054496 1 1
-4.8066907 -69.78905 2.035872 53 3206482056800 1 0
0 0 0 9 3206482056800 1 0
-14.199068 -84.40903 1.4940656 29 3206482059104 1 0
-2.0652683 -29.919275 -1.922052 10 3206482059104 1 0
-8.394289 -70.84354 4.1546144 28 3206482061408 1 0
-3.6602314 -16.706766 -0.9960377 75 3206482061408 1 1
-11.563069 -68.61073 2.8346922 87 3206482063712 1 0
-2.0021665 -16.875214 -0.7915875 24 3206482063712 1 1
-2.791986 -16.551128 -0.87966275 83 3206482066016 1 1
0 0 0 1 3206482066016 1 0
0 0 0 8 3206482068320 1 0
-2.1999307 -31.58922 -1.2900951 38 3206482068320 1 0
-3.6761315 -16.730446 -0.5981774 68 3206482070624 1 1
0 0 0 9 3206482070624 1 0
0 0 0 29 3206482072928 1 0
0 0 0 9 3206482072928 1 0
-0.6284621 -3.684398 -1.7428777 1 3206482093664 1 0
-3.043302 -42.66508 -0.7466139 7 3206482093664 1 0
-0.7507151 -6.214184 -1.7522398 5 3206482095968 1 0
0 0 0 9 3206482095968 1 0
-1.5089123 -8.830594 -1.7917275 6 3206482098272 1 0
0 0 0 7 3206482098272 1 0
-1.3300222 -10.982676 -1.7211325 23 3206482100576 1 0
0 0 0 14 3206482100576 1 0
-1.9200498 -11.217036 -1.448549 14 3206482102880 1 0
-5.0186887 -69.78659 0.40664798 28 3206482102880 1 0
-2.8692565 -16.747707 -0.09875604 66 3206482105184 1 1
-2.0345287 -16.7593 -1.8185079 3 3206482105184 1 0
-3.81563 -17.168648 -1.641764 2 3206482107488 1 0
-8.430651 -69.36262 1.6259074 20 3206482107488 1 0
-3.8674624 -17.389927 0.20739754 4 3206482109792 1 1
-2.0240312 -16.632383 -1.1716298 17 3206482109792 1 1
-2.849527 -16.589052 -1.3740833 4 3206482112096 1 1
-5.0566545 -69.74733 2.0351737 79 3206482112096 1 0
-14.537385 -84.55839 1.497626 29 3206482114400 1 0
-2.1749809 -29.939518 -1.9238428 10 3206482114400 1 0
-3.7254379 -16.716894 -0.99743307 77 3206482116704 1 1
-8.652126 -70.84067 4.1562424 28 3206482116704 1 0
-11.806943 -68.55702 2.8342037 87 3206482119008 1 0
-2.0514998 -16.776707 -0.7873066 28 3206482119008 1 1
-2.8545794 -16.560717 -0.88070947 78 3206482121312 1 1
0 0 0 1 3206482121312 1 0
0 0 0 8 3206482123616 1 0
-2.3147538 -31.609066 -1.291235 42 3206482123616 1 0
-3.7426994 -16.748451 -0.5992942 71 3206482125920 1 1
0 0 0 9 3206482125920 1 0
0 0 0 29 3206482128224 1 0
0 0 0 1 3206482128224 1 0
-0.6406972 -3.6786103 -1.7411872 3 3206482148960 1 0
-3.2110164 -42.90546 -0.75101197 7 3206482148960 1 0
0 0 0 9 3206482151264 1 0
-0.77145135 -6.203881 -1.7500832 5 3206482151264 1 0
-1.541076 -8.833001 -1.7932965 5 3206482153568 1 0
-10.013468 -80.43107 0 57 3206482153568 1 0
-3.802795 -16.867468 -0.20129761 68 3206482155872 1 1
-1.3703063 -10.993654 -1.7235922 24 3206482155872 1 0
-1.965341 -11.245444 -1.4530947 19 3206482158176 1 0
-5.262259 -69.76865 0.40664798 28 3206482158176 1 0
-2.9311454 -16.75729 -0.098872274 31 3206482160480 1 1
-3.890456 -17.221266 -1.6480842 3 3206482162784 1 0
-2.0935104 -16.756042 -1.8189362 3 3206482160480 1 0
-10.116106 -80.87169 1.8965043 28 3206482162784 1 0
-3.929905 -17.384125 0.20749067 4 3206482165088 1 1
-2.0726557 -16.54999 -1.1663282 10 3206482165088 1 1
-2.909482 -16.590784 -1.3750596 2 3206482167392 1 1
-12.0696535 -68.76618 1.2186667 21 3206482169696 1 0
-5.298875 -69.7133 2.0347083 79 3206482167392 1 0
-2.2806885 -29.947664 -1.9248661 10 3206482169696 1 0
-3.7917078 -16.73884 -0.999526 73 3206482172000 1 1
-8.899353 -70.810036 4.1562424 28 3206482172000 1 0
