# .PCD v.7 - Point Cloud Data file format
VERSION .7
FIELDS x y z rgb timestamp_ns device_id active
SIZE 4 4 4 4 8 1 1
TYPE F F F F F U U
COUNT 1 1 1 1 1 1 1
WIDTH 961
HEIGHT 1
VIEWPOINT 0 0 0 1 0 0 0
POINTS 961               
DATA ascii
-38.48497 -108.44256 6.701336 28 3200785521704 1 0
-21.234957 -51.655224 2.2753742 64 3200785524008 1 0
-15.774816 -33.615788 -2.162539 15 3200785521704 1 0
0 0 0 30 3200785524008 1 0
-15.97687 -38.849365 -2.2014596 10 3200785526312 1 0
0 0 0 1 3200785526312 1 0
-21.255503 -51.6646 4.5606413 48 3200785528616 1 0
-10.438782 -34.65596 -1.4745805 12 3200785528616 1 0
-22.77469 -48.4627 -1.869915 77 3200785530920 1 0
0 0 0 9 3200785530920 1 0
0 0 0 29 3200785533224 1 0
-17.697987 -49.76011 -1.2289451 10 3200785533224 1 0
-1.4383839 -3.4811552 -1.7564015 5 3200785553960 1 0
0 0 0 97 3200785553960 1 0
-2.1239011 -5.945309 -1.7673361 4 3200785556264 1 0
-3.4760692 -8.405456 -1.819184 3 3200785558568 1 0
-20.815762 -50.356205 -1.5857832 30 3200785556264 1 0
-31.768682 -88.88532 0 28 3200785558568 1 0
-22.881327 -48.457798 -0.62386894 82 3200785560872 1 0
-3.9485152 -11.042195 -1.8244374 12 3200785560872 1 0
-4.883386 -11.798273 -1.6253246 18 3200785563176 1 0
0 0 0 236 3200785563176 1 0
-20.8351 -50.315903 -0.31651682 30 3200785565480 1 0
-5.8205643 -16.261795 -1.86049 3 3200785565480 1 0
-9.086285 -19.220015 -1.9845418 3 3200785567784 1 0
-31.107914 -86.869095 2.1470947 28 3200785567784 1 0
-22.916054 -48.45466 0.6240086 55 3200785570088 1 0
-10.029156 -27.993025 -2.0793009 3 3200785570088 1 0
-9.467053 -22.832941 -2.017839 3 3200785572392 1 0
0 0 0 246 3200785572392 1 0
-31.568035 -76.10394 1.4381481 29 3200785574696 1 0
-9.8299465 -32.295895 -2.1635556 8 3200785574696 1 0
-15.891084 -33.560978 -2.162539 10 3200785577000 1 0
0 0 0 3 3200785577000 1 0
-21.438906 -51.640156 2.2779794 64 3200785579304 1 0
-14.615981 -40.71726 -2.0151699 22 3200785579304 1 0
-16.107784 -38.782295 -2.2008317 10 3200785581608 1 0
0 0 0 1 3200785581608 1 0
-21.444115 -51.608185 4.5622687 48 3200785583912 1 0
-22.922857 -48.335285 -1.8681003 77 3200785586216 1 0
0 0 0 17 3200785583912 1 0
0 0 0 9 3200785586216 1 0
0 0 0 29 3200785588520 1 0
-17.856148 -49.64833 -1.2277355 10 3200785588520 1 0
-1.4511333 -3.4758599 -1.7564015 5 3200785609256 1 0
-20.965555 -50.19871 -1.5832232 45 3200785611560 1 0
-10.941146 -35.653297 -0.65097475 37 3200785609256 1 0
-2.1455913 -5.937516 -1.7673361 4 3200785611560 1 0
-3.5066092 -8.392761 -1.819184 2 3200785613864 1 0
-31.215872 -86.34667 0 28 3200785613864 1 0
-23.036018 -48.331287 -0.62331015 90 3200785616168 1 0
-4.936626 -11.806208 -1.6288601 18 3200785618472 1 0
-10.931768 -35.552666 0.21617994 223 3200785618472 1 0
-21.021896 -50.25549 -0.3166098 100 3200785620776 1 0
-5.8762393 -16.233301 -1.8596332 3 3200785620776 1 0
-3.987135 -11.024106 -1.8238225 15 3200785616168 1 0
-9.158424 -19.19457 -1.9852853 3 3200785623080 1 0
-31.167984 -86.06541 2.1299732 28 3200785623080 1 0
-23.061003 -48.314938 0.6232636 55 3200785625384 1 0
-10.131559 -27.964613 -2.079859 7 3200785625384 1 0
-9.548024 -22.799202 -2.017839 3 3200785627688 1 0
-10.917536 -35.43665 1.0791425 221 3200785627688 1 0
-31.778086 -75.85172 1.4354954 29 3200785629992 1 0
-9.860544 -31.990107 -2.1453917 8 3200785629992 1 0
-16.064203 -33.620136 -2.1699808 5 3200785632296 1 0
0 0 0 3 3200785632296 1 0
-21.653782 -51.64578 2.2815616 43 3200785634600 1 0
-14.798143 -40.7747 -2.0205674 15 3200785634600 1 0
-16.290958 -38.840023 -2.2073214 10 3200785636904 1 0
0 0 0 1 3200785636904 1 0
-21.643435 -51.581123 4.5664997 48 3200785639208 1 0
-10.488231 -33.95979 -1.4480394 52 3200785639208 1 0
-23.060701 -48.194344 -1.8657271 77 3200785641512 1 0
0 0 0 9 3200785641512 1 0
0 0 0 29 3200785643816 1 0
-18.006685 -49.530113 -1.2263397 10 3200785643816 1 0
-1.4654672 -3.47771 -1.7597824 4 3200785664552 1 0
-10.537482 -33.93624 -0.6202585 60 3200785664552 1 0
-21.088417 -50.02575 -1.5799651 30 3200785666856 1 0
-2.1639478 -5.92675 -1.7662578 4 3200785666856 1 0
-3.5344214 -8.381086 -1.819184 2 3200785669160 1 0
-30.364317 -83.12796 0 28 3200785669160 1 0
-23.164972 -48.189743 -0.622472 88 3200785671464 1 0
-4.02774 -11.021961 -1.8256671 15 3200785671464 1 0
-4.985007 -11.811707 -1.6318905 19 3200785673768 1 0
-11.07337 -35.59261 0.2166449 223 3200785673768 1 0
-21.16043 -50.11917 -0.31619135 90 3200785676072 1 0
-5.9314046 -16.21746 -1.8600615 3 3200785676072 1 0
-9.23066 -19.182037 -1.9871442 3 3200785678376 1 0
-31.563145 -86.26201 2.1374173 28 3200785678376 1 0
-23.191603 -48.176933 0.622472 64 3200785680680 1 0
-9.628233 -22.778429 -2.0188153 3 3200785682984 1 0
-10.232468 -27.953344 -2.0815332 7 3200785680680 1 0
-11.059976 -35.48041 1.081586 223 3200785682984 1 0
-30.931318 -73.14899 1.3862796 28 3200785685288 1 0
-9.921411 -31.812422 -2.1356702 8 3200785685288 1 0
-16.17907 -33.573875 -2.170446 5 3200785687592 1 0
-39.834583 -108.681656 6.741103 28 3200785687592 1 0
-21.856077 -51.6473 2.2848182 65 3200785689896 1 0
-16.427454 -38.80418 -2.208368 10 3200785692200 1 0
0 0 0 1 3200785692200 1 0
-14.949783 -40.77042 -2.022801 7 3200785689896 1 0
-21.87189 -51.644897 4.5785418 24 3200785694504 1 0
-10.584099 -33.871418 -1.4457598 41 3200785694504 1 0
-23.19607 -48.067204 -1.8637727 66 3200785696808 1 0
0 0 0 9 3200785696808 1 0
-18.088108 -49.244904 -1.2207565 10 3200785699112 1 0
0 0 0 29 3200785699112 1 0
-1.4804366 -3.4792452 -1.7631634 4 3200785720296 1 0
-21.235086 -49.88546 -1.5778706 45 3200785722600 1 0
-2.1873333 -5.926372 -1.7684144 4 3200785722600 1 0
-3.5622404 -8.365037 -1.8183995 2 3200785724904 1 0
-10.647483 -33.872543 -0.6197699 27 3200785720296 1 0
-30.377012 -82.26679 0 28 3200785724904 1 0
-23.306166 -48.0505 -0.621727 95 3200785727208 1 0
-4.0691686 -11.015161 -1.826897 13 3200785727208 1 0
-5.038996 -11.82329 -1.6359311 18 3200785729512 1 0
-11.215403 -35.606823 0.21697037 181 3200785729512 1 0
-21.308832 -49.977997 -0.3157729 90 3200785731816 1 0
-5.9913254 -16.2039 -1.8609183 3 3200785731816 1 0
-9.3001375 -19.152876 -1.9875159 3 3200785734120 1 0
-31.859497 -86.12741 2.136859 28 3200785734120 1 0
-23.334116 -48.036934 0.621727 55 3200785736424 1 0
-10.332787 -27.920671 -2.0818121 7 3200785736424 1 0
-9.721531 -22.77345 -2.021419 3 3200785738728 1 0
-11.207481 -35.509567 1.0836806 220 3200785738728 1 0
-30.990196 -72.56774 1.3773439 56 3200785741032 1 0
-10.034476 -31.77694 -2.1356702 12 3200785741032 1 0
-16.291618 -33.501644 -2.1695156 5 3200785743336 1 0
-40.256294 -108.63263 6.7469172 28 3200785743336 1 0
-22.07491 -51.649784 2.2884004 66 3200785745640 1 0
-16.58189 -38.781883 -2.2104614 10 3200785747944 1 0
-15.077208 -40.668076 -2.0203815 7 3200785745640 1 0
0 0 0 1 3200785747944 1 0
-22.071016 -51.59914 4.581471 24 3200785750248 1 0
-10.750077 -33.97424 -1.4517845 11 3200785750248 1 0
-23.338844 -47.922462 -1.8613995 66 3200785752552 1 0
0 0 0 9 3200785752552 1 0
0 0 0 29 3200785754856 1 0
-18.300066 -49.273193 -1.2230829 10 3200785754856 1 0
-1.4940034 -3.477387 -1.7648538 4 3200785775592 1 0
-10.838412 -34.06384 -0.6239584 11 3200785775592 1 0
-21.429253 -49.85894 -1.5793833 60 3200785777896 1 0
-2.2106564 -5.9259343 -1.770571 4 3200785777896 1 0
-3.5943952 -8.359811 -1.8199685 2 3200785780200 1 0
-30.906153 -82.812775 0 28 3200785780200 1 0
-23.448093 -47.919067 -0.6210751 95 3200785782504 1 0
-4.110119 -11.008385 -1.8281268 9 3200785782504 1 0
-5.0924397 -11.834935 -1.6399717 19 3200785784808 1 0
0 0 0 3 3200785784808 1 0
-21.452875 -49.83796 -0.31535444 90 3200785787112 1 0
-6.0472627 -16.183107 -1.8609183 3 3200785787112 1 0
-30.912735 -82.690865 2.0542283 28 3200785789416 1 0
-9.366102 -19.120705 -1.9875159 3 3200785789416 1 0
-23.472813 -47.90251 0.6210285 63 3200785791720 1 0
-10.434357 -27.899914 -2.0829284 3 3200785791720 1 0
-9.796487 -22.732624 -2.0207682 3 3200785794024 1 0
-11.342683 -35.512787 1.0849606 106 3200785794024 1 0
-31.225906 -72.431786 1.3767854 56 3200785796328 1 0
-10.135969 -31.719568 -2.1341352 12 3200785796328 1 0
-16.413063 -33.460106 -2.170446 5 3200785798632 1 0
-40.691772 -108.66643 6.7576146 28 3200785798632 1 0
-22.284187 -51.65126 2.2918198 66 3200785800936 1 0
-15.214423 -40.61267 -2.0201952 7 3200785800936 1 0
0 0 0 1 3200785803240 1 0
-16.729614 -38.761898 -2.212555 10 3200785803240 1 0
-22.304598 -51.659313 4.5935125 24 3200785805544 1 0
-10.954356 -34.2154 -1.463671 12 3200785805544 1 0
-23.47115 -47.7821 -1.8590264 77 3200785807848 1 0
0 0 0 9 3200785807848 1 0
0 0 0 29 3200785810152 1 0
-18.396336 -49.023827 -1.2184303 10 3200785810152 1 0
-1.5026424 -3.4657614 -1.761473 4 3200785830888 1 0
-11.039531 -34.30182 -0.62898475 16 3200785830888 1 0
-21.557013 -49.699257 -1.5765905 90 3200785833192 1 0
-2.227665 -5.9113297 -1.7684144 4 3200785833192 1 0
-3.6239016 -8.351338 -1.820753 2 3200785835496 1 0
-19.628727 -52.06268 0 33 3200785835496 1 0
-23.584175 -47.789803 -0.6204232 88 3200785837800 1 0
-4.1470814 -10.9945135 -1.8281268 8 3200785837800 1 0
-5.146571 -11.850441 -1.6445173 18 3200785840104 1 0
0 0 0 1 3200785840104 1 0
-21.591362 -49.69527 -0.31491274 100 3200785842408 1 0
-6.1048794 -16.169962 -1.861775 3 3200785842408 1 0
-9.432887 -19.092289 -1.9878877 3 3200785844712 1 0
-19.690533 -52.13012 1.2966875 10 3200785844712 1 0
-23.60982 -47.768215 0.62033004 63 3200785847016 1 0
-10.533888 -27.875284 -2.0837653 3 3200785847016 1 0
-9.87923 -22.709833 -2.0217445 3 3200785849320 1 0
-31.368465 -72.07802 1.3721082 55 3200785851624 1 0
-10.23665 -31.657854 -2.1323442 8 3200785851624 1 0
-16.525248 -33.395935 -2.1699808 5 3200785853928 1 0
0 0 0 6 3200785849320 1 0
-19.815886 -52.365196 3.2606688 23 3200785853928 1 0
-22.501902 -51.661427 2.2957277 66 3200785856232 1 0
-16.864815 -38.703266 -2.212555 10 3200785858536 1 0
0 0 0 1 3200785858536 1 0
-15.371068 -40.600647 -2.0222425 7 3200785856232 1 0
-22.498281 -51.61005 4.5961165 24 3200785860840 1 0
-11.159227 -34.439137 -1.4749062 12 3200785860840 1 0
0 0 0 9 3200785863144 1 0
-23.616108 -47.652626 -1.8572116 66 3200785863144 1 0
0 0 0 29 3200785865448 1 0
-18.552467 -48.913635 -1.2173136 10 3200785865448 1 0
-1.515335 -3.4602308 -1.761473 4 3200785886184 1 0
-11.250684 -34.523502 -0.6338016 17 3200785886184 1 0
-21.70818 -49.550488 -1.5743797 74 3200785888488 1 0
-2.2506447 -5.906741 -1.7694926 4 3200785888488 1 0
-3.6527908 -8.33446 -1.8199685 2 3200785890792 1 0
-19.877075 -52.14392 0 22 3200785890792 1 0
-23.727821 -47.642696 -0.6196316 95 3200785893096 1 0
-4.1842937 -10.971946 -1.826897 6 3200785893096 1 0
-5.2007833 -11.857085 -1.6480528 16 3200785895400 1 0
-30.37274 -93.017136 0.5687074 30 3200785895400 1 0
-21.744232 -49.55432 -0.31451753 90 3200785897704 1 0
-6.1649356 -16.151419 -1.8622035 3 3200785897704 1 0
-9.539288 -19.13285 -1.995695 3 3200785900008 1 0
-19.879194 -52.058464 1.2966875 21 3200785900008 1 0
-23.755535 -47.628883 0.6196316 54 3200785902312 1 0
-10.668744 -27.92649 -2.090462 3 3200785902312 1 0
-9.969097 -22.6923 -2.0233717 3 3200785904616 1 0
0 0 0 6 3200785904616 1 0
-31.80634 -72.37105 1.3798571 56 3200785906920 1 0
-10.310805 -31.4994 -2.124158 12 3200785906920 1 0
-16.641546 -33.329205 -2.1695156 5 3200785909224 1 0
-20.003878 -52.29367 3.2606688 23 3200785909224 1 0
-22.723984 -51.664562 2.2994728 67 3200785911528 1 0
-15.557945 -40.653496 -2.0276403 7 3200785911528 1 0
-17.043404 -38.73408 -2.2177885 10 3200785913832 1 0
0 0 0 1 3200785913832 1 0
-22.741848 -51.664394 4.608158 73 3200785916136 1 0
-11.365578 -34.653515 -1.4858158 12 3200785916136 1 0
-23.760733 -47.518116 -1.8552573 32 3200785918440 1 0
0 0 0 9 3200785918440 1 0
0 0 0 29 3200785920744 1 0
-18.707682 -48.79881 -1.2161039 10 3200785920744 1 0
-1.5244726 -3.448289 -1.7580919 4 3200785941480 1 0
-11.42498 -34.647343 -0.6368034 5 3200785941480 1 0
-21.85837 -49.423214 -1.5727507 74 3200785943784 1 0
-3.6818612 -8.321659 -1.8199685 2 3200785946088 1 0
-2.2712493 -5.898849 -1.7694926 5 3200785943784 1 0
-20.067596 -52.096615 0 22 3200785946088 1 0
-23.865252 -47.502396 -0.61888653 88 3200785948392 1 0
-4.2211466 -10.953585 -1.8262821 6 3200785948392 1 0
-5.2565994 -11.871513 -1.6525985 16 3200785950696 1 0
-30.276873 -91.638214 0.5609194 31 3200785950696 1 0
-21.891155 -49.419605 -0.31414557 90 3200785953000 1 0
-9.609594 -19.106552 -1.9964386 3 3200785955304 1 0
-6.2184143 -16.12238 -1.8613467 3 3200785953000 1 0
-31.44369 -81.48823 2.032454 28 3200785955304 1 0
-23.894682 -47.492077 0.6189331 63 3200785957608 1 0
-10.769034 -27.896524 -2.09102 3 3200785957608 1 0
-10.046631 -22.653719 -2.0230463 3 3200785959912 1 0
-35.893135 -108.42501 3.3238845 88 3200785959912 1 0
-31.796019 -71.66735 1.3685479 27 3200785962216 1 0
-10.423206 -31.470795 -2.1246696 12 3200785962216 1 0
-16.76497 -33.28518 -2.170446 5 3200785964520 1 0
-20.135904 -52.093163 3.2525294 23 3200785964520 1 0
-22.933382 -51.650677 2.3024037 45 3200785966824 1 0
-15.705523 -40.61385 -2.0283847 7 3200785966824 1 0
-17.188236 -38.69626 -2.2190444 10 3200785969128 1 0
0 0 0 1 3200785969128 1 0
-22.93824 -51.621128 4.611413 49 3200785971432 1 0
-12.190136 -36.73407 -1.5768372 6 3200785971432 1 0
0 0 0 9 3200785973736 1 0
-23.748224 -47.08153 -1.8414371 64 3200785973736 1 0
0 0 0 29 3200785976040 1 0
-18.862019 -48.692192 -1.2150804 10 3200785976040 1 0
-1.5409323 -3.452878 -1.7631634 4 3200785996776 1 0
-24.524494 -73.50911 -1.3526313 80 3200785996776 1 0
-22.006306 -49.29185 -1.5710052 88 3200785999080 1 0
-2.293223 -5.8944745 -1.770571 4 3200785999080 1 0
-3.7124863 -8.312338 -1.820753 2 3200786001384 1 0
0 0 0 11 3200786001384 1 0
-24.009224 -47.375988 -0.6183278 88 3200786003688 1 0
-4.26079 -10.942467 -1.826897 6 3200786003688 1 0
-5.307722 -11.874827 -1.6556289 16 3200786005992 1 0
-29.880093 -89.38859 0.5477845 33 3200786005992 1 0
-22.03414 -49.27716 -0.3137271 88 3200786008296 1 0
-6.280431 -16.115396 -1.8630602 3 3200786008296 1 0
-9.681636 -19.083548 -1.997554 3 3200786010600 1 0
-43.341576 -111.16539 2.7764091 28 3200786010600 1 0
-24.029541 -47.347744 0.61814153 54 3200786012904 1 0
-10.866346 -27.858765 -2.09102 3 3200786012904 1 0
-10.125647 -22.618511 -2.0230463 3 3200786015208 1 0
-30.85322 -92.12149 2.827367 31 3200786015208 1 0
-31.246637 -69.77104 1.334411 26 3200786017512 1 0
-10.539338 -31.453144 -2.1259487 8 3200786017512 1 0
-16.873821 -33.212215 -2.1695156 5 3200786019816 1 0
-20.339413 -52.07835 3.2560177 23 3200786019816 1 0
-23.149498 -51.650547 2.305986 68 3200786022120 1 0
-15.858829 -40.58855 -2.0298738 7 3200786022120 1 0
-17.347721 -38.690697 -2.2221847 10 3200786024424 1 0
0 0 0 1 3200786024424 1 0
-23.131346 -51.569847 4.6140165 74 3200786026728 1 0
0 0 0 24 3200786026728 1 0
0 0 0 9 3200786029032 1 0
-23.94143 -47.055355 -1.8436706 96 3200786029032 1 0
0 0 0 29 3200786031336 1 0
-19.056648 -48.68936 -1.2166623 10 3200786031336 1 0
-1.5499978 -3.4408674 -1.7597824 4 3200786052072 1 0
-24.800125 -73.4799 -1.3536785 80 3200786052072 1 0
-22.14502 -49.14199 -1.5686779 88 3200786054376 1 0
-2.3151507 -5.8900356 -1.7716492 6 3200786054376 1 0
-3.7461944 -8.31011 -1.8231063 2 3200786056680 1 0
-20.103628 -51.125416 0 32 3200786056680 1 0
-24.118807 -47.185577 -0.61693084 29 3200786058984 1 0
-4.3030624 -10.938655 -1.8287418 6 3200786058984 1 0
-5.3602176 -11.881701 -1.6591644 16 3200786061288 1 0
-30.259804 -89.49303 0.5490631 33 3200786061288 1 0
-22.172964 -49.131485 -0.31328538 88 3200786063592 1 0
-9.74736 -19.05006 -1.997554 3 3200786065896 1 0
-6.3360605 -16.093607 -1.8630602 3 3200786063592 1 0
-20.343319 -51.651134 1.2917557 21 3200786065896 1 0
-24.152172 -47.18648 0.6171171 27 3200786068200 1 0
-10.969423 -27.839785 -2.092415 3 3200786068200 1 0
-10.213073 -22.605421 -2.024999 3 3200786070504 1 0
-30.686914 -90.591156 2.783615 32 3200786070504 1 0
-31.487082 -69.66725 1.3344808 52 3200786072808 1 0
-10.686728 -31.53406 -2.1338794 8 3200786072808 1 0
-16.981777 -33.143684 -2.168818 5 3200786075112 1 0
-20.408854 -51.733646 3.2388086 69 3200786075112 1 0
-23.365055 -51.658688 2.3098938 68 3200786077416 1 0
-16.00157 -40.545376 -2.0304322 7 3200786077416 1 0
-17.4793 -38.63143 -2.2221847 10 3200786079720 1 0
-23.367174 -51.625378 4.6260586 49 3200786082024 1 0
-12.309196 -36.255657 -1.559903 30 3200786082024 1 0
-24.104404 -46.981064 -1.8439498 43 3200786084328 1 0
-20.400032 -51.669456 6.8207836 65 3200786079720 1 0
0 0 0 9 3200786084328 1 0
0 0 0 29 3200786086632 1 0
-19.141802 -48.42382 -1.2116374 10 3200786086632 1 0
-1.5643994 -3.4423094 -1.7631634 4 3200786107368 1 0
-25.092733 -73.54109 -1.3563312 54 3200786107368 1 0
-22.28174 -49.009884 -1.5668162 87 3200786109672 1 0
-2.3347127 -5.882309 -1.7716492 4 3200786109672 1 0
-3.7706041 -8.290445 -1.8215374 2 3200786111976 1 0
-20.217703 -50.916904 0 32 3200786111976 1 0
-24.118597 -46.799046 -0.6129263 21 3200786114280 1 0
-4.3395514 -10.924231 -1.8287418 6 3200786114280 1 0
-5.416373 -11.899819 -1.6642152 18 3200786116584 1 0
-30.31317 -88.67217 0.5446461 33 3200786116584 1 0
-22.314344 -49.00591 -0.31295994 88 3200786118888 1 0
-6.3914475 -16.07597 -1.8634887 3 3200786118888 1 0
-9.8149605 -19.024284 -1.9982975 3 3200786121192 1 0
-24.171501 -46.834766 0.6135782 18 3200786123496 1 0
-11.068999 -27.817522 -2.0935314 4 3200786123496 1 0
-20.53004 -51.615936 1.2925931 21 3200786121192 1 0
-30.09978 -87.88089 2.7034416 34 3200786125800 1 0
-31.49016 -69.05094 1.3247075 51 3200786128104 1 0
-10.803653 -31.527952 -2.135926 8 3200786128104 1 0
-10.322366 -22.643383 -2.0315082 3 3200786125800 1 0
-17.061005 -33.022087 -2.164632 5 3200786130408 1 0
-20.573708 -51.638218 3.2371807 69 3200786130408 1 0
-23.576866 -51.65903 2.313476 46 3200786132712 1 0
-16.142134 -40.498222 -2.0308044 7 3200786132712 1 0
-17.617313 -38.586254 -2.223022 10 3200786135016 1 0
-23.62262 -51.719444 4.6416802 25 3200786137320 1 0
0 0 0 1 3200786137320 1 0
-24.121555 -46.621464 -1.8330612 42 3200786139624 1 0
-20.575766 -51.599728 6.8207836 65 3200786135016 1 0
0 0 0 9 3200786139624 1 0
0 0 0 29 3200786141928 1 0
-19.310516 -48.3654 -1.2118235 10 3200786141928 1 0
-1.5764058 -3.4368277 -1.7631634 4 3200786162664 1 0
-25.351896 -73.46061 -1.3564708 27 3200786162664 1 0
-22.422665 -48.866398 -1.5647217 72 3200786164968 1 0
-3.7962475 -8.270104 -1.8199685 2 3200786167272 1 0
-2.3537982 -5.8705482 -1.770571 2 3200786164968 1 0
-20.36702 -50.775482 0 32 3200786167272 1 0
-24.217245 -46.59036 -0.61129653 85 3200786169576 1 0
-4.3820734 -10.920021 -1.8305864 6 3200786169576 1 0
-5.471129 -11.909686 -1.6682558 18 3200786171880 1 0
-30.883926 -89.321884 0.5492956 33 3200786171880 1 0
-22.455206 -48.862297 -0.31254148 88 3200786174184 1 0
-6.4564176 -16.075705 -1.866059 2 3200786174184 1 0
-9.884984 -18.996973 -1.9990411 1 3200786176488 1 0
-20.768234 -51.68867 1.2962222 21 3200786176488 1 0
-24.246193 -46.57981 0.61134315 45 3200786178792 1 0
-10.4046755 -22.614456 -2.032159 3 3200786181096 1 0
-30.397196 -87.74884 2.702627 34 3200786181096 1 0
-11.169009 -27.78612 -2.0940893 4 3200786178792 1 0
-31.657427 -68.78075 1.3216358 51 3200786183400 1 0
-10.92802 -31.531536 -2.13874 8 3200786183400 1 0
-17.168789 -32.94817 -2.1637018 10 3200786185704 1 0
-20.773214 -51.614246 3.2402039 70 3200786185704 1 0
-23.793833 -51.65628 2.3170583 46 3200786188008 1 0
-16.32668 -40.549118 -2.036202 7 3200786188008 1 0
-20.760206 -51.53864 6.822246 43 3200786190312 1 0
-23.866432 -51.774254 4.654048 25 3200786192616 1 0
-17.758583 -38.539036 -2.2238595 10 3200786190312 1 0
-12.619418 -36.34352 -1.5673932 6 3200786192616 1 0
0 0 0 9 3200786194920 1 0
-24.321135 -46.60786 -1.8358531 95 3200786194920 1 0
0 0 0 29 3200786197224 1 0
-19.435848 -48.190147 -1.2091249 10 3200786197224 1 0
-1.58687 -3.428014 -1.761473 3 3200786217960 1 0
-22.566221 -48.72978 -1.5628599 72 3200786220264 1 0
-2.375722 -5.865866 -1.7716492 4 3200786220264 1 0
0 0 0 7 3200786217960 1 0
-3.8267412 -8.260361 -1.820753 2 3200786222568 1 0
-20.515594 -50.633644 0 32 3200786222568 1 0
-4.4201646 -10.904657 -1.8305864 6 3200786224872 1 0
-24.415012 -46.57285 -0.6121813 64 3200786224872 1 0
-5.5276895 -11.9229145 -1.6728014 18 3200786227176 1 0
-30.980326 -88.59809 0.54550624 33 3200786227176 1 0
-22.595337 -48.7183 -0.312123 88 3200786229480 1 0
-4.987529 -12.294086 -1.429103 9 3200786229480 1 0
-9.949386 -18.958826 -1.9986693 1 3200786231784 1 0
-20.962069 -51.649208 1.2970597 21 3200786231784 1 0
-24.434666 -46.54447 0.61199504 45 3200786234088 1 0
-11.262931 -27.739569 -2.0935314 4 3200786234088 1 0
-10.481873 -22.574383 -2.0318336 3 3200786236392 1 0
-31.419802 -89.687416 2.7656953 32 3200786236392 1 0
-11.072347 -31.591145 -2.1453917 8 3200786238696 1 0
-31.87205 -68.61541 1.3205887 51 3200786238696 1 0
-17.274406 -32.87036 -2.162539 10 3200786241000 1 0
-20.971302 -51.58581 3.2429945 70 3200786241000 1 0
-24.011066 -51.65264 2.3206406 70 3200786243304 1 0
-16.474144 -40.506687 -2.0369465 7 3200786243304 1 0
-17.92332 -38.542007 -2.2276278 10 3200786245608 1 0
-20.9729 -51.54676 6.83297 44 3200786245608 1 0
-24.004972 -51.60026 4.645911 25 3200786247912 1 0
-16.661695 -47.449978 -2.048879 9 3200786247912 1 0
-24.519053 -46.589897 -1.8385055 75 3200786250216 1 0
0 0 0 29 3200786252520 1 0
0 0 0 9 3200786250216 1 0
-19.67938 -48.307182 -1.2137777 10 3200786252520 1 0
0 0 0 7 3200786273256 1 0
-1.597292 -3.4191694 -1.7597824 4 3200786273256 1 0
-22.707405 -48.58913 -1.5608817 71 3200786275560 1 0
-2.3932662 -5.8504076 -1.7694926 4 3200786275560 1 0
-3.8588743 -8.25406 -1.8223219 2 3200786277864 1 0
-20.66343 -50.491383 0 31 3200786277864 1 0
-24.629776 -46.586346 -0.6134851 36 3200786280168 1 0
-4.4596996 -10.892819 -1.8312014 5 3200786280168 1 0
-5.5860896 -11.939487 -1.6778522 16 3200786282472 1 0
-30.55467 -86.41152 0.5326968 35 3200786282472 1 0
-22.743216 -48.592037 -0.3118208 88 3200786284776 1 0
-5.025889 -12.265561 -1.4278178 8 3200786284776 1 0
-10.011777 -18.91694 -1.9979256 3 3200786287080 1 0
-21.204418 -51.72743 1.3008748 31 3200786287080 1 0
-24.640032 -46.540195 0.613066 45 3200786289384 1 0
-11.371803 -27.72962 -2.0957634 4 3200786289384 1 0
-10.565682 -22.548487 -2.03281 3 3200786291688 1 0
-31.692625 -89.46413 2.7622044 33 3200786291688 1 0
-31.182842 -66.522896 1.2824029 24 3200786293992 1 0
-11.182553 -31.552301 -2.1453917 8 3200786293992 1 0
-17.463839 -32.950996 -2.1718414 15 3200786296296 1 0
-24.233656 -51.65897 2.3247113 70 3200786298600 1 0
-21.192194 -51.61203 3.2492735 70 3200786296296 1 0
-16.624548 -40.47111 -2.0380633 7 3200786298600 1 0
-18.07302 -38.511753 -2.2295117 10 3200786300904 1 0
-21.184395 -51.550354 6.8432074 44 3200786300904 1 0
-24.24763 -51.64968 4.6579533 25 3200786303208 1 0
-16.930197 -47.681534 -2.0614166 9 3200786303208 1 0
-24.975761 -47.0584 -1.8604224 33 3200786305512 1 0
0 0 0 9 3200786305512 1 0
0 0 0 29 3200786307816 1 0
-19.978743 -48.55623 -1.2217802 10 3200786307816 1 0
-1.6076715 -3.410294 -1.7580919 3 3200786328552 1 0
0 0 0 7 3200786328552 1 0
-22.852999 -48.458942 -1.5592526 71 3200786330856 1 0
-2.4151442 -5.8455777 -1.770571 4 3200786330856 1 0
-3.8876626 -8.24054 -1.8223219 2 3200786333160 1 0
-20.827328 -50.389374 0 42 3200786333160 1 0
-25.115908 -47.10715 -0.6214942 22 3200786335464 1 0
-4.505247 -10.895449 -1.834276 5 3200786335464 1 0
-5.6395907 -11.945033 -1.6813877 16 3200786337768 1 0
-30.63662 -85.69041 0.5289074 35 3200786337768 1 0
-22.880238 -48.443634 -0.31137908 88 3200786340072 1 0
-5.0762773 -12.266317 -1.4299598 11 3200786340072 1 0
-10.0927515 -18.909986 -2.0008998 3 3200786342376 1 0
-24.851316 -46.54564 0.61427665 45 3200786344680 1 0
-21.39556 -51.67896 1.3015262 31 3200786342376 1 0
-11.470056 -27.693441 -2.0960426 4 3200786344680 1 0
-10.644327 -22.511469 -2.03281 3 3200786346984 1 0
-30.918032 -86.31906 2.6684165 35 3200786346984 1 0
-31.39263 -66.366646 1.2814953 24 3200786349288 1 0
-11.254918 -31.407856 -2.1382284 12 3200786349288 1 0
-21.39517 -51.59307 3.2527618 70 3200786351592 1 0
-17.593811 -32.91801 -2.1737018 15 3200786351592 1 0
-24.456581 -51.664375 2.328782 71 3200786353896 1 0
-16.78256 -40.45343 -2.0401106 7 3200786353896 1 0
-18.231276 -38.498974 -2.2324426 10 3200786356200 1 0
-21.391605 -51.542095 6.851982 44 3200786356200 1 0
-24.441427 -51.593548 4.660557 25 3200786358504 1 0
-17.251833 -48.054733 -2.080142 10 3200786358504 1 0
0 0 0 9 3200786360808 1 0
-25.18892 -47.06257 -1.8640519 22 3200786360808 1 0
0 0 0 29 3200786363112 1 0
-20.909231 -50.317814 -1.2679342 32 3200786363112 1 0
-1.6211232 -3.4079351 -1.7597824 3 3200786383296 1 0
0 0 0 7 3200786383296 1 0
-22.988667 -48.310616 -1.5570418 71 3200786385600 1 0
-2.4339664 -5.8335924 -1.7694926 4 3200786385600 1 0
-3.9144788 -8.223491 -1.8215374 2 3200786387904 1 0
-21.00317 -50.320667 0 100 3200786387904 1 0
-25.329273 -47.115414 -0.6227514 22 3200786390208 1 0
-4.542777 -10.879854 -1.834276 5 3200786390208 1 0
-5.6942096 -11.954264 -1.6854283 20 3200786392512 1 0
-29.996576 -83.00038 0.51293623 37 3200786392512 1 0
-23.021593 -48.314594 -0.31105363 88 3200786394816 1 0
-5.119706 -12.252564 -1.4303882 11 3200786394816 1 0
-10.1476145 -18.85799 -1.9990411 3 3200786397120 1 0
-21.575945 -51.61691 1.3018054 21 3200786397120 1 0
-25.058199 -46.552723 0.61548734 36 3200786399424 1 0
-11.602323 -27.746447 -2.1030183 4 3200786399424 1 0
-31.22137 -86.248085 2.6694639 35 3200786401728 1 0
-10.730525 -22.497013 -2.0347629 3 3200786401728 1 0
-30.61652 -64.16725 1.2410057 22 3200786404032 1 0
-11.398436 -31.474957 -2.1453917 8 3200786404032 1 0
-17.734137 -32.91522 -2.1774225 15 3200786406336 1 0
-21.595396 -51.587513 3.256948 47 3200786406336 1 0
-24.666407 -51.66198 2.3323643 71 3200786408640 1 0
-16.92955 -40.426792 -2.0415995 7 3200786408640 1 0
-18.364008 -38.44912 -2.2330706 10 3200786410944 1 0
-21.600758 -51.562424 6.864169 45 3200786410944 1 0
-24.688976 -51.674446 4.675203 51 3200786413248 1 0
-17.501707 -48.24924 -2.0910516 10 3200786413248 1 0
-25.390928 -47.067474 -1.8675419 22 3200786415552 1 0
0 0 0 9 3200786415552 1 0
0 0 0 29 3200786417856 1 0
-21.030478 -50.145863 -1.2653288 32 3200786417856 1 0
-1.633389 -3.406094 -1.761473 3 3200786438592 1 0
0 0 0 7 3200786438592 1 0
-23.116816 -48.187347 -1.5554127 71 3200786440896 1 0
-2.4523659 -5.8258815 -1.7694926 4 3200786440896 1 0
-3.9405332 -8.211038 -1.8215374 2 3200786443200 1 0
-21.12691 -50.169033 0 85 3200786443200 1 0
-25.526846 -47.122417 -0.6239155 22 3200786445504 1 0
-4.5804777 -10.872614 -1.8355057 5 3200786445504 1 0
-5.7513275 -11.9753275 -1.690984 18 3200786447808 1 0
-30.198912 -82.73113 0.51186687 37 3200786447808 1 0
-23.152521 -48.18987 -0.31072816 88 3200786450112 1 0
-5.1636987 -12.247039 -1.4316733 10 3200786450112 1 0
-10.221741 -18.849634 -2.0016434 3 3200786452416 1 0
-21.812433 -51.71278 1.3059927 32 3200786452416 1 0
-25.262459 -46.56965 0.6167911 36 3200786454720 1 0
-11.69846 -27.723375 -2.1041343 4 3200786454720 1 0
-31.492582 -86.11962 2.6686492 35 3200786457024 1 0
-10.8054905 -22.465528 -2.0350883 3 3200786457024 1 0
-30.644266 -63.688305 1.2336757 44 3200786459328 1 0
-11.501376 -31.437487 -2.1453917 8 3200786459328 1 0
-17.884157 -32.93395 -2.1825387 15 3200786461632 1 0
-21.800592 -51.600853 3.2622967 23 3200786461632 1 0
-24.878454 -51.666683 2.3362722 48 3200786463936 1 0
-17.098707 -40.45533 -2.0458806 7 3200786463936 1 0
-18.539948 -38.488777 -2.2389321 10 3200786466240 1 0
-24.871332 -51.61348 4.6771555 51 3200786468544 1 0
-17.799847 -48.565937 -2.1073346 10 3200786468544 1 0
-21.794819 -51.54536 6.871481 45 3200786466240 1 0
-25.60171 -47.08061 -1.8714507 22 3200786470848 1 0
0 0 0 9 3200786470848 1 0
0 0 0 29 3200786473152 1 0
-21.170776 -50.008636 -1.2636538 32 3200786473152 1 0
-1.6452686 -3.4003718 -1.761473 3 3200786493888 1 0
0 0 0 7 3200786493888 1 0
-23.260492 -48.055977 -1.5537837 84 3200786496192 1 0
-2.472687 -5.8172855 -1.7694926 4 3200786496192 1 0
-3.9708803 -8.200763 -1.8223219 2 3200786498496 1 0
-21.273727 -50.02872 0 85 3200786498496 1 0
-25.744865 -47.13131 -0.6252193 22 3200786500800 1 0
-4.616855 -10.852922 -1.8348908 5 3200786500800 1 0
-5.805207 -11.980174 -1.6945195 20 3200786503104 1 0
-30.349047 -82.249954 0.5095421 37 3200786503104 1 0
-23.289188 -48.04397 -0.3103097 88 3200786505408 1 0
-5.207975 -12.232598 -1.4321017 9 3200786505408 1 0
-10.283655 -18.80685 -2.0008998 1 3200786507712 1 0
-22.027285 -51.717266 1.3080399 32 3200786507712 1 0
-25.472849 -46.56891 0.61795527 45 3200786510016 1 0
-11.788905 -27.667688 -2.1030183 8 3200786510016 1 0
-10.887325 -22.434847 -2.0357392 3 3200786512320 1 0
-30.545351 -82.6339 2.5639234 38 3200786512320 1 0
-11.64012 -31.475773 -2.1507642 8 3200786514624 1 0
-30.688238 -63.21397 1.2265551 43 3200786514624 1 0
-18.00668 -32.885334 -2.183469 10 3200786516928 1 0
-22.06206 -51.715435 3.2743897 24 3200786516928 1 0
-25.1093 -51.683777 2.3409944 72 3200786519232 1 0
-17.255503 -40.432144 -2.0477417 7 3200786519232 1 0
-22.012028 -51.5566 6.8831806 45 3200786521536 1 0
-18.674185 -38.423824 -2.2389321 10 3200786521536 1 0
-25.11933 -51.66618 4.6898484 51 3200786523840 1 0
-18.02758 -48.660915 -2.1141734 10 3200786523840 1 0
-25.812023 -47.075077 -1.8748009 22 3200786526144 1 0
0 0 0 9 3200786526144 1 0
0 0 0 29 3200786528448 1 0
-21.316917 -49.868244 -1.2619789 32 3200786528448 1 0
-1.6571281 -3.394608 -1.761473 4 3200786549184 1 0
0 0 0 7 3200786549184 1 0
-23.398619 -47.913242 -1.5518055 84 3200786551488 1 0
-2.4945395 -5.8121405 -1.770571 4 3200786551488 1 0
-3.9996014 -8.186794 -1.8223219 2 3200786553792 1 0
-21.417395 -49.880337 0 85 3200786553792 1 0
-25.956566 -47.124672 -0.6263368 22 3200786556096 1 0
-4.6549473 -10.836638 -1.8348908 4 3200786556096 1 0
-5.8647666 -11.995315 -1.6995703 18 3200786558400 1 0
-30.357388 -81.389336 0.50486934 38 3200786558400 1 0
-23.435648 -47.914818 -0.31000748 88 3200786560704 1 0
-5.2353797 -12.177617 -1.4278178 20 3200786560704 1 0
-10.359674 -18.787827 -2.0027587 1 3200786563008 1 0
-22.20993 -51.639095 1.3080399 32 3200786563008 1 0
-11.891549 -27.636759 -2.1038551 8 3200786565312 1 0
-25.683979 -46.562458 0.6190728 45 3200786565312 1 0
-10.9738865 -22.410389 -2.037041 3 3200786567616 1 0
-30.57389 -81.817116 2.541931 38 3200786567616 1 0
-30.88469 -63.046974 1.2254381 21 3200786569920 1 0
-11.80929 -31.58748 -2.1612532 8 3200786569920 1 0
-18.12954 -32.831448 -2.1841667 5 3200786572224 1 0
-22.30782 -51.77952 3.2834594 48 3200786572224 1 0
-25.325352 -51.658386 2.3439252 73 3200786574528 1 0
-17.412415 -40.39963 -2.0492306 7 3200786574528 1 0
-18.836168 -38.406975 -2.241863 10 3200786576832 1 0
-22.230934 -51.557716 6.893905 45 3200786576832 1 0
-25.328987 -51.6259 4.6944046 25 3200786579136 1 0
-18.231363 -48.67457 -2.1175928 10 3200786579136 1 0
-26.039007 -47.086994 -1.8789889 22 3200786581440 1 0
0 0 0 9 3200786581440 1 0
0 0 0 29 3200786583744 1 0
-21.507387 -49.816887 -1.2626302 96 3200786583744 1 0
-1.6695588 -3.3885117 -1.761473 3 3200786604480 1 0
0 0 0 7 3200786604480 1 0
-23.548977 -47.777122 -1.5501764 84 3200786606784 1 0
-2.5203795 -5.813579 -1.7738059 5 3200786606784 1 0
-4.031196 -8.175656 -1.8231063 2 3200786609088 1 0
-21.573881 -49.7431 0 95 3200786609088 1 0
-26.17859 -47.120697 -0.6275475 22 3200786611392 1 0
-4.6975446 -10.8268585 -1.8361207 4 3200786611392 1 0
-5.9223905 -12.0023775 -1.7036109 20 3200786613696 1 0
-19.612524 -52.003662 0.32302615 25 3200786613696 1 0
-23.579271 -47.768486 -0.30961227 88 3200786616000 1 0
-5.2494392 -12.089229 -1.4196784 18 3200786616000 1 0
-22.436632 -51.650017 1.3103662 32 3200786618304 1 0
-10.4315195 -18.757145 -2.0035024 1 3200786618304 1 0
-25.908491 -46.570686 0.6204232 45 3200786620608 1 0
-11.986587 -27.58262 -2.1030183 8 3200786620608 1 0
-11.0564165 -22.374235 -2.0373664 3 3200786622912 1 0
-19.689903 -52.11699 1.62139 17 3200786622912 1 0
-25.66685 -51.921516 1.010983 26 3200786625216 1 0
-11.938444 -31.58584 -2.1640673 8 3200786625216 1 0
-18.259026 -32.787037 -2.1855621 5 3200786627520 1 0
-22.504845 -51.724678 3.2850873 24 3200786627520 1 0
-25.55647 -51.6604 2.3481588 73 3200786629824 1 0
-17.5699 -40.366253 -2.0507197 7 3200786629824 1 0
-18.99118 -38.375137 -2.2439566 10 3200786632128 1 0
-22.459642 -51.57977 6.907554 23 3200786632128 1 0
-25.582146 -51.674473 4.7070975 52 3200786634432 1 0
-18.447502 -48.72129 -2.1224775 10 3200786634432 1 0
-26.2592 -47.088177 -1.882758 22 3200786636736 1 0
0 0 0 9 3200786636736 1 0
0 0 0 29 3200786639040 1 0
-1.6813767 -3.382663 -1.761473 4 3200786659776 1 0
-21.65564 -49.674107 -1.2609552 100 3200786639040 1 0
-18.610502 -48.915325 -0.91352874 9 3200786659776 1 0
-23.690683 -47.64451 -1.5485473 70 3200786662080 1 0
-2.5391128 -5.801217 -1.7727276 5 3200786662080 1 0
-4.063204 -8.168559 -1.8246753 2 3200786664384 1 0
-21.72011 -49.6052 0 95 3200786664384 1 0
-26.405462 -47.140694 -0.62903756 22 3200786666688 1 0
-4.7384806 -10.8176365 -1.8373505 4 3200786666688 1 0
-5.9819326 -12.017154 -1.7086616 18 3200786668992 1 0
-19.801054 -51.953575 0.3231424 12 3200786668992 1 0
-23.719126 -47.63218 -0.30926356 79 3200786671296 1 0
-5.2963967 -12.081758 -1.4209636 15 3200786671296 1 0
-10.494983 -18.717144 -2.0031307 1 3200786673600 1 0
-22.650515 -51.64829 1.3123202 32 3200786673600 1 0
-26.117857 -46.563686 0.6215407 46 3200786675904 1 0
-12.041114 -27.445606 -2.0957634 12 3200786675904 1 0
-11.136229 -22.339073 -2.0376918 3 3200786678208 1 0
-31.055424 -81.34032 2.533902 38 3200786678208 1 0
-12.092782 -31.659575 -2.171998 8 3200786680512 1 0
-18.437878 -32.838005 -2.1932364 5 3200786682816 1 0
-22.706137 -51.693333 3.2881105 24 3200786682816 1 0
-25.78483 -51.66743 2.352555 74 3200786685120 1 0
-17.70909 -40.301018 -2.0505335 7 3200786685120 1 0
-31.266684 -62.697563 1.2229251 43 3200786680512 1 0
-19.173193 -38.405106 -2.2496088 10 3200786687424 1 0
-22.687483 -51.610092 6.9221787 23 3200786687424 1 0
-25.78018 -51.620525 4.710352 52 3200786689728 1 0
-18.627457 -48.68273 -2.1236174 10 3200786689728 1 0
-26.472387 -47.083344 -1.886248 22 3200786692032 1 0
0 0 0 9 3200786692032 1 0
0 0 0 29 3200786694336 1 0
-21.803127 -49.53965 -1.2594664 86 3200786694336 1 0
-1.698049 -3.3864954 -1.7665443 4 3200786715072 1 0
0 0 0 7 3200786715072 1 0
-23.832855 -47.515408 -1.5470346 69 3200786717376 1 0
-2.5592632 -5.7923555 -1.7727276 4 3200786717376 1 0
-4.0861783 -8.143928 -1.8223219 3 3200786719680 1 0
-21.857735 -49.45289 0 84 3200786719680 1 0
-26.599266 -47.10512 -0.6297826 22 3200786721984 1 0
-4.7741427 -10.797624 -1.8367356 4 3200786721984 1 0
-6.0409503 -12.032011 -1.7137123 17 3200786724288 1 0
-19.974955 -51.874104 0.32307267 38 3200786724288 1 0
-23.856657 -47.500786 -0.3089381 88 3200786726592 1 0
-5.3811083 -12.16178 -1.4325302 9 3200786726592 1 0
-22.86177 -51.65135 1.3143674 32 3200786728896 1 0
-10.558623 -18.681318 -2.0031307 1 3200786728896 1 0
-26.330622 -46.5724 0.6228445 46 3200786731200 1 0
-12.156671 -27.455723 -2.09967 12 3200786731200 1 0
-11.209753 -22.297806 -2.0373664 3 3200786733504 1 0
-41.871265 -108.56833 3.3864872 44 3200786733504 1 0
-31.392702 -62.42423 1.219644 43 3200786735808 1 0
-18.551558 -32.783092 -2.1937015 5 3200786738112 1 0
-12.21345 -31.65601 -2.1745563 8 3200786735808 1 0
-22.938807 -51.752163 3.296715 24 3200786738112 1 0
-26.005281 -51.677654 2.3569515 50 3200786740416 1 0
-17.904766 -40.380615 -2.0576062 7 3200786740416 1 0
-19.309425 -38.359154 -2.2506554 10 3200786742720 1 0
-22.918066 -51.668854 6.9402156 23 3200786742720 1 0
-26.02219 -51.67756 4.7233706 52 3200786745024 1 0
-19.450754 -50.33586 -2.1985188 10 3200786745024 1 0
-26.686127 -47.100414 -1.8904359 22 3200786747328 1 0
0 0 0 9 3200786747328 1 0
0 0 0 29 3200786749632 1 0
-21.935919 -49.40225 -1.2577915 85 3200786749632 1 0
-1.7054093 -3.374673 -1.7631634 4 3200786770368 1 0
0 0 0 7 3200786770368 1 0
-23.953838 -47.382862 -1.5451728 69 3200786772672 1 0
-2.575964 -5.780731 -1.7716492 4 3200786772672 1 0
-4.11552 -8.137931 -1.8238908 5 3200786774976 1 0
-21.99325 -49.335842 0 84 3200786774976 1 0
-26.798616 -47.10707 -0.6309467 15 3200786777280 1 0
-4.8085113 -10.782362 -1.8367356 4 3200786777280 1 0
-6.093753 -12.040943 -1.7177529 17 3200786779584 1 0
-20.035038 -51.53777 0.32137558 38 3200786779584 1 0
-23.980309 -47.36676 -0.30856612 79 3200786781888 1 0
-5.426656 -12.158948 -1.4342437 9 3200786781888 1 0
-23.065924 -51.661247 1.3165076 32 3200786784192 1 0
-26.53499 -46.58059 0.62410176 46 3200786786496 1 0
-12.234265 -27.390646 -2.0977166 16 3200786786496 1 0
-11.289547 -22.275393 -2.0386682 3 3200786788800 1 0
-20.13231 -51.698906 1.614641 26 3200786788800 1 0
-10.626771 -18.660973 -2.0046177 1 3200786784192 1 0
-12.314081 -31.608433 -2.1740446 8 3200786791104 1 0
-31.569689 -62.267654 1.2185968 43 3200786791104 1 0
-18.653282 -32.71153 -2.193004 5 3200786793408 1 0
-23.118574 -51.698357 3.2981105 49 3200786793408 1 0
-26.224583 -51.687748 2.361348 50 3200786795712 1 0
-18.054304 -40.357754 -2.0594676 7 3200786795712 1 0
-19.449177 -38.319843 -2.252121 10 3200786798016 1 0
-23.115227 -51.65055 6.948015 23 3200786798016 1 0
-26.219435 -51.64037 4.7279267 26 3200786800320 1 0
-19.669151 -50.401108 -2.204218 10 3200786800320 1 0
-25.019875 -43.817112 -1.7620058 28 3200786802624 1 0
0 0 0 9 3200786802624 1 0
0 0 0 29 3200786804928 1 0
-22.073977 -49.26623 -1.2562096 85 3200786804928 1 0
-1.7171787 -3.3686996 -1.7631634 4 3200786825664 1 0
-19.993807 -50.99198 -0.9560428 9 3200786825664 1 0
-24.035538 -47.13511 -1.5398202 27 3200786827968 1 0
-2.597707 -5.775217 -1.7727276 4 3200786827968 1 0
-22.130861 -49.182167 0 94 3200786830272 1 0
-4.142119 -8.120022 -1.8231063 4 3200786830272 1 0
-25.156075 -43.86283 -0.5886663 13 3200786832576 1 0
-4.8509865 -10.776323 -1.8385803 4 3200786832576 1 0
-6.1519833 -12.051406 -1.7222986 18 3200786834880 1 0
-20.043728 -51.03192 0.3186556 25 3200786834880 1 0
-24.052727 -47.101086 -0.3073805 29 3200786837184 1 0
-5.4739656 -12.150809 -1.4355289 9 3200786837184 1 0
-10.685897 -18.613401 -2.0035024 1 3200786839488 1 0
-23.280619 -51.65698 1.3184618 32 3200786839488 1 0
-25.247322 -43.962646 0.5902029 17 3200786841792 1 0
-12.347842 -27.387789 -2.100786 20 3200786841792 1 0
-11.36179 -22.225199 -2.0376918 3 3200786844096 1 0
-20.331682 -51.676685 1.6161537 26 3200786844096 1 0
-31.80324 -62.18912 1.2192252 21 3200786846400 1 0
-12.434574 -31.591257 -2.1758356 8 3200786846400 1 0
-18.777306 -32.66353 -2.1941667 5 3200786848704 1 0
0 0 0 9 3200786848704 1 0
-26.454008 -51.691956 2.3657444 76 3200786851008 1 0
-18.24769 -40.41102 -2.0654235 7 3200786851008 1 0
-19.59192 -38.2695 -2.2531676 10 3200786853312 1 0
-23.34278 -51.674477 6.962152 23 3200786853312 1 0
-26.517656 -51.779182 4.7490816 26 3200786855616 1 0
-19.644125 -49.82276 -2.1819103 10 3200786855616 1 0
0 0 0 235 3200786857920 1 0
0 0 0 9 3200786857920 1 0
0 0 0 29 3200786860224 1 0
-22.2178 -49.126938 -1.2546277 85 3200786860224 1 0
-20.174625 -50.929314 -0.9561824 29 3200786880960 1 0
-24.030529 -46.719902 -1.5289985 26 3200786883264 1 0
-2.6195266 -5.769583 -1.7738059 5 3200786883264 1 0
-1.7289273 -3.362685 -1.7631634 5 3200786880960 1 0
-4.170674 -8.105392 -1.8231063 5 3200786885568 1 0
-22.275711 -49.042057 0 84 3200786885568 1 0
-25.316948 -43.784035 -0.588806 19 3200786887872 1 0
-6.214696 -12.068303 -1.7278544 17 3200786890176 1 0
-4.889043 -10.759111 -1.8385803 4 3200786887872 1 0
-24.050053 -46.684387 -0.30521846 39 3200786892480 1 0
-20.19077 -50.874958 0.3181209 37 3200786890176 1 0
-5.518875 -12.134847 -1.4359572 8 3200786892480 1 0
-10.766392 -18.599178 -2.0061047 1 3200786894784 1 0
-23.510008 -51.671627 1.3209741 33 3200786894784 1 0
-25.373024 -43.816284 0.58945787 17 3200786897088 1 0
-12.4692955 -27.394096 -2.1046922 12 3200786897088 1 0
-11.4528475 -22.205332 -2.0396447 3 3200786899392 1 0
-20.544538 -51.66989 1.6182482 26 3200786899392 1 0
-31.956732 -61.934925 1.2165025 42 3200786901696 1 0
-12.599068 -31.672127 -2.1845338 4 3200786901696 1 0
-18.845879 -32.508667 -2.1883528 5 3200786904000 1 0
-23.512922 -51.590424 3.3018312 49 3200786904000 1 0
-26.69205 -51.690918 2.3701408 76 3200786906304 1 0
-18.444824 -40.4532 -2.0710073 8 3200786906304 1 0
-19.80172 -38.332294 -2.2611227 10 3200786908608 1 0
-23.56662 -51.66443 6.9723887 23 3200786908608 1 0
-26.748276 -51.75917 4.756242 26 3200786910912 1 0
-19.877636 -49.87637 -2.1874464 10 3200786910912 1 0
0 0 0 21 3200786913216 1 0
0 0 0 9 3200786913216 1 0
0 0 0 29 3200786915520 1 0
-22.373268 -48.985996 -1.2531388 85 3200786915520 1 0
-1.7384862 -3.3495862 -1.7597824 3 3200786936256 1 0
-20.329876 -50.751236 -0.9542976 29 3200786936256 1 0
-2.6367598 -5.7490172 -1.770571 4 3200786938560 1 0
-4.205146 -8.096402 -1.8246753 3 3200786940864 1 0
-24.20538 -46.620544 -1.5287658 53 3200786938560 1 0
-22.440746 -48.909554 0 84 3200786940864 1 0
-27.48816 -47.125275 -0.6351375 15 3200786943168 1 0
-6.2767577 -12.076403 -1.7324001 17 3200786945472 1 0
-20.360666 -50.742558 0.31777218 37 3200786945472 1 0
-24.24235 -46.6254 -0.3054277 87 3200786947776 1 0
-5.5711884 -12.128427 -1.4376708 10 3200786947776 1 0
-4.9347963 -10.751251 -1.840425 5 3200786943168 1 0
-10.8421335 -18.568964 -2.00722 3 3200786950080 1 0
-23.738802 -51.65935 1.3229283 33 3200786950080 1 0
0 0 0 86 3200786952384 1 0
-12.6049385 -27.419807 -2.110273 8 3200786952384 1 0
-11.529924 -22.151926 -2.0386682 3 3200786954688 1 0
-31.162968 -59.85075 1.177828 19 3200786956992 1 0
-20.763622 -51.659817 1.6203427 26 3200786954688 1 0
-12.781973 -31.788141 -2.1957903 8 3200786956992 1 0
-18.951738 -32.414696 -2.186725 5 3200786959296 1 0
-23.743418 -51.590267 3.3074126 49 3200786959296 1 0
-26.937483 -51.69868 2.3750255 51 3200786961600 1 0
-18.668753 -40.54838 -2.079383 8 3200786961600 1 0
-23.769108 -51.606556 6.976289 72 3200786963904 1 0
-19.93839 -38.252377 -2.260704 10 3200786963904 1 0
-26.953642 -51.692993 4.7591705 53 3200786966208 1 0
-20.35673 -50.541218 -2.2198493 21 3200786966208 1 0
0 0 0 21 3200786968512 1 0
0 0 0 9 3200786968512 1 0
0 0 0 29 3200786970816 1 0
-22.517036 -48.83202 -1.2512778 95 3200786970816 1 0
-1.751849 -3.346709 -1.761473 5 3200786991552 1 0
-20.479904 -50.613228 -0.953041 29 3200786991552 1 0
-24.412483 -46.620777 -1.5315584 40 3200786993856 1 0
-2.6616654 -5.750265 -1.7738059 3 3200786993856 1 0
-4.229742 -8.074725 -1.8231063 4 3200786996160 1 0
-22.581081 -48.765587 0 84 3200786996160 1 0
-25.460968 -43.30188 -0.58480144 58 3200786998464 1 0
-4.975618 -10.741133 -1.8416549 4 3200786998464 1 0
-6.3372965 -12.089563 -1.7374507 17 3200787000768 1 0
-20.507618 -50.59704 0.31730723 37 3200787000768 1 0
-24.453253 -46.6326 -0.30603212 78 3200787003072 1 0
-5.621854 -12.126946 -1.4398128 9 3200787003072 1 0
-10.902844 -18.52414 -2.0064766 1 3200787005376 1 0
-23.95936 -51.66324 1.3251616 33 3200787005376 1 0
-25.441511 -43.21123 0.583777 17 3200787007680 1 0
-12.727443 -27.433556 -2.1147373 8 3200787007680 1 0
-11.610885 -22.118603 -2.039319 3 3200787009984 1 0
-20.97691 -51.668526 1.6229028 27 3200787009984 1 0
-31.276867 -59.561024 1.1742678 19 3200787012288 1 0
-12.846291 -31.62868 -2.1878595 4 3200787012288 1 0
-19.087074 -32.386185 -2.189283 5 3200787014592 1 0
-23.962048 -51.59037 3.3127613 49 3200787014592 1 0
-27.167978 -51.69986 2.379422 78 3200787016896 1 0
-18.880894 -40.63516 -2.0872002 8 3200787016896 1 0
-20.071795 -38.182545 -2.260704 10 3200787019200 1 0
-23.974207 -51.577274 6.9836006 48 3200787019200 1 0
-27.209997 -51.743263 4.7725143 53 3200787021504 1 0
-20.53604 -50.477257 -2.220175 21 3200787021504 1 0
-27.802076 -47.110775 -1.9102589 23 3200787023808 1 0
0 0 0 9 3200787023808 1 0
-22.663734 -48.702366 -1.2499751 85 3200787026112 1 0
-1.7640457 -3.3443956 -1.7631634 5 3200787047296 1 0
0 0 0 29 3200787026112 1 0
-20.611597 -50.48199 -0.95178443 29 3200787047296 1 0
-24.872295 -47.13794 -1.5511073 28 3200787049600 1 0
-2.6797173 -5.7418747 -1.7738059 4 3200787049600 1 0
-4.2550883 -8.061397 -1.8231063 5 3200787051904 1 0
-22.705404 -48.63279 0 94 3200787051904 1 0
-27.90608 -47.120888 -0.6375588 15 3200787054208 1 0
-5.0043197 -10.714705 -1.8398101 4 3200787054208 1 0
-6.395632 -12.108189 -1.7430066 18 3200787056512 1 0
-20.660414 -50.51755 0.31721425 37 3200787056512 1 0
-24.928524 -47.177982 -0.3101237 29 3200787058816 1 0
-5.663292 -12.116431 -1.4406695 9 3200787058816 1 0
-10.956924 -18.482944 -2.005733 3 3200787061120 1 0
-24.15373 -51.65654 1.3269296 33 3200787061120 1 0
-12.830472 -27.429579 -2.1175275 8 3200787063424 1 0
-25.540415 -43.069168 0.5829389 25 3200787063424 1 0
-11.726917 -22.17012 -2.0474555 3 3200787065728 1 0
-21.173988 -51.687466 1.625579 27 3200787065728 1 0
-31.461958 -59.458935 1.1741979 19 3200787068032 1 0
-12.948619 -31.595552 -2.1883712 4 3200787068032 1 0
-19.21726 -32.374134 -2.1925387 5 3200787070336 1 0
-24.162954 -51.598015 3.3181102 49 3200787070336 1 0
-27.388243 -51.72375 2.3844697 52 3200787072640 1 0
-19.074568 -40.716755 -2.094459 8 3200787072640 1 0
-20.333752 -38.38757 -2.2766142 10 3200787074944 1 0
-24.179926 -51.595173 6.9962754 48 3200787074944 1 0
-27.402285 -51.71389 4.777722 54 3200787077248 1 0
-20.711212 -50.453163 -2.2219663 33 3200787077248 1 0
-28.00509 -47.115982 -1.914028 23 3200787079552 1 0
0 0 0 9 3200787079552 1 0
0 0 0 29 3200787081856 1 0
-22.791147 -48.576622 -1.2485793 85 3200787081856 1 0
-1.7808167 -3.3478193 -1.7682348 4 3200787102592 1 0
-20.757193 -50.33579 -0.95038825 28 3200787102592 1 0
-25.083641 -47.139076 -1.5540164 28 3200787104896 1 0
-2.6981027 -5.729001 -1.7727276 4 3200787104896 1 0
-4.288731 -8.056882 -1.8254597 4 3200787107200 1 0
-28.142149 -47.14339 -0.6391886 15 3200787109504 1 0
-22.849455 -48.49896 0 83 3200787107200 1 0
-5.048431 -10.7114725 -1.8422698 3 3200787109504 1 0
-6.460244 -12.127815 -1.7490674 18 3200787111808 1 0
-20.827465 -50.422943 0.31707478 50 3200787111808 1 0
-25.128794 -47.15775 -0.3105654 29 3200787114112 1 0
-5.707248 -12.100185 -1.4410979 9 3200787114112 1 0
-11.0663185 -18.5198 -2.013912 3 3200787116416 1 0
-24.378265 -51.665943 1.3293489 33 3200787116416 1 0
-27.8597 -46.608604 0.6321574 37 3200787118720 1 0
-12.938064 -27.409883 -2.1194806 8 3200787118720 1 0
-11.798605 -22.118498 -2.0464792 3 3200787121024 1 0
-21.380268 -51.67605 1.6275572 27 3200787121024 1 0
-31.584589 -59.18997 1.1710565 39 3200787123328 1 0
-13.064936 -31.564915 -2.1893945 4 3200787123328 1 0
-19.293245 -32.24518 -2.1883528 5 3200787125632 1 0
-24.392395 -51.618057 3.3248544 50 3200787125632 1 0
-27.63828 -51.758278 2.3904943 79 3200787127936 1 0
-19.228533 -40.675213 -2.0957618 8 3200787127936 1 0
-20.343409 -38.083817 -2.2627974 10 3200787130240 1 0
-24.398918 -51.593002 7.0074873 48 3200787130240 1 0
-27.654034 -51.75154 4.790089 54 3200787132544 1 0
-20.838219 -50.262417 -2.2167556 32 3200787132544 1 0
-28.233076 -47.124245 -1.9183556 23 3200787134848 1 0
0 0 0 9 3200787134848 1 0
0 0 0 29 3200787137152 1 0
-22.92806 -48.428097 -1.2468113 84 3200787137152 1 0
-1.7924919 -3.3415825 -1.7682348 4 3200787157888 1 0
-20.903557 -50.19288 -0.9490619 28 3200787157888 1 0
-25.30286 -47.1534 -1.5573908 28 3200787160192 1 0
-2.7230442 -5.729985 -1.7759625 4 3200787160192 1 0
-4.314974 -8.038406 -1.8246753 4 3200787162496 1 0
-22.991129 -48.361103 0 83 3200787162496 1 0
-28.384897 -47.175102 -0.640958 15 3200787164800 1 0
-5.0840926 -10.690216 -1.8416549 5 3200787164800 1 0
-6.5194383 -12.136651 -1.7536131 18 3200787167104 1 0
-20.977169 -50.287178 0.31667957 37 3200787167104 1 0
-25.338692 -47.15431 -0.31112337 29 3200787169408 1 0
-5.7460327 -12.073008 -1.4402411 10 3200787169408 1 0
-11.132952 -18.48447 -2.014284 3 3200787171712 1 0
-24.60316 -51.674408 1.3317683 33 3200787171712 1 0
-28.080019 -46.607 0.6334612 37 3200787174016 1 0
-13.030231 -27.35735 -2.1189227 8 3200787174016 1 0
-11.887073 -22.098244 -2.0484319 3 3200787176320 1 0
-21.597517 -51.689644 1.6303499 27 3200787176320 1 0
-31.764477 -59.030052 1.1700791 19 3200787178624 1 0
-13.221223 -31.629608 -2.1970694 4 3200787178624 1 0
-19.448992 -32.249443 -2.1932364 5 3200787180928 1 0
