# .PCD v.7 - Point Cloud Data file format
VERSION .7
FIELDS x y z rgb timestamp_ns device_id active
SIZE 4 4 4 4 8 1 1
TYPE F F F F F U U
COUNT 1 1 1 1 1 1 1
WIDTH 1026
HEIGHT 1
VIEWPOINT 0 0 0 1 0 0 0
POINTS 1026               
DATA ascii
8.884352 -5.1092443 -1.5944611 6 3200463406096 1 0
10.62717 -6.8251414 -1.6076471 3 3200463408400 1 0
41.78215 -21.39021 0.27281123 18 3200463408400 1 0
39.000763 -25.05487 -0.26941708 8 3200463410704 1 0
13.623422 -9.726463 -1.5625757 3 3200463413008 1 0
45.824524 -26.376883 1.230341 28 3200463413008 1 0
12.236984 -7.041552 -1.5207781 3 3200463410704 1 0
42.03408 -30.018608 0.6013318 8 3200463415312 1 0
18.196056 -10.476934 -1.4682343 3 3200463415312 1 0
15.620036 -10.043291 -1.5159829 4 3200463417616 1 0
51.567135 -26.43368 1.6864364 28 3200463417616 1 0
42.05009 -27.044933 0.87269014 9 3200463419920 1 0
19.852419 -10.179773 -1.4298347 5 3200463419920 1 0
20.142103 -14.396415 -1.4418477 3 3200463422224 1 0
45.375397 -26.150002 3.049973 19 3200463422224 1 0
40.391247 -25.992981 1.9568803 10 3200463424528 1 0
24.91354 -14.362106 -1.339538 4 3200463424528 1 0
23.518255 -15.139058 -1.4658254 4 3200463426832 1 0
0 0 0 1 3200463426832 1 0
45.19456 -29.100796 4.388149 43 3200463429136 1 0
29.688414 -21.243063 -1.2748088 6 3200463431440 1 0
24.009844 -12.327467 -1.099585 3 3200463429136 1 0
0 0 0 9 3200463431440 1 0
0 0 0 29 3200463433744 1 0
0 0 0 3 3200463433744 1 0
0 0 0 8 3200463454480 1 0
23.986984 -12.3594055 -0.47100556 3 3200463454480 1 1
0 0 0 1 3200463456784 1 0
6.917536 -4.471445 -1.6473852 1 3200463459088 1 0
35.456154 -22.910559 -1.2285514 17 3200463456784 1 0
0 0 0 31 3200463459088 1 0
0 0 0 28 3200463461392 1 0
8.864388 -5.1359224 -1.5938462 6 3200463461392 1 0
41.815323 -21.579416 0.27348542 18 3200463463696 1 0
10.611541 -6.864038 -1.6086571 3 3200463463696 1 0
38.901405 -25.172068 -0.26930082 8 3200463466000 1 0
12.220654 -7.085727 -1.5216348 3 3200463466000 1 0
13.600793 -9.778562 -1.563691 3 3200463468304 1 0
45.411644 -26.340094 1.221594 28 3200463468304 1 0
37.783596 -27.17444 0.54182255 7 3200463470608 1 0
18.185066 -10.551764 -1.4701874 3 3200463470608 1 0
15.612826 -10.11328 -1.5185865 4 3200463472912 1 0
51.555786 -26.647923 1.6889964 28 3200463472912 1 0
41.61881 -26.968227 0.8656394 9 3200463475216 1 0
20.086088 -14.460801 -1.4413826 6 3200463477520 1 0
19.828295 -10.25278 -1.4306022 5 3200463475216 1 0
51.33493 -29.819696 3.4574113 55 3200463477520 1 0
40.079704 -25.989128 1.9461336 10 3200463479824 1 0
23.458565 -15.216713 -1.4654068 4 3200463482128 1 0
0 0 0 1 3200463482128 1 0
24.905132 -14.47235 -1.3417715 4 3200463479824 1 0
23.838543 -12.345732 -1.0937232 3 3200463484432 1 0
45.208908 -29.335642 4.39954 43 3200463484432 1 0
29.635538 -21.364653 -1.275786 6 3200463486736 1 0
0 0 0 9 3200463486736 1 0
0 0 0 29 3200463489040 1 0
23.543985 -13.701551 -0.63387406 6 3200463489040 1 1
0 0 0 8 3200463509776 1 0
23.804522 -12.3812895 -0.46835276 3 3200463509776 1 1
35.35151 -23.035103 -1.2279696 17 3200463512080 1 0
0 0 0 1 3200463512080 1 0
6.903733 -4.499914 -1.6481698 2 3200463514384 1 0
0 0 0 3 3200463514384 1 0
0 0 0 28 3200463516688 1 0
8.84824 -5.17153 -1.5944611 7 3200463516688 1 0
10.592155 -6.9084525 -1.6096673 4 3200463518992 1 0
41.832752 -21.789125 0.27413633 19 3200463518992 1 0
12.200741 -7.1357274 -1.5224917 3 3200463521296 1 0
38.56846 -25.16325 -0.26765025 7 3200463521296 1 0
13.560779 -9.827192 -1.5633192 3 3200463523600 1 0
45.347 -26.530508 1.2225245 18 3200463523600 1 0
40.878036 -29.632463 0.58778155 8 3200463525904 1 0
18.142054 -10.617649 -1.4699084 5 3200463525904 1 0
15.585077 -10.177882 -1.519563 4 3200463528208 1 0
51.544834 -26.885925 1.6919055 28 3200463528208 1 0
45.285305 -29.583101 0.9441752 23 3200463530512 1 0
19.804289 -10.333635 -1.4316256 5 3200463530512 1 0
20.051922 -14.548976 -1.442778 6 3200463532816 1 0
45.41184 -26.603918 3.0650892 20 3200463532816 1 0
24.862051 -14.569957 -1.3423299 4 3200463535120 1 0
39.77973 -26.00304 1.9362011 10 3200463535120 1 0
23.419352 -15.31352 -1.4664536 4 3200463537424 1 0
46.501762 -27.260607 6.61848 19 3200463537424 1 0
45.238304 -29.589964 4.4128838 43 3200463539728 1 0
23.736637 -12.403061 -1.091118 3 3200463539728 1 0
29.57383 -21.484016 -1.276484 6 3200463542032 1 0
0 0 0 9 3200463542032 1 0
0 0 0 29 3200463544336 1 0
23.59078 -13.843396 -0.6364795 3 3200463544336 1 1
0 0 0 8 3200463565072 1 0
35.27757 -23.16275 -1.2282023 17 3200463567376 1 0
23.72574 -12.445729 -0.46765468 6 3200463565072 1 1
0 0 0 1 3200463567376 1 0
42.67623 -25.134878 0 9 3200463569680 1 0
6.8847046 -4.521832 -1.6473852 2 3200463569680 1 0
36.522808 -26.637772 -0.5262701 5 3200463571984 1 0
10.567976 -6.9453835 -1.6096673 3 3200463574288 1 0
8.83354 -5.204391 -1.595076 7 3200463571984 1 0
41.848507 -21.983381 0.2747408 28 3200463574288 1 0
12.175757 -7.1782727 -1.5224917 3 3200463576592 1 0
13.53926 -9.883862 -1.5648063 3 3200463578896 1 0
45.498676 -26.832867 1.2291312 9 3200463578896 1 0
40.709747 -29.727797 0.5868503 8 3200463581200 1 0
18.132374 -10.697132 -1.4721407 5 3200463581200 1 0
15.559445 -10.238796 -1.5205393 4 3200463583504 1 0
51.560368 -27.123392 1.6955127 18 3200463583504 1 0
45.248573 -29.784975 0.94557136 34 3200463585808 1 0
38.28653 -25.17028 -0.26630187 7 3200463576592 1 0
19.778696 -10.408279 -1.4323931 5 3200463585808 1 0
20.09773 -14.689573 -1.4497546 6 3200463588112 1 0
45.20523 -26.695265 3.0574148 19 3200463588112 1 0
39.495136 -26.01423 1.926757 10 3200463590416 1 0
24.828243 -14.666815 -1.3432605 4 3200463590416 1 0
23.392439 -15.412758 -1.4681282 4 3200463592720 1 0
46.307198 -27.364187 6.6043434 19 3200463592720 1 0
23.587126 -12.429943 -1.086233 3 3200463595024 1 0
29.51156 -21.596561 -1.2770424 6 3200463597328 1 0
45.181343 -29.77841 4.41744 44 3200463595024 1 0
0 0 0 29 3200463599632 1 0
0 0 0 9 3200463597328 1 0
30.728914 -18.17665 -0.83077323 10 3200463599632 1 1
0 0 0 8 3200463620368 1 0
23.6468 -12.509769 -0.4669566 6 3200463620368 1 1
35.06662 -23.199457 -1.2236642 17 3200463622672 1 0
0 0 0 1 3200463622672 1 0
6.8722153 -4.5479016 -1.6481698 2 3200463624976 1 0
42.722744 -25.362707 0 9 3200463624976 1 0
0 0 0 42 3200463627280 1 0
8.808637 -5.2309656 -1.5938462 7 3200463627280 1 0
10.5504875 -6.986305 -1.6106775 3 3200463629584 1 0
49.587208 -26.268003 0.32614136 13 3200463629584 1 0
38.019283 -25.183105 -0.2650465 7 3200463631888 1 0
12.161146 -7.226383 -1.5237768 3 3200463631888 1 0
44.972786 -26.73209 1.2174066 18 3200463634192 1 0
13.514736 -9.937551 -1.5659217 3 3200463634192 1 0
40.17872 -29.552458 0.58065724 8 3200463636496 1 0
18.098902 -10.761478 -1.4724196 5 3200463636496 1 0
15.530855 -10.29655 -1.5211902 4 3200463638800 1 0
51.541138 -27.339558 1.6979563 18 3200463638800 1 0
45.25295 -30.010519 0.9478053 23 3200463641104 1 0
19.757034 -10.483448 -1.4334164 5 3200463641104 1 0
20.053837 -14.762915 -1.4502198 6 3200463643408 1 0
44.87352 -26.70666 3.041136 39 3200463643408 1 0
39.199707 -26.011774 1.9166616 10 3200463645712 1 0
24.771208 -14.747322 -1.3428882 4 3200463645712 1 0
23.33652 -15.490073 -1.4679189 4 3200463648016 1 0
0 0 0 1 3200463648016 1 0
45.216125 -30.022093 4.4307837 44 3200463650320 1 0
23.527128 -12.5006 -1.0854189 3 3200463650320 1 0
29.502563 -21.743881 -1.2798344 6 3200463652624 1 0
0 0 0 9 3200463652624 1 0
0 0 0 29 3200463654928 1 0
0 0 0 8 3200463654928 1 0
0 0 0 8 3200463675664 1 0
0 0 0 29 3200463675664 1 0
34.93942 -23.282612 -1.2219188 17 3200463677968 1 0
0 0 0 1 3200463677968 1 0
6.85703 -4.5707655 -1.6481698 2 3200463680272 1 0
32.880856 -24.326113 -0.47616687 18 3200463682576 1 0
42.741016 -25.566463 0 9 3200463680272 1 0
8.808085 -5.2704864 -1.5969207 19 3200463682576 1 0
10.530359 -7.0237617 -1.6111826 3 3200463684880 1 0
49.56257 -26.467651 0.3265598 13 3200463684880 1 0
37.768276 -25.19942 -0.26388413 7 3200463687184 1 0
13.478071 -9.980531 -1.5655499 3 3200463689488 1 0
12.136851 -7.2671127 -1.5237768 3 3200463687184 1 0
45.623734 -27.326876 1.237506 9 3200463689488 1 0
0 0 0 6 3200463691792 1 0
18.07968 -10.832611 -1.4738147 5 3200463691792 1 0
15.509285 -10.357753 -1.522492 4 3200463694096 1 0
51.54379 -27.564226 1.7010981 18 3200463694096 1 0
45.247646 -30.2278 0.94982976 35 3200463696400 1 0
19.767227 -10.5746765 -1.4367422 3 3200463696400 1 0
20.010107 -14.835546 -1.4506849 6 3200463698704 1 0
44.467697 -26.669619 3.0197408 57 3200463698704 1 0
24.727835 -14.835474 -1.3432605 4 3200463701008 1 0
23.286985 -15.571628 -1.4681282 4 3200463703312 1 0
38.8852 -25.993715 1.9055892 10 3200463701008 1 0
45.15308 -27.09854 6.4659 17 3200463703312 1 0
45.15986 -30.207167 4.43534 44 3200463705616 1 0
23.449127 -12.561896 -1.0837907 3 3200463705616 1 0
29.440912 -21.854122 -1.2803928 6 3200463707920 1 0
0 0 0 9 3200463707920 1 0
0 0 0 29 3200463710224 1 0
0 0 0 3 3200463710224 1 0
0 0 0 8 3200463730960 1 0
23.5294 -12.653389 -0.4663283 9 3200463730960 1 1
0 0 0 1 3200463733264 1 0
34.89462 -23.428694 -1.2231988 17 3200463733264 1 0
6.8410997 -4.5945735 -1.6481698 2 3200463735568 1 0
42.011303 -25.328672 0 9 3200463735568 1 0
32.671196 -24.346815 -0.47435087 22 3200463737872 1 0
8.769443 -5.288761 -1.5932313 66 3200463737872 1 0
10.509276 -7.062384 -1.6116877 3 3200463740176 1 0
49.597435 -26.707329 0.32739672 26 3200463740176 1 0
37.63121 -25.29626 -0.2635354 7 3200463742480 1 0
12.111676 -7.3089933 -1.5237768 3 3200463742480 1 0
13.45955 -10.0388365 -1.5674088 3 3200463744784 1 0
45.59089 -27.521177 1.2391809 9 3200463744784 1 0
0 0 0 43 3200463747088 1 0
18.052557 -10.900925 -1.4746518 5 3200463747088 1 0
15.476949 -10.413153 -1.5228175 4 3200463749392 1 0
51.529816 -27.78463 1.7037745 18 3200463749392 1 0
42.34351 -28.497929 0.89091045 20 3200463751696 1 0
19.734406 -10.644217 -1.436998 3 3200463751696 1 0
19.972082 -14.913409 -1.4516151 6 3200463754000 1 0
44.174652 -26.699581 3.0060198 56 3200463754000 1 0
38.9024 -26.197626 1.9107997 10 3200463756304 1 0
23.22723 -15.646328 -1.4677095 4 3200463758608 1 0
24.680511 -14.921793 -1.3434466 4 3200463756304 1 0
45.195873 -30.453928 4.4490094 44 3200463760912 1 0
23.413363 -12.645259 -1.0841163 3 3200463760912 1 0
45.125137 -27.291092 6.475162 17 3200463758608 1 0
29.411507 -21.987278 -1.2823471 13 3200463763216 1 0
0 0 0 9 3200463763216 1 0
0 0 0 29 3200463765520 1 0
36.799026 -22.27641 -1.0009664 14 3200463765520 1 0
0 0 0 8 3200463786256 1 0
23.51544 -12.746593 -0.4668868 6 3200463786256 1 1
34.770195 -23.513176 -1.2215697 17 3200463788560 1 0
0 0 0 1 3200463788560 1 0
6.8290076 -4.619531 -1.6489542 2 3200463790864 1 0
42.036106 -25.534912 0 9 3200463790864 1 0
32.455383 -24.354906 -0.47239515 30 3200463793168 1 0
8.738229 -5.3097935 -1.5907717 81 3200463793168 1 0
10.488878 -7.099725 -1.6121926 3 3200463795472 1 0
49.550003 -26.89599 0.3276757 26 3200463795472 1 0
37.301098 -25.256325 -0.2618151 7 3200463797776 1 0
12.087105 -7.3495564 -1.5237768 4 3200463797776 1 0
13.470329 -10.117486 -1.5726136 3 3200463800080 1 0
0 0 0 8 3200463800080 1 0
38.35705 -28.818485 0.55853915 15 3200463802384 1 0
18.036205 -10.974091 -1.476326 5 3200463802384 1 0
15.458224 -10.4765005 -1.5244448 4 3200463804688 1 0
51.481438 -27.983171 1.7052871 18 3200463804688 1 0
42.319725 -28.690327 0.8924463 20 3200463806992 1 0
19.712326 -10.718516 -1.4380213 3 3200463806992 1 0
19.915045 -14.976205 -1.45115 6 3200463809296 1 0
43.759922 -26.6518 2.983927 55 3200463809296 1 0
38.661064 -26.226383 1.9033096 10 3200463811600 1 0
24.619455 -14.999289 -1.3428882 4 3200463811600 1 0
23.200287 -15.743233 -1.4693843 4 3200463813904 1 0
44.906555 -27.368065 6.457125 17 3200463813904 1 0
45.21709 -30.692984 4.4613767 45 3200463816208 1 0
23.46487 -12.776644 -1.0885127 3 3200463816208 1 0
29.431992 -22.159811 -1.286535 13 3200463818512 1 0
0 0 0 9 3200463818512 1 0
0 0 0 29 3200463820816 1 0
36.77372 -22.433561 -1.0023621 14 3200463820816 1 0
23.509405 -12.849699 -0.46765468 6 3200463841552 1 1
0 0 0 8 3200463841552 1 0
34.707733 -23.647911 -1.2222679 17 3200463843856 1 0
0 0 0 1 3200463843856 1 0
6.806359 -4.6389227 -1.6473852 2 3200463846160 1 0
32.299973 -24.414988 -0.47137073 4 3200463848464 1 0
44.191425 -27.055792 0 9 3200463846160 1 0
8.723011 -5.3423276 -1.5913866 101 3200463848464 1 0
10.473866 -7.1430016 -1.6137079 3 3200463850768 1 0
37.32175 -25.460762 -0.26258227 15 3200463853072 1 0
49.58564 -27.139847 0.32853585 13 3200463850768 1 0
12.054595 -7.3875475 -1.52292 3 3200463853072 1 0
13.441282 -10.1692505 -1.5733572 3 3200463855376 1 0
45.888813 -28.13172 1.2524874 9 3200463855376 1 0
32.952335 -24.938236 0.48110268 5 3200463857680 1 0
18.011395 -11.045326 -1.4774421 5 3200463857680 1 0
15.4314375 -10.537141 -1.5254211 4 3200463859984 1 0
45.415882 -24.89195 1.5072387 8 3200463859984 1 0
39.332924 -26.866323 0.83143264 9 3200463862288 1 0
19.695791 -10.798774 -1.4395562 3 3200463862288 1 0
19.859465 -15.04322 -1.4509174 6 3200463864592 1 0
43.455624 -26.67487 2.9695086 54 3200463864592 1 0
38.49009 -26.30705 1.8994017 10 3200463866896 1 0
24.597593 -15.103952 -1.3445634 4 3200463866896 1 0
23.151787 -15.8286295 -1.469803 4 3200463869200 1 0
0 0 0 1 3200463869200 1 0
45.162327 -30.886642 4.466584 45 3200463871504 1 0
23.47268 -12.887325 -1.0909551 3 3200463871504 1 0
0 0 0 9 3200463873808 1 0
0 0 0 29 3200463876112 1 0
36.688374 -22.5576 -1.002176 14 3200463876112 1 0
25.748856 -19.527924 -1.1285101 10 3200463873808 1 0
0 0 0 8 3200463897296 1 0
23.49243 -12.947127 -0.46821317 3 3200463897296 1 1
34.61838 -23.764393 -1.2220352 17 3200463899600 1 0
0 0 0 1 3200463899600 1 0
6.803058 -4.671534 -1.6505231 2 3200463901904 1 0
41.033024 -25.319433 0 8 3200463901904 1 0
32.080894 -24.425823 -0.46941504 4 3200463904208 1 0
8.70431 -5.372744 -1.5913866 79 3200463904208 1 0
10.448869 -7.1795187 -1.6137079 3 3200463906512 1 0
45.29868 -24.999338 0.3007084 11 3200463906512 1 0
37.272205 -25.618073 -0.26286122 7 3200463908816 1 0
12.038885 -7.4358506 -1.5242052 3 3200463908816 1 0
13.415207 -10.22335 -1.5744725 3 3200463911120 1 0
45.388905 -28.043705 1.2415073 19 3200463911120 1 0
32.677414 -24.910046 0.47835538 5 3200463913424 1 0
17.979519 -11.112326 -1.4780002 5 3200463913424 1 0
15.401131 -10.595461 -1.526072 4 3200463915728 1 0
51.235832 -28.314821 1.703658 9 3200463915728 1 0
39.054405 -26.87649 0.8275233 26 3200463918032 1 0
19.66147 -10.8693905 -1.4398122 3 3200463918032 1 0
19.806833 -15.112451 -1.4509174 6 3200463920336 1 0
43.06001 -26.639414 2.948811 53 3200463920336 1 0
38.19394 -26.300709 1.8893063 10 3200463922640 1 0
24.561708 -15.200235 -1.3454939 4 3200463922640 1 0
23.083235 -15.900284 -1.4689656 4 3200463924944 1 0
45.188835 -31.136843 4.479928 45 3200463927248 1 0
0 0 0 1 3200463924944 1 0
23.455524 -12.984668 -1.0922577 3 3200463927248 1 0
25.534405 -19.506054 -1.1220887 14 3200463929552 1 0
0 0 0 9 3200463929552 1 0
0 0 0 29 3200463931856 1 0
36.595814 -22.677103 -1.0018039 14 3200463931856 1 0
23.46807 -13.040708 -0.468632 3 3200463952592 1 1
0 0 0 8 3200463952592 1 0
34.538506 -23.887363 -1.2221515 8 3200463954896 1 0
0 0 0 1 3200463954896 1 0
6.7802587 -4.6907897 -1.6489542 2 3200463957200 1 0
41.015724 -25.50687 0 8 3200463957200 1 0
0 0 0 54 3200463959504 1 0
8.705639 -5.4156213 -1.595076 21 3200463959504 1 0
10.423744 -7.215948 -1.6137079 3 3200463961808 1 0
44.550537 -24.78972 0.2963146 11 3200463961808 1 0
12.002727 -7.471524 -1.52292 4 3200463964112 1 0
13.385757 -10.274965 -1.575216 3 3200463966416 1 0
37.31409 -25.839108 -0.26379114 7 3200463964112 1 0
42.98241 -26.764605 1.1782315 8 3200463966416 1 0
32.479225 -24.938704 0.47672564 5 3200463968720 1 0
17.947393 -11.179237 -1.4785582 3 3200463968720 1 0
15.377159 -10.658241 -1.5273739 4 3200463971024 1 0
38.76315 -26.875925 0.82333475 26 3200463973328 1 0
51.189075 -28.522686 1.7054034 18 3200463971024 1 0
19.637356 -10.94573 -1.4408355 3 3200463973328 1 0
19.760292 -15.186363 -1.4513825 6 3200463975632 1 0
42.756668 -26.65857 2.9343927 52 3200463975632 1 0
37.898304 -26.292622 1.879211 10 3200463977936 1 0
24.569527 -15.32394 -1.3488442 4 3200463977936 1 0
23.103071 -16.033144 -1.4737805 4 3200463980240 1 0
0 0 0 1 3200463980240 1 0
45.223972 -31.394424 4.494248 46 3200463982544 1 0
23.546162 -13.142431 -1.0986081 3 3200463982544 1 0
25.329927 -19.490242 -1.1160859 4 3200463984848 1 0
0 0 0 9 3200463984848 1 0
0 0 0 29 3200463987152 1 0
36.53 -22.81318 -1.002176 14 3200463987152 1 0
0 0 0 8 3200464007888 1 0
23.51312 -13.173372 -0.47044706 3 3200464007888 1 1
34.45474 -24.008032 -1.2221515 8 3200464010192 1 0
0 0 0 1 3200464010192 1 0
6.7669926 -4.7167697 -1.6497387 2 3200464012496 1 0
42.69868 -26.76147 0 9 3200464012496 1 0
0 0 0 100 3200464014800 1 0
0 0 0 13 3200464014800 1 0
44.135098 -24.762398 0.29412934 11 3200464017104 1 0
10.40479 -7.2571325 -1.6147181 3 3200464017104 1 0
38.131397 -26.604542 -0.27023074 8 3200464019408 1 0
11.9763 -7.513811 -1.52292 4 3200464019408 1 0
13.343058 -10.317337 -1.5744725 3 3200464021712 1 0
42.664 -26.776049 1.17209 8 3200464021712 1 0
17.931345 -11.257581 -1.4805114 5 3200464024016 1 0
32.251495 -24.9459 0.47467682 5 3200464024016 1 0
51.216503 -28.776634 1.7097088 19 3200464026320 1 0
15.352312 -10.721876 -1.5286757 4 3200464026320 1 0
19.622667 -11.029184 -1.4426262 3 3200464028624 1 0
38.473896 -26.878464 0.81921595 26 3200464028624 1 0
19.72184 -15.268904 -1.4525453 6 3200464030928 1 0
37.637123 -26.310991 1.8709066 9 3200464033232 1 0
42.370636 -26.628025 2.914393 51 3200464030928 1 0
24.514654 -15.4115715 -1.3488442 4 3200464033232 1 0
23.052105 -16.120281 -1.4741992 4 3200464035536 1 0
45.150326 -31.583782 4.4981537 46 3200464037840 1 0
0 0 0 1 3200464035536 1 0
23.652138 -13.313022 -1.1057726 3 3200464037840 1 0
25.104933 -19.461103 -1.1092457 4 3200464040144 1 0
0 0 0 9 3200464040144 1 0
0 0 0 29 3200464042448 1 0
36.43749 -22.93814 -1.001897 14 3200464042448 1 0
0 0 0 8 3200464063184 1 0
23.516909 -13.288977 -0.4714942 3 3200464063184 1 1
34.229435 -24.037146 -1.2172643 8 3200464065488 1 0
6.7497973 -4.741344 -1.6497387 2 3200464067792 1 0
0 0 0 1 3200464065488 1 0
42.333946 -26.747763 0 9 3200464067792 1 0
24.907078 -19.385267 -0.36743915 71 3200464070096 1 1
8.703535 -5.5008173 -1.60184 22 3200464070096 1 0
10.385038 -7.2991786 -1.6157281 3 3200464072400 1 0
43.826168 -24.797337 0.29266474 11 3200464072400 1 0
37.626556 -26.453789 -0.26732478 7 3200464074704 1 0
11.949229 -7.556787 -1.52292 3 3200464074704 1 0
13.328051 -10.382144 -1.577075 3 3200464077008 1 0
42.368534 -26.802391 1.1666 8 3200464077008 1 0
32.222343 -25.107374 0.47556153 5 3200464079312 1 0
17.901232 -11.327806 -1.4813485 5 3200464079312 1 0
15.323946 -10.783174 -1.5296521 4 3200464081616 1 0
51.18363 -28.99763 1.7120361 9 3200464081616 1 0
38.195515 -26.88536 0.8153066 26 3200464083920 1 0
19.60093 -11.108308 -1.4439054 3 3200464083920 1 0
42.06412 -26.642384 2.899742 50 3200464086224 1 0
19.661676 -15.333313 -1.4520801 6 3200464086224 1 0
37.371483 -26.320782 1.8622767 9 3200464088528 1 0
24.457108 -15.495267 -1.3486581 4 3200464088528 1 0
23.00549 -16.20755 -1.4748273 4 3200464090832 1 0
0 0 0 1 3200464090832 1 0
45.173878 -31.834696 4.5114975 46 3200464093136 1 0
23.821232 -13.517453 -1.115868 7 3200464093136 1 0
24.801096 -19.363382 -1.0987757 4 3200464095440 1 0
0 0 0 9 3200464095440 1 0
36.36158 -23.065746 -1.00199 14 3200464097744 1 0
0 0 0 29 3200464097744 1 0
0 0 0 8 3200464118480 1 0
23.500515 -13.382722 -0.4720527 3 3200464118480 1 1
34.11672 -24.127684 -1.2161007 17 3200464120784 1 0
0 0 0 1 3200464120784 1 0
6.730766 -4.7615337 -1.6489542 2 3200464123088 1 0
42.079277 -26.783371 0 9 3200464123088 1 0
24.769823 -19.411552 -0.36636817 59 3200464125392 1 1
8.648451 -5.5064883 -1.595076 67 3200464125392 1 0
10.367041 -7.3384633 -1.6167383 3 3200464127696 1 0
45.872963 -26.158401 0.30691555 11 3200464127696 1 0
37.416874 -26.494257 -0.26646462 7 3200464130000 1 0
11.927182 -7.598941 -1.5233485 4 3200464130000 1 0
13.293095 -10.426865 -1.577075 3 3200464132304 1 0
41.981487 -26.755459 1.1584114 8 3200464132304 1 0
32.021194 -25.124374 0.47383866 5 3200464134608 1 0
17.873083 -11.394451 -1.4821856 5 3200464134608 1 0
15.293979 -10.839431 -1.530303 4 3200464136912 1 0
45.863407 -26.188324 1.5370275 16 3200464136912 1 0
37.934723 -26.894087 0.8116765 26 3200464139216 1 0
19.632578 -11.214125 -1.449022 3 3200464139216 1 0
19.619024 -15.407254 -1.4527779 6 3200464141520 1 0
41.674 -26.593597 2.8790443 49 3200464141520 1 0
0 0 0 58 3200464143824 1 0
24.44139 -15.601886 -1.3507055 4 3200464143824 1 0
22.959969 -16.292688 -1.4754553 4 3200464146128 1 0
0 0 0 1 3200464146128 1 0
0 0 0 15 3200464148432 1 0
45.120304 -32.027813 4.5170302 46 3200464148432 1 0
24.797619 -19.497456 -1.1015677 4 3200464150736 1 0
0 0 0 9 3200464150736 1 0
0 0 0 29 3200464153040 1 0
36.275623 -23.18585 -1.0018039 21 3200464153040 1 0
0 0 0 8 3200464173776 1 0
23.668701 -13.588128 -0.47638088 3 3200464173776 1 1
34.0256 -24.242235 -1.215868 17 3200464176080 1 0
0 0 0 1 3200464176080 1 0
6.7140346 -4.785097 -1.6489542 2 3200464178384 1 0
41.911064 -26.88319 0 9 3200464178384 1 0
24.714046 -19.508348 -0.36655444 37 3200464180688 1 1
8.612423 -5.5261593 -1.5920014 69 3200464180688 1 0
10.341147 -7.374907 -1.6167383 3 3200464182992 1 0
0 0 0 7 3200464182992 1 0
37.24179 -26.567987 -0.26588342 7 3200464185296 1 0
11.907 -7.6452584 -1.5242052 4 3200464185296 1 0
41.678055 -26.769676 1.152642 8 3200464187600 1 0
31.938292 -25.24258 0.4739318 5 3200464189904 1 0
13.265534 -10.481188 -1.5781903 3 3200464187600 1 0
17.859474 -11.474935 -1.4844178 3 3200464189904 1 0
15.261904 -10.898272 -1.5309539 4 3200464192208 1 0
37.812813 -27.01022 0.81111807 26 3200464194512 1 0
45.759785 -26.344936 1.5366783 8 3200464192208 1 0
19.606411 -11.291838 -1.4500453 3 3200464194512 1 0
19.563997 -15.477067 -1.4527779 6 3200464196816 1 0
36.79703 -26.30161 1.8427372 9 3200464199120 1 0
41.390892 -26.620962 2.8660212 49 3200464196816 1 0
24.388885 -15.691219 -1.3508916 4 3200464199120 1 0
22.908028 -16.37938 -1.475874 4 3200464201424 1 0
0 0 0 1 3200464201424 1 0
45.14138 -32.28678 4.5306993 47 3200464203728 1 0
24.674143 -19.544218 -1.0991945 4 3200464206032 1 0
23.798788 -13.725702 -1.1192874 25 3200464203728 1 0
0 0 0 9 3200464206032 1 0
0 0 0 29 3200464208336 1 0
36.074265 -23.240482 -0.998547 21 3200464208336 1 0
0 0 0 8 3200464229072 1 0
23.68104 -13.710858 -0.47763747 3 3200464229072 1 1
33.93994 -24.368866 -1.2159843 17 3200464231376 1 0
0 0 0 1 3200464231376 1 0
6.693335 -4.8072877 -1.6481698 2 3200464233680 1 0
41.52713 -26.8514 0 9 3200464233680 1 0
24.583328 -19.550959 -0.3656697 43 3200464235984 1 1
8.595551 -5.559647 -1.5926164 69 3200464235984 1 0
10.327151 -7.4217224 -1.6187587 3 3200464238288 1 0
31.244226 -18.114073 0.20990308 16 3200464238288 1 1
36.966503 -26.574543 -0.2646048 7 3200464240592 1 0
13.236837 -10.536602 -1.5793056 3 3200464242896 1 0
11.869162 -7.681934 -1.52292 5 3200464240592 1 0
41.315643 -26.74875 1.145291 16 3200464242896 1 0
31.84685 -25.357851 0.4739318 5 3200464245200 1 0
17.841328 -11.554592 -1.4863709 3 3200464245200 1 0
15.228967 -10.957908 -1.5316049 4 3200464247504 1 0
41.12689 -29.601675 0.884488 9 3200464249808 1 0
45.802776 -26.590117 1.5413328 8 3200464247504 1 0
19.57254 -11.366352 -1.450557 3 3200464249808 1 0
19.514517 -15.552227 -1.453243 6 3200464252112 1 0
40.9197 -26.526207 2.8399749 32 3200464252112 1 0
43.406048 -31.261303 2.179305 51 3200464254416 1 0
24.325768 -15.77421 -1.3505193 4 3200464254416 1 0
22.836313 -16.451899 -1.4750366 4 3200464256720 1 0
0 0 0 1 3200464256720 1 0
45.15518 -32.540997 4.543718 47 3200464259024 1 0
23.780722 -13.828674 -1.1207528 7 3200464259024 1 0
24.507477 -19.554726 -1.094867 4 3200464261328 1 0
0 0 0 9 3200464261328 1 0
0 0 0 29 3200464263632 1 0
35.994747 -23.370796 -0.99864006 21 3200464263632 1 0
0 0 0 8 3200464284368 1 0
23.809196 -13.896253 -0.48119774 10 3200464284368 1 1
33.80932 -24.454386 -1.2143552 17 3200464286672 1 0
0 0 0 1 3200464286672 1 0
6.6828694 -4.835221 -1.6497387 2 3200464288976 1 0
41.382877 -26.963438 0 9 3200464288976 1 0
24.461863 -19.594143 -0.36487812 56 3200464291280 1 1
8.576092 -5.5896173 -1.5926164 69 3200464291280 1 0
10.310824 -7.4647064 -1.6202738 3 3200464293584 1 0
45.457188 -26.566584 0.30600888 11 3200464293584 1 0
36.718014 -26.590805 -0.26348892 7 3200464295888 1 0
11.835612 -7.718973 -1.5220633 6 3200464295888 1 0
13.199978 -10.582744 -1.5793056 3 3200464298192 1 0
41.3225 -26.958357 1.1480825 16 3200464298192 1 0
31.692614 -25.416313 0.47295392 5 3200464300496 1 0
17.837645 -11.640787 -1.4894402 3 3200464300496 1 0
15.219675 -11.032058 -1.534534 4 3200464302800 1 0
45.737286 -26.765991 1.5422637 8 3200464302800 1 0
40.78047 -29.568977 0.87925225 9 3200464305104 1 0
19.532745 -11.434604 -1.450557 3 3200464305104 1 0
19.466337 -15.62525 -1.453708 6 3200464307408 1 0
40.602867 -26.522564 2.8243937 31 3200464307408 1 0
43.274014 -31.396198 2.1781652 51 3200464309712 1 0
24.297316 -15.876512 -1.3520083 4 3200464309712 1 0
22.785212 -16.536203 -1.4754553 4 3200464312016 1 0
0 0 0 1 3200464312016 1 0
45.10907 -32.7476 4.5505524 47 3200464314320 1 0
27.61126 -16.185398 -1.3039356 4 3200464314320 1 0
24.417255 -19.622623 -1.0938898 9 3200464316624 1 0
0 0 0 29 3200464318928 1 0
0 0 0 9 3200464316624 1 0
35.805866 -23.426239 -0.9956624 14 3200464318928 1 0
0 0 0 8 3200464339664 1 0
30.833899 -18.140814 -0.6244471 84 3200464339664 1 1
0 0 0 1 3200464341968 1 0
33.723927 -24.572008 -1.2143552 17 3200464341968 1 0
6.6660213 -4.8584223 -1.6497387 2 3200464344272 1 0
38.988384 -25.596785 0 24 3200464344272 1 0
24.418652 -19.69897 -0.36525062 31 3200464346576 1 1
8.559955 -5.6215024 -1.5932313 44 3200464346576 1 0
10.288129 -7.5026913 -1.6207789 3 3200464348880 1 0
45.29258 -26.681143 0.30552068 11 3200464348880 1 0
36.499912 -26.625547 -0.26258227 7 3200464351184 1 0
11.815525 -7.7641788 -1.52292 6 3200464351184 1 0
13.172716 -10.635687 -1.580421 2 3200464353488 1 0
41.27945 -27.133583 1.1494783 16 3200464353488 1 0
31.916164 -25.776484 0.47761035 5 3200464355792 1 0
17.814167 -11.713037 -1.4908353 5 3200464355792 1 0
15.191378 -11.091287 -1.5355103 4 3200464358096 1 0
45.03902 -26.565317 1.5217841 25 3200464358096 1 0
19.507217 -11.509554 -1.4515803 5 3200464360400 1 0
40.44964 -29.541014 0.8742958 9 3200464360400 1 0
40.29516 -26.518497 2.8092775 31 3200464362704 1 0
43.182816 -31.555399 2.1789794 51 3200464365008 1 0
19.412819 -15.691693 -1.453708 6 3200464362704 1 0
24.2497 -15.963683 -1.3523806 4 3200464365008 1 0
22.744925 -16.62544 -1.476502 4 3200464367312 1 0
0 0 0 1 3200464367312 1 0
45.11989 -32.990025 4.5629196 48 3200464369616 1 0
27.521723 -16.258747 -1.3023074 4 3200464369616 1 0
24.450058 -19.785728 -1.098357 9 3200464371920 1 0
0 0 0 9 3200464371920 1 0
0 0 0 29 3200464374224 1 0
35.743137 -23.55819 -0.99612767 14 3200464374224 1 0
0 0 0 8 3200464394960 1 0
0 0 0 7 3200464394960 1 0
33.62256 -24.670002 -1.213657 17 3200464397264 1 0
0 0 0 1 3200464397264 1 0
6.6528935 -4.883015 -1.6505231 2 3200464399568 1 0
39.069363 -25.837387 0 16 3200464399568 1 0
24.439259 -19.85151 -0.36655444 15 3200464401872 1 1
0 0 0 19 3200464401872 1 0
10.259556 -7.5350146 -1.6202738 3 3200464404176 1 0
44.964966 -26.692936 0.3039166 11 3200464404176 1 0
33.169853 -24.369022 -0.23921837 6 3200464406480 1 0
11.792462 -7.8063703 -1.5233485 6 3200464406480 1 0
13.136442 -10.680457 -1.580421 2 3200464408784 1 0
41.31023 -27.355608 1.1529212 16 3200464408784 1 0
17.777355 -11.776059 -1.4911144 5 3200464411088 1 0
15.159641 -11.148088 -1.5361613 4 3200464413392 1 0
0 0 0 3 3200464413392 1 0
0 0 0 21 3200464411088 1 0
19.474289 -11.580808 -1.4520919 3 3200464415696 1 0
19.442 -15.826865 -1.459987 6 3200464418000 1 0
0 0 0 100 3200464415696 1 0
39.970154 -26.503347 2.7929986 30 3200464418000 1 0
43.06643 -31.700579 2.1786537 34 3200464420304 1 0
24.21404 -16.061132 -1.3534973 4 3200464420304 1 0
22.706053 -16.718945 -1.477758 4 3200464422608 1 0
0 0 0 1 3200464422608 1 0
45.138794 -33.24728 4.576589 48 3200464424912 1 0
27.474865 -16.36125 -1.3027958 4 3200464424912 1 0
0 0 0 44 3200464427216 1 0
0 0 0 9 3200464427216 1 0
0 0 0 29 3200464429520 1 0
35.736267 -23.735254 -0.9982679 14 3200464429520 1 0
0 0 0 8 3200464450256 1 0
42.062244 -25.14383 -0.8553773 17 3200464450256 1 0
33.551384 -24.807089 -1.2143552 17 3200464452560 1 0
6.635023 -4.90727 -1.6505231 2 3200464454864 1 0
40.24953 -26.829569 0 8 3200464454864 1 0
0 0 0 1 3200464452560 1 0
30.919672 -25.302954 -0.46513113 4 3200464457168 1 0
8.523665 -5.6835036 -1.5938462 6 3200464457168 1 0
10.228901 -7.569909 -1.6197687 3 3200464459472 1 0
42.60587 -25.502453 0.2885964 31 3200464459472 1 0
32.904385 -24.358334 -0.23793975 5 3200464461776 1 0
13.165461 -10.783481 -1.5886 3 3200464464080 1 0
11.764056 -7.849112 -1.5233485 7 3200464461776 1 0
0 0 0 8 3200464466384 1 0
42.315166 -28.242054 1.1838146 17 3200464464080 1 0
15.132144 -11.212192 -1.5374631 4 3200464468688 1 0
47.008053 -28.174612 1.5949758 8 3200464468688 1 0
40.070175 -29.6991 0.8705959 19 3200464470992 1 0
19.432474 -11.650835 -1.4520919 3 3200464470992 1 0
17.747952 -11.849097 -1.4922305 5 3200464466384 1 0
19.323261 -15.845965 -1.455336 6 3200464473296 1 0
39.64892 -26.495895 2.7771847 30 3200464473296 1 0
42.962128 -31.861917 2.1791422 34 3200464475600 1 0
24.126408 -16.127857 -1.3518223 4 3200464475600 1 0
22.64288 -16.797699 -1.4775487 4 3200464477904 1 0
45.07742 -33.451004 4.582447 48 3200464480208 1 0
0 0 0 1 3200464477904 1 0
27.412844 -16.457191 -1.3026329 4 3200464480208 1 0
0 0 0 21 3200464482512 1 0
0 0 0 9 3200464482512 1 0
0 0 0 29 3200464484816 1 0
35.65496 -23.86441 -0.99836093 21 3200464484816 1 0
0 0 0 8 3200464505552 1 0
41.91598 -25.255413 -0.8541906 17 3200464505552 1 0
33.454964 -24.916887 -1.2140062 17 3200464507856 1 0
0 0 0 1 3200464507856 1 0
6.6209984 -4.932744 -1.6513076 2 3200464510160 1 0
40.03609 -26.889614 0 8 3200464510160 1 0
30.46078 -25.105465 -0.4595434 12 3200464512464 1 0
8.516897 -5.7220387 -1.5963058 5 3200464512464 1 0
10.208776 -7.610312 -1.6207789 3 3200464514768 1 0
44.379726 -26.775085 0.3012431 11 3200464514768 1 0
32.64921 -24.346315 -0.23670763 5 3200464517072 1 0
11.733286 -7.8879094 -1.52292 9 3200464517072 1 0
10.673008 -8.804408 -1.2915508 3 3200464519376 1 0
0 0 0 8 3200464519376 1 0
0 0 0 21 3200464521680 1 0
17.713104 -11.915431 -1.4927886 5 3200464521680 1 0
15.102499 -11.272098 -1.5384395 4 3200464523984 1 0
46.368694 -28.011871 1.5765905 8 3200464523984 1 0
38.549767 -28.781239 0.83974 18 3200464526288 1 0
19.40877 -11.728919 -1.4533712 5 3200464526288 1 0
39.344196 -26.491396 2.7623012 45 3200464528592 1 0
19.280146 -15.9234915 -1.4562662 6 3200464528592 1 0
35.198174 -26.29489 1.7899805 9 3200464530896 1 0
24.089848 -16.225368 -1.352939 4 3200464530896 1 0
22.593706 -16.883808 -1.4781767 4 3200464533200 1 0
0 0 0 1 3200464533200 1 0
45.0913 -33.706017 4.595791 49 3200464535504 1 0
27.368908 -16.561056 -1.3032843 4 3200464535504 1 0
28.484785 -23.5535 -1.290723 13 3200464537808 1 0
0 0 0 29 3200464540112 1 0
0 0 0 9 3200464537808 1 0
35.468662 -23.919413 -0.9954763 14 3200464540112 1 0
0 0 0 8 3200464560296 1 0
41.64981 -25.293623 -0.8505605 16 3200464560296 1 0
33.26224 -24.954334 -1.2101662 8 3200464562600 1 0
0 0 0 1 3200464562600 1 0
6.606877 -4.9581795 -1.6520921 2 3200464564904 1 0
39.723343 -26.881245 0 8 3200464564904 1 0
30.406813 -25.23974 -0.46005562 4 3200464567208 1 0
8.493599 -5.7495174 -1.595691 5 3200464567208 1 0
10.18215 -7.6459007 -1.6207789 3 3200464569512 1 0
0 0 0 5 3200464569512 1 0
32.352947 -24.301582 -0.23517327 5 3200464571816 1 0
11.708973 -7.9310484 -1.5233485 7 3200464571816 1 0
0 0 0 28 3200464574120 1 0
42.295742 -28.657907 1.1888396 26 3200464574120 1 0
29.76767 -24.738472 0.45060304 5 3200464576424 1 0
17.681313 -11.983905 -1.4936256 5 3200464576424 1 0
15.08218 -11.339121 -1.5403922 4 3200464578728 1 0
45.949615 -27.978096 1.5656525 8 3200464578728 1 0
38.334 -28.829088 0.83722687 18 3200464581032 1 0
19.36771 -11.796597 -1.4533712 3 3200464581032 1 0
19.279705 -16.03666 -1.4604522 6 3200464583336 1 0
39.03669 -26.482853 2.747185 44 3200464583336 1 0
34.943306 -26.295034 1.7816763 18 3200464585640 1 0
24.102495 -16.356476 -1.3568475 4 3200464585640 1 0
22.556973 -16.979387 -1.4796422 4 3200464587944 1 0
0 0 0 1 3200464587944 1 0
34.956993 -26.321264 3.5722258 12 3200464590248 1 0
27.317757 -16.660654 -1.30361 4 3200464590248 1 0
28.417753 -23.665577 -1.2914209 13 3200464592552 1 0
0 0 0 29 3200464594856 1 0
0 0 0 9 3200464592552 1 0
0 0 0 8 3200464615592 1 0
40.892685 -25.029627 -0.8368778 16 3200464615592 1 0
33.149414 -25.051004 -1.2092353 8 3200464617896 1 0
0 0 0 1 3200464617896 1 0
35.381645 -24.040827 -0.99538326 14 3200464594856 1 0
6.5895295 -4.9812117 -1.6520921 2 3200464620200 1 0
39.163273 -26.702023 0 8 3200464620200 1 0
0 0 0 15 3200464622504 1 0
8.473477 -5.779131 -1.595691 5 3200464622504 1 0
10.158564 -7.68379 -1.621284 3 3200464624808 1 0
44.031437 -26.986021 0.30015048 11 3200464624808 1 0
32.213696 -24.373339 -0.23477806 5 3200464627112 1 0
11.681217 -7.9718723 -1.5233485 9 3200464627112 1 0
10.510485 -8.794365 -1.2792822 21 3200464629416 1 0
42.27141 -28.85723 1.1909797 26 3200464629416 1 0
29.788486 -24.932081 0.4522328 15 3200464631720 1 0
17.652555 -12.054552 -1.4947417 5 3200464631720 1 0
15.052042 -11.398919 -1.5413686 4 3200464634024 1 0
45.544975 -27.950104 1.55518 8 3200464634024 1 0
37.9239 -28.728472 0.8304553 18 3200464636328 1 0
19.33662 -11.870396 -1.4541386 3 3200464636328 1 0
19.229733 -16.10899 -1.4609174 6 3200464638632 1 0
38.733017 -26.47474 2.7323015 43 3200464638632 1 0
24.058447 -16.449532 -1.3575921 4 3200464640936 1 0
34.68568 -26.291307 1.7732091 18 3200464640936 1 0
22.50075 -17.060436 -1.4798515 4 3200464643240 1 0
34.702904 -26.32026 3.5556276 24 3200464645544 1 0
27.290077 -16.774746 -1.3050754 4 3200464645544 1 0
0 0 0 1 3200464643240 1 0
28.402355 -23.821146 -1.2944921 13 3200464647848 1 0
0 0 0 9 3200464647848 1 0
0 0 0 29 3200464650152 1 0
0 0 0 8 3200464670888 1 0
35.409702 -24.240992 -0.998547 14 3200464650152 1 0
41.472218 -25.583775 -0.8505605 16 3200464670888 1 0
25.426537 -19.354055 -0.9299662 5 3200464673192 1 1
0 0 0 1 3200464673192 1 0
6.5660057 -4.99924 -1.6505231 2 3200464675496 1 0
37.326443 -25.639368 0 15 3200464675496 1 0
29.71387 -25.014753 -0.45218623 16 3200464677800 1 0
10.138442 -7.723423 -1.6222942 3 3200464680104 1 0
8.450249 -5.8060665 -1.595076 4 3200464677800 1 0
32.00612 -24.388752 -0.2338714 5 3200464682408 1 0
43.935143 -27.134897 0.3001272 11 3200464680104 1 0
11.653902 -8.011751 -1.5233485 9 3200464682408 1 0
10.462218 -8.814688 -1.2770514 43 3200464684712 1 0
39.144833 -26.918589 1.1054645 15 3200464684712 1 0
29.618187 -24.960714 0.450929 10 3200464687016 1 0
17.621466 -12.121089 -1.4955788 5 3200464687016 1 0
15.016663 -11.452062 -1.541694 4 3200464689320 1 0
45.307575 -28.01531 1.5502927 25 3200464689320 1 0
37.64274 -28.715036 0.82640636 17 3200464691624 1 0
19.30342 -11.939495 -1.4546503 3 3200464691624 1 0
19.187946 -16.183525 -1.4618475 6 3200464693928 1 0
38.44031 -26.46377 2.7178829 28 3200464693928 1 0
34.42954 -26.27817 1.7645792 18 3200464696232 1 0
24.01669 -16.538635 -1.3583366 4 3200464696232 1 0
22.43135 -17.125261 -1.4790142 4 3200464698536 1 0
0 0 0 1 3200464698536 1 0
34.451054 -26.308868 3.5387037 36 3200464700840 1 0
27.251535 -16.875275 -1.3058896 4 3200464700840 1 0
28.33001 -23.919533 -1.2947713 13 3200464703144 1 0
0 0 0 9 3200464703144 1 0
0 0 0 29 3200464705448 1 0
35.29726 -24.334042 -0.9976165 21 3200464705448 1 0
0 0 0 8 3200464726184 1 0
40.739372 -25.308727 -0.837157 16 3200464726184 1 0
25.365185 -19.434393 -0.9299662 5 3200464728488 1 1
0 0 0 1 3200464728488 1 0
6.5625014 -5.0296726 -1.653661 2 3200464730792 1 0
37.376183 -25.849142 0 15 3200464730792 1 0
29.618235 -25.09699 -0.4519534 16 3200464733096 1 0
8.438086 -5.837634 -1.5963058 4 3200464733096 1 0
10.126046 -7.765777 -1.6243144 4 3200464735400 1 0
43.402374 -26.999836 0.29708177 33 3200464735400 1 0
31.879066 -24.456144 -0.2335227 11 3200464737704 1 0
11.631066 -8.051855 -1.5237768 7 3200464737704 1 0
0 0 0 84 3200464740008 1 0
38.88229 -26.925884 1.1005327 15 3200464740008 1 0
29.508348 -25.034863 0.4505099 10 3200464742312 1 0
14.98809 -11.50908 -1.5426704 4 3200464744616 1 0
17.57816 -12.176802 -1.4952998 5 3200464742312 1 0
45.18388 -28.146376 1.5492455 8 3200464744616 1 0
37.37858 -28.711403 0.82270646 26 3200464746920 1 0
19.13042 -16.245316 -1.461615 6 3200464749224 1 0
38.157574 -26.45852 2.7041621 42 3200464749224 1 0
19.27701 -12.012306 -1.4556736 3 3200464746920 1 0
23.957342 -16.617477 -1.3581505 4 3200464751528 1 0
34.17253 -26.26536 1.7559493 18 3200464751528 1 0
22.448938 -17.25994 -1.4840384 4 3200464753832 1 0
0 0 0 1 3200464753832 1 0
34.20273 -26.305191 3.5224307 35 3200464756136 1 0
27.193573 -16.968517 -1.3058896 4 3200464756136 1 0
0 0 0 9 3200464758440 1 0
0 0 0 29 3200464760744 1 0
35.26519 -24.492834 -0.99910533 21 3200464760744 1 0
0 0 0 8 3200464781480 1 0
41.354733 -25.901562 -0.8517472 8 3200464781480 1 0
28.250437 -24.019634 -1.2949109 13 3200464758440 1 0
0 0 0 1 3200464783784 1 0
0 0 0 56 3200464783784 1 0
6.5472 -5.055994 -1.6544454 2 3200464786088 1 0
38.387447 -26.756218 0 16 3200464786088 1 0
30.095472 -25.690338 -0.46066093 21 3200464788392 1 0
8.420003 -5.8705993 -1.5969207 4 3200464788392 1 0
10.085182 -7.7928405 -1.6222942 3 3200464790696 1 0
43.385242 -27.208477 0.29763973 33 3200464790696 1 0
0 0 0 41 3200464793000 1 0
11.6082945 -8.09856 -1.5246335 9 3200464793000 1 0
10.331557 -8.827103 -1.2685007 2 3200464795304 1 0
30.314646 -25.907934 0.4642464 5 3200464797608 1 0
17.540577 -12.2448225 -1.4958578 3 3200464797608 1 0
38.63695 -26.963537 1.0963453 15 3200464795304 1 0
14.965399 -11.577704 -1.5446231 5 3200464799912 1 0
0 0 0 27 3200464799912 1 0
37.382523 -28.92899 0.82508 26 3200464802216 1 0
19.230263 -12.079497 -1.4554178 3 3200464802216 1 0
19.09318 -16.332106 -1.4632429 3 3200464804520 1 0
37.84296 -26.442188 2.688581 42 3200464804520 1 0
33.920143 -26.26536 1.7478077 18 3200464806824 1 0
23.900887 -16.705551 -1.3583366 4 3200464806824 1 0
22.415462 -17.362164 -1.4859225 4 3200464809128 1 0
45.08429 -31.521477 6.7544866 21 3200464809128 1 0
33.941555 -26.297735 3.5051816 35 3200464811432 1 0
27.149727 -17.076147 -1.3067037 4 3200464811432 1 0
28.170738 -24.125349 -1.2951901 13 3200464813736 1 0
0 0 0 9 3200464813736 1 0
0 0 0 29 3200464816040 1 0
35.13855 -24.590572 -0.9979887 14 3200464816040 1 0
0 0 0 4 3200464836776 1 0
41.040855 -25.904867 -0.84713984 16 3200464836776 1 0
25.042398 -19.47305 -0.9232172 49 3200464839080 1 1
0 0 0 1 3200464839080 1 0
6.52015 -5.071687 -1.6520921 2 3200464841384 1 0
38.182125 -26.812452 0 16 3200464841384 1 0
29.280174 -25.172699 -0.44953206 90 3200464843688 1 0
8.402565 -5.9024096 -1.5975356 3 3200464843688 1 0
10.0608225 -7.8307266 -1.6227992 3 3200464845992 1 0
43.373734 -27.41444 0.2982209 33 3200464845992 1 0
0 0 0 19 3200464848296 1 0
11.59918 -8.153174 -1.5272039 9 3200464848296 1 0
38.28626 -26.920515 1.0890871 15 3200464850600 1 0
10.327465 -8.886942 -1.2718467 2 3200464850600 1 0
0 0 0 24 3200464852904 1 0
17.510157 -12.316049 -1.4969739 3 3200464852904 1 0
14.933651 -11.638093 -1.5455996 5 3200464855208 1 0
45.268486 -28.650734 1.5591363 42 3200464855208 1 0
37.31726 -29.09125 0.82591766 26 3200464857512 1 0
19.210794 -12.162753 -1.4572086 3 3200464857512 1 0
19.04091 -16.40525 -1.463708 3 3200464859816 1 0
37.55912 -26.443537 2.6750927 41 3200464859816 1 0
33.662273 -26.258482 1.7393407 9 3200464862120 1 0
23.85415 -16.79999 -1.359081 4 3200464862120 1 0
22.359497 -17.447168 -1.4863411 4 3200464864424 1 0
45.078327 -31.75804 6.770573 42 3200464864424 1 0
33.718204 -26.31868 3.4918377 34 3200464866728 1 0
27.165968 -17.222593 -1.3104488 5 3200464866728 1 0
0 0 0 9 3200464869032 1 0
28.089941 -24.231619 -1.2954693 13 3200464869032 1 0
0 0 0 29 3200464871336 1 0
34.886402 -24.601671 -0.9933361 21 3200464871336 1 0
0 0 0 4 3200464892072 1 0
40.766804 -25.941319 -0.8434399 16 3200464892072 1 0
25.194748 -19.739235 -0.9314789 11 3200464894376 1 1
0 0 0 1 3200464894376 1 0
6.4986525 -5.092848 -1.6513076 2 3200464896680 1 0
37.885597 -26.80961 0 8 3200464896680 1 0
8.387715 -5.937186 -1.5987655 4 3200464898984 1 0
29.397993 -25.458607 -0.45274502 57 3200464898984 1 0
10.032741 -7.8666735 -1.6227992 3 3200464901288 1 0
44.89803 -28.603199 0.30940303 12 3200464901288 1 0
31.693954 -24.857935 -0.23410389 5 3200464903592 1 0
11.583096 -8.203566 -1.5289174 10 3200464903592 1 0
0 0 0 33 3200464905896 1 0
38.004883 -26.923897 1.0837831 15 3200464905896 1 0
29.118708 -25.243439 0.44864735 61 3200464908200 1 0
17.470045 -12.379784 -1.497253 3 3200464908200 1 0
14.902344 -11.6975355 -1.5465759 5 3200464910504 1 0
45.26933 -28.873077 1.5626271 51 3200464910504 1 0
37.297913 -29.284739 0.82773274 26 3200464912808 1 0
19.178585 -12.23576 -1.4579761 3 3200464912808 1 0
18.99028 -16.47602 -1.4641731 3 3200464915112 1 0
37.27557 -26.436552 2.6613717 40 3200464915112 1 0
33.430706 -26.262526 1.7320133 18 3200464917416 1 0
23.806244 -16.88853 -1.3596394 4 3200464917416 1 0
22.299988 -17.523165 -1.4863411 4 3200464919720 1 0
45.096256 -32.00088 6.7895846 64 3200464919720 1 0
33.409603 -26.260094 3.4690557 34 3200464922024 1 0
27.131151 -17.329418 -1.3115885 5 3200464922024 1 0
28.008371 -24.325857 -1.2954693 13 3200464924328 1 0
0 0 0 9 3200464924328 1 0
34.82039 -24.72956 -0.99380136 21 3200464926632 1 0
0 0 0 29 3200464926632 1 0
0 0 0 4 3200464947368 1 0
24.899853 -19.635628 -0.9228681 5 3200464949672 1 1
39.008133 -24.994732 -0.8086747 8 3200464947368 1 0
0 0 0 1 3200464949672 1 0
6.488557 -5.11838 -1.6528765 2 3200464951976 1 0
29.373484 -25.60269 -0.45362973 57 3200464954280 1 0
37.84562 -26.962643 0 8 3200464951976 1 0
8.365413 -5.961761 -1.5981506 4 3200464954280 1 0
10.013517 -7.9039435 -1.6238093 3 3200464956584 1 0
44.80544 -28.748018 0.30940303 12 3200464956584 1 0
0 0 0 16 3200464958888 1 0
11.556367 -8.241175 -1.5289174 10 3200464958888 1 0
10.164698 -8.868011 -1.2592063 42 3200464961192 1 0
37.76682 -26.941296 1.0795027 7 3200464961192 1 0
29.29154 -25.562769 0.4526053 15 3200464963496 1 0
17.448656 -12.451176 -1.4989271 3 3200464963496 1 0
14.872854 -11.754305 -1.5475522 5 3200464965800 1 0
45.260796 -29.07923 1.5656525 43 3200464965800 1 0
38.567852 -30.49049 0.85816973 18 3200464968104 1 0
19.134277 -12.29755 -1.4577203 3 3200464968104 1 0
18.937826 -16.542358 -1.4644057 3 3200464970408 1 0
33.172443 -26.241526 1.7232206 9 3200464972712 1 0
36.99807 -26.427021 2.6478837 40 3200464970408 1 0
23.7555 -16.973583 -1.3600117 4 3200464972712 1 0
22.284075 -17.633661 -1.489272 4 3200464975016 1 0
45.02907 -32.184185 6.7959223 64 3200464975016 1 0
33.163166 -26.250654 3.4527829 33 3200464977320 1 0
27.074997 -17.42441 -1.3117514 5 3200464977320 1 0
28.023653 -24.509104 -1.300076 13 3200464979624 1 0
0 0 0 9 3200464979624 1 0
0 0 0 29 3200464981928 1 0
35.566982 -25.445858 -1.0176228 14 3200464981928 1 0
0 0 0 4 3200465002664 1 0
39.11783 -25.267736 -0.8128633 16 3200465002664 1 0
24.55864 -19.512672 -0.91286093 5 3200465004968 1 1
0 0 0 1 3200465004968 1 0
6.469828 -5.142033 -1.6528765 2 3200465007272 1 0
37.876907 -27.193937 0 8 3200465007272 1 0
29.307058 -25.73329 -0.4540488 57 3200465009576 1 0
8.350058 -5.996811 -1.5993804 3 3200465009576 1 0
9.984712 -7.9403014 -1.6238093 5 3200465011880 1 0
41.41583 -26.786264 0.28666684 10 3200465011880 1 0
24.641779 -19.602127 -0.18300554 61 3200465014184 1 1
11.532845 -8.287698 -1.5297742 10 3200465014184 1 0
10.108582 -8.883733 -1.256232 38 3200465016488 1 0
37.782646 -27.159586 1.0827596 15 3200465016488 1 0
29.271055 -25.73185 0.45372286 15 3200465018792 1 0
17.40678 -12.516488 -1.4992062 3 3200465018792 1 0
14.85843 -11.830224 -1.5504814 5 3200465021096 1 0
43.913876 -28.43816 1.5225985 8 3200465021096 1 0
38.479744 -30.646566 0.8586584 37 3200465023400 1 0
19.106636 -12.3772 -1.4589994 4 3200465023400 1 0
18.881273 -16.612923 -1.4646382 3 3200465025704 1 0
36.727875 -26.4338 2.6353254 40 3200465025704 1 0
32.918747 -26.233253 1.7149163 9 3200465028008 1 0
23.717194 -17.074984 -1.3613145 4 3200465028008 1 0
22.217716 -17.710789 -1.4890627 4 3200465030312 1 0
44.958736 -32.37757 6.802747 43 3200465030312 1 0
32.91025 -26.24214 3.4361844 33 3200465032616 1 0
27.019314 -17.525324 -1.312077 5 3200465032616 1 0
27.93614 -24.608809 -1.300076 20 3200465034920 1 0
0 0 0 9 3200465034920 1 0
0 0 0 29 3200465037224 1 0
35.50871 -25.59556 -1.0185534 14 3200465037224 1 0
0 0 0 4 3200465057960 1 0
38.965702 -25.362677 -0.8115369 8 3200465057960 1 0
0 0 0 1 3200465060264 1 0
24.481012 -19.590784 -0.9125119 5 3200465060264 1 1
6.4487777 -5.1621346 -1.6520921 2 3200465062568 1 0
37.85954 -27.382246 0 8 3200465062568 1 0
29.241024 -25.856628 -0.4544213 49 3200465064872 1 0
8.325871 -6.0236044 -1.5987655 4 3200465064872 1 0
9.956934 -7.9751062 -1.6238093 5 3200465067176 1 0
39.02324 -25.432459 0.27071893 9 3200465067176 1 0
24.591934 -19.70303 -0.18314503 49 3200465069480 1 1
11.500624 -8.325573 -1.5293459 10 3200465069480 1 0
10.047687 -8.892569 -1.2525142 22 3200465071784 1 0
40.942688 -29.648455 1.1762774 25 3200465071784 1 0
29.225977 -25.873636 0.4544213 15 3200465074088 1 0
14.823265 -11.887006 -1.5511323 5 3200465076392 1 0
17.37591 -12.586535 -1.5003222 3 3200465074088 1 0
43.519676 -28.39899 1.5123587 8 3200465076392 1 0
38.05744 -30.527948 0.8516076 64 3200465078696 1 0
19.073343 -12.450366 -1.4597669 4 3200465078696 1 0
18.829145 -16.684027 -1.4651034 3 3200465081000 1 0
36.451103 -26.428236 2.6220698 39 3200465081000 1 0
32.586975 -26.15537 1.7023785 9 3200465083304 1 0
23.644508 -17.148285 -1.3605701 4 3200465083304 1 0
44.954704 -32.61358 6.819321 43 3200465085608 1 0
22.186907 -17.813244 -1.4911561 4 3200465085608 1 0
32.706547 -26.266989 3.424468 33 3200465087912 1 0
26.984737 -17.637024 -1.3133796 5 3200465087912 1 0
27.850069 -24.706173 -1.300076 13 3200465090216 1 0
0 0 0 9 3200465090216 1 0
0 0 0 29 3200465092520 1 0
35.28001 -25.618319 -1.0145521 14 3200465092520 1 0
0 0 0 4 3200465113256 1 0
38.562572 -25.292356 -0.8049748 7 3200465113256 1 0
24.409508 -19.673433 -0.91239554 5 3200465115560 1 1
0 0 0 1 3200465115560 1 0
6.433848 -5.186982 -1.6528765 2 3200465117864 1 0
36.69079 -26.731684 0 7 3200465117864 1 0
29.243757 -26.040363 -0.45586482 49 3200465120168 1 0
8.308121 -6.054777 -1.5993804 4 3200465120168 1 0
9.932356 -8.012016 -1.6243144 5 3200465122472 1 0
38.92828 -25.562998 0.27067244 9 3200465122472 1 0
0 0 0 9 3200465124776 1 0
11.48465 -8.374622 -1.5310594 19 3200465124776 1 0
0 0 0 56 3200465127080 1 0
29.196518 -26.027245 0.4553526 15 3200465129384 1 0
40.601166 -29.615023 1.1693915 17 3200465127080 1 0
17.374416 -12.676805 -1.5039495 3 3200465129384 1 0
14.794782 -11.947835 -1.5524342 5 3200465131688 1 0
43.094532 -28.332945 1.5009552 8 3200465131688 1 0
42.75001 -34.53343 0.9592541 12 3200465133992 1 0
19.030586 -12.515623 -1.4597669 4 3200465133992 1 0
18.777971 -16.753603 -1.4655684 3 3200465136296 1 0
36.150944 -26.399595 2.6069536 39 3200465136296 1 0
0 0 0 100 3200465138600 1 0
23.605244 -17.24297 -1.3616868 4 3200465138600 1 0
22.119942 -17.883629 -1.4907373 4 3200465140904 1 0
44.962055 -32.85305 6.8373575 44 3200465140904 1 0
32.459057 -26.25006 3.4078696 32 3200465143208 1 0
26.954727 -17.748348 -1.3148452 5 3200465143208 1 0
27.772146 -24.805737 -1.3003552 20 3200465145512 1 0
0 0 0 9 3200465145512 1 0
0 0 0 29 3200465147816 1 0
0 0 0 4 3200465168552 1 0
38.301632 -25.303257 -0.8012749 7 3200465168552 1 0
35.26419 -25.789406 -1.0165992 14 3200465147816 1 0
30.1717 -24.4831 -1.1308073 8 3200465170856 1 0
0 0 0 1 3200465170856 1 0
6.4196577 -5.2107606 -1.653661 3 3200465173160 1 0
39.217518 -28.77214 0 8 3200465173160 1 0
9.92061 -8.893054 -0.1551058 4 3200465175464 1 0
8.297556 -6.08931 -1.6012251 3 3200465175464 1 0
38.950054 -25.76256 0.27141637 9 3200465177768 1 0
