# .PCD v.7 - Point Cloud Data file format
VERSION .7
FIELDS x y z rgb timestamp_ns device_id active
SIZE 4 4 4 4 8 1 1
TYPE F F F F F U U
COUNT 1 1 1 1 1 1 1
WIDTH 977
HEIGHT 1
VIEWPOINT 0 0 0 1 0 0 0
POINTS 977               
DATA ascii
5.0485234 -9.80792 -1.4041027 53 3204671766992 1 0
11.866312 -18.387058 0.12718792 28 3204671766992 1 1
17.387968 -33.792213 -0.22087596 15 3204671769296 1 0
7.5575767 -16.64514 -1.7064531 2 3204671771600 1 0
5.8312864 -10.088559 -1.2551774 7 3204671769296 1 0
18.328115 -31.71965 0.8524545 80 3204671771600 1 0
14.621204 -32.21483 0.4118615 46 3204671773904 1 0
8.4024515 -14.546632 -1.1746991 80 3204671773904 1 1
0 0 0 38 3204671776208 1 0
29.212177 -45.322636 1.5692598 25 3204671776208 1 0
20.369034 -39.642365 0.77795845 82 3204671778512 1 0
9.249479 -14.355134 -1.0944414 64 3204671778512 1 1
6.842422 -15.09337 -0.96510774 56 3204671780816 1 1
18.301598 -31.71634 2.1325393 70 3204671780816 1 0
20.46056 -39.849003 1.8249888 86 3204671783120 1 0
7.5368733 -14.684076 -0.8650087 94 3204671785424 1 1
18.27405 -31.689892 4.4916167 54 3204671785424 1 0
0 0 0 34 3204671787728 1 0
8.383409 -14.533178 -0.78153676 89 3204671783120 1 1
9.254573 -14.381408 -0.6967458 75 3204671787728 1 1
6.949846 -15.354079 -0.5885451 6 3204671790032 1 1
0 0 0 9 3204671790032 1 0
14.467156 -28.216633 5.7814174 21 3204671792336 1 0
8.521494 -14.792435 -0.39724138 1 3204671792336 1 1
11.711868 -18.264137 -0.3787172 81 3204671813072 1 1
7.5963635 -14.868852 -0.48592827 58 3204671815376 1 1
2.9996321 -5.224518 -1.6864635 2 3204671815376 1 0
3.855224 -7.548652 -1.6952379 4 3204671817680 1 0
0 0 0 4 3204671813072 1 0
18.225239 -31.753412 0 82 3204671817680 1 0
14.511712 -32.220436 -0.41139588 61 3204671819984 1 0
5.3090253 -9.252754 -1.6596415 18 3204671819984 1 0
5.0127387 -9.821803 -1.4035976 51 3204671822288 1 0
17.260231 -33.8307 -0.22073649 52 3204671824592 1 0
5.792446 -10.101742 -1.2543206 7 3204671824592 1 0
11.785334 -18.401077 0.12700194 28 3204671822288 1 1
7.508326 -16.68925 -1.708312 2 3204671826896 1 0
18.196793 -31.744476 0.85143095 86 3204671826896 1 0
14.495543 -32.2321 0.41144243 32 3204671829200 1 0
8.340462 -14.554675 -1.1730249 80 3204671829200 1 1
7.531074 -14.776315 -1.3539048 5 3204671831504 1 1
29.19002 -45.631462 1.5764742 25 3204671831504 1 0
20.216791 -39.67983 0.77733016 82 3204671833808 1 0
9.187352 -14.366553 -1.0929065 62 3204671833808 1 1
6.8284297 -15.200448 -0.97045654 49 3204671836112 1 1
18.171263 -31.740587 2.1299813 63 3204671836112 1 0
20.299143 -39.868694 1.8227092 67 3204671838416 1 0
8.319899 -14.537412 -0.78023386 85 3204671838416 1 1
7.4759827 -14.688282 -0.8637526 85 3204671840720 1 1
18.144403 -31.713995 4.486254 54 3204671840720 1 0
9.1949215 -14.395913 -0.6959317 70 3204671843024 1 1
20.27379 -39.84613 3.649685 39 3204671843024 1 0
6.923951 -15.435902 -0.5907787 6 3204671845328 1 1
0 0 0 9 3204671845328 1 0
14.364523 -28.251364 5.7785473 26 3204671847632 1 0
8.467455 -14.814222 -0.39705527 1 3204671847632 1 1
0 0 0 4 3204671868368 1 0
11.636204 -18.279259 -0.37822855 44 3204671868368 1 1
7.5648704 -14.929736 -0.4870919 22 3204671870672 1 1
2.9784007 -5.2277856 -1.6843069 2 3204671870672 1 0
3.8299506 -7.5615067 -1.6952379 4 3204671872976 1 0
18.164444 -31.894146 0 25 3204671872976 1 0
14.391966 -32.243443 -0.41106993 65 3204671875280 1 0
4.974193 -9.828041 -1.4020823 50 3204671877584 1 0
5.2779083 -9.270538 -1.6596415 17 3204671875280 1 0
11.703863 -18.41036 0.12679271 28 3204671877584 1 1
17.13465 -33.86758 -0.220597 47 3204671879888 1 0
5.7581797 -10.121314 -1.2543206 5 3204671879888 1 0
7.490402 -16.80201 -1.7172346 2 3204671882192 1 0
18.098532 -31.823605 0.85189617 26 3204671882192 1 0
14.36901 -32.244923 0.4109768 23 3204671884496 1 0
8.278833 -14.562284 -1.1713507 80 3204671884496 1 1
7.4245677 -14.691773 -1.3438157 8 3204671886800 1 1
29.16394 -45.937294 1.5835723 26 3204671886800 1 0
20.060059 -39.71001 0.7765623 66 3204671889104 1 0
9.12922 -14.384656 -1.0918831 62 3204671889104 1 1
6.824483 -15.333441 -0.9774332 36 3204671891408 1 1
18.104666 -31.87969 2.1350975 15 3204671891408 1 0
20.142422 -39.903336 1.8210809 67 3204671893712 1 0
8.261425 -14.552345 -0.7794894 85 3204671893712 1 1
7.422866 -14.710723 -0.8635433 83 3204671896016 1 1
18.015955 -31.746061 4.481867 27 3204671896016 1 0
9.133707 -14.411176 -0.69511753 72 3204671898320 1 1
20.117838 -39.88491 3.6467557 39 3204671898320 1 0
6.9020424 -15.53324 -0.59357065 7 3204671900624 1 1
14.23979 -28.252758 5.7685027 21 3204671902928 1 0
8.42096 -14.854493 -0.39733443 1 3204671902928 1 1
0 0 0 4 3204671923664 1 0
0 0 0 9 3204671900624 1 0
9.213878 -14.591824 -0.30122852 48 3204671923664 1 1
0 0 0 9 3204671925968 1 0
2.9649415 -5.248707 -1.6875417 2 3204671925968 1 0
3.8023207 -7.575438 -1.6952379 4 3204671928272 1 0
18.24064 -32.301582 0 20 3204671928272 1 0
14.246907 -32.233475 -0.41027835 43 3204671930576 1 0
5.2440977 -9.289706 -1.6596415 17 3204671930576 1 0
4.9419823 -9.853156 -1.4030925 26 3204671932880 1 0
11.61124 -18.412195 0.12651373 40 3204671932880 1 1
16.995502 -33.897354 -0.22038777 47 3204671935184 1 0
5.709689 -10.12136 -1.2517503 1 3204671935184 1 0
7.4311123 -16.83267 -1.7176064 2 3204671937488 1 0
18.179592 -32.237263 0.86120147 16 3204671937488 1 0
14.242685 -32.27469 0.4106974 23 3204671939792 1 0
7.3572435 -14.689941 -1.341212 2 3204671942096 1 1
8.21635 -14.574731 -1.1699556 81 3204671939792 1 1
29.14508 -46.27563 1.5916013 26 3204671942096 1 0
19.899078 -39.746204 0.7758642 66 3204671944400 1 0
9.056111 -14.383645 -1.0893248 64 3204671944400 1 1
6.8225036 -15.478441 -0.9851076 24 3204671946704 1 1
18.193808 -32.306385 2.1592832 16 3204671946704 1 0
19.983137 -39.943123 1.8196155 57 3204671949008 1 0
8.201358 -14.567944 -0.7787449 85 3204671949008 1 1
18.075554 -32.118248 4.5252523 13 3204671951312 1 0
7.3630376 -14.722897 -0.8627059 99 3204671951312 1 1
19.955685 -39.917267 3.6431756 39 3204671953616 1 0
9.065171 -14.41663 -0.6938149 72 3204671953616 1 1
0 0 0 9 3204671955920 1 0
6.875632 -15.623596 -0.5960834 14 3204671955920 1 1
14.12692 -28.278576 5.76348 26 3204671958224 1 0
8.362204 -14.873887 -0.39705527 1 3204671958224 1 1
0 0 0 4 3204671978960 1 0
9.145899 -14.596785 -0.30067006 60 3204671978960 1 1
7.518527 -15.105132 -0.49104822 2 3204671981264 1 1
2.9447193 -5.2556643 -1.6864635 2 3204671981264 1 0
3.7828434 -7.602711 -1.6983757 5 3204671983568 1 0
29.064257 -51.89088 0 24 3204671983568 1 0
13.725243 -31.348703 -0.39840442 24 3204671985872 1 0
5.213569 -9.311404 -1.6602565 17 3204671985872 1 0
0 0 0 22 3204671988176 1 0
11.532046 -18.428879 0.126351 40 3204671988176 1 1
16.885977 -33.974384 -0.220504 21 3204671990480 1 0
7.377097 -16.869455 -1.7187217 2 3204671992784 1 0
18.182129 -32.50644 0.8666915 5 3204671992784 1 0
7.4142947 -13.250927 -1.6355861 3 3204671990480 1 0
14.117123 -32.29489 0.4103249 23 3204671995088 1 0
8.15374 -14.582426 -1.1682814 80 3204671995088 1 1
7.321877 -14.747671 -1.3441411 11 3204671997392 1 1
29.114748 -46.587303 1.5988158 26 3204671997392 1 0
19.831335 -39.95872 0.77865654 24 3204671999696 1 0
8.997388 -14.401628 -1.0883015 62 3204671999696 1 1
6.8435307 -15.674164 -0.9960377 15 3204672002000 1 1
28.662699 -51.3139 3.422993 53 3204672002000 1 0
19.824057 -39.973248 1.8178244 48 3204672004304 1 0
8.140717 -14.57904 -0.77781427 87 3204672004304 1 1
7.308052 -14.74135 -0.8622872 94 3204672006608 1 1
18.131681 -32.48275 4.567663 6 3204672006608 1 0
19.796753 -39.947388 3.6395955 39 3204672008912 1 0
8.999984 -14.42445 -0.6926751 75 3204672008912 1 1
8.426477 -19.330345 -0.7363794 37 3204672011216 1 1
0 0 0 9 3204672011216 1 0
8.306338 -14.896001 -0.39686918 1 3204672013520 1 1
14.017645 -28.306557 5.7591753 26 3204672013520 1 0
0 0 0 4 3204672034256 1 0
9.084332 -14.611638 -0.300321 66 3204672034256 1 1
7.511752 -15.224511 -0.49407363 2 3204672036560 1 1
2.9263556 -5.265911 -1.6864635 2 3204672036560 1 0
3.7545469 -7.6123514 -1.6975913 4 3204672038864 1 0
29.152952 -52.478058 0 24 3204672038864 1 0
13.631645 -31.433117 -0.39887008 28 3204672041168 1 0
5.1848726 -9.336456 -1.6614863 14 3204672041168 1 0
4.8555326 -9.851826 -1.3980417 3 3204672043472 1 0
11.488747 -18.503002 0.12658349 36 3204672043472 1 1
16.742533 -33.982887 -0.22017854 26 3204672045776 1 0
7.3757143 -13.290637 -1.6372997 3 3204672045776 1 0
7.3150005 -16.887794 -1.7179781 2 3204672048080 1 0
31.403658 -56.60709 1.5063349 48 3204672048080 1 0
13.994771 -32.32195 0.4100455 23 3204672050384 1 0
8.089241 -14.586372 -1.1663282 78 3204672050384 1 1
7.245708 -14.723061 -1.3395847 75 3204672052688 1 1
29.112091 -46.9469 1.6076592 26 3204672052688 1 0
19.919474 -40.490635 0.787662 16 3204672054992 1 0
8.930237 -14.405804 -1.0862548 64 3204672054992 1 1
6.9171653 -15.994837 -1.0148747 7 3204672057296 1 1
28.454378 -51.36124 3.4195046 53 3204672057296 1 0
19.885408 -40.45109 1.8363868 19 3204672059600 1 0
7.251265 -14.756016 -0.86165917 92 3204672061904 1 1
8.082033 -14.593386 -0.77706975 85 3204672059600 1 1
19.320032 -34.89734 4.897685 7 3204672061904 1 0
19.767931 -40.24168 3.6600995 26 3204672064208 1 0
8.939059 -14.438787 -0.6918609 75 3204672064208 1 1
8.587138 -19.888132 -0.75648147 69 3204672066512 1 1
0 0 0 9 3204672066512 1 0
13.901411 -28.31999 5.752001 31 3204672068816 1 0
8.260097 -14.935403 -0.39714834 1 3204672068816 1 1
0 0 0 4 3204672089552 1 0
9.026974 -14.633048 -0.3001116 36 3204672089552 1 1
7.530584 -15.397902 -0.49884447 4 3204672091856 1 1
2.9079564 -5.276094 -1.6864635 2 3204672091856 1 0
3.7245066 -7.6183634 -1.6960223 6 3204672094160 1 0
18.49398 -33.566376 0 5 3204672094160 1 0
10.831995 -25.218218 -0.31952444 30 3204672096464 1 1
5.159878 -9.368346 -1.6639459 13 3204672096464 1 0
4.8176303 -9.861584 -1.3970317 3 3204672098768 1 0
11.392618 -18.491909 0.12623477 74 3204672098768 1 1
16.60099 -33.994396 -0.21987632 47 3204672101072 1 0
7.3273587 -13.312818 -1.6368713 4 3204672101072 1 0
7.263858 -16.931524 -1.7198371 2 3204672103376 1 0
31.221292 -56.744392 1.5070792 48 3204672103376 1 0
8.026738 -14.593542 -1.1646541 75 3204672105680 1 1
13.87398 -32.352222 0.4098127 23 3204672105680 1 0
7.194271 -14.748263 -1.3395847 67 3204672107984 1 1
29.121944 -47.330875 1.6173173 26 3204672107984 1 0
25.1419 -51.55995 1.0012795 78 3204672110288 1 0
8.86944 -14.419888 -1.0849757 64 3204672110288 1 1
10.916119 -25.48559 -1.6146369 7 3204672112592 1 0
28.238384 -51.393757 3.415086 80 3204672112592 1 0
8.019502 -14.600495 -0.775953 92 3204672114896 1 1
25.32173 -51.967106 2.3551605 74 3204672114896 1 0
7.1962147 -14.774055 -0.8612405 92 3204672117200 1 1
19.232494 -35.02721 4.90646 7 3204672117200 1 0
19.609888 -40.274593 3.6568449 26 3204672119504 1 0
8.876052 -14.44947 -0.690884 78 3204672119504 1 1
8.512947 -19.906958 -0.7560627 34 3204672121808 1 1
0 0 0 9 3204672121808 1 0
13.793863 -28.35065 5.748413 26 3204672124112 1 0
8.113679 -14.792345 -0.39258876 1 3204672124112 1 1
0 0 0 4 3204672144296 1 0
7.5151587 -15.503247 -0.50140446 4 3204672146600 1 1
0 0 0 36 3204672144296 1 0
3.703022 -7.641907 -1.6983757 4 3204672148904 1 0
0 0 0 23 3204672148904 1 0
10.7376375 -25.241152 -0.3193382 60 3204672151208 1 1
2.887674 -5.2828326 -1.6853851 2 3204672146600 1 0
5.12904 -9.38977 -1.6645608 12 3204672151208 1 0
4.77799 -9.867626 -1.3955164 3 3204672153512 1 0
11.551222 -18.896736 0.12872227 25 3204672153512 1 1
16.466541 -34.019733 -0.21966709 42 3204672155816 1 0
7.2846546 -13.345296 -1.6377281 4 3204672155816 1 0
7.209384 -16.967773 -1.7209524 2 3204672158120 1 0
30.977057 -56.768784 1.504846 48 3204672158120 1 0
13.765655 -32.4115 0.40995237 50 3204672160424 1 0
7.9623723 -14.596951 -1.1627009 78 3204672160424 1 1
7.142746 -14.773286 -1.3395847 71 3204672162728 1 1
29.127388 -47.71208 1.6268591 27 3204672162728 1 0
24.939144 -51.60059 1.0003719 13 3204672165032 1 0
8.812813 -14.440537 -1.0842083 65 3204672165032 1 1
10.845803 -25.567654 -1.6174276 7 3204672167336 1 0
28.037798 -51.453445 3.412528 79 3204672167336 1 0
25.119318 -52.01199 2.3532064 74 3204672169640 1 0
7.960842 -14.614365 -0.77520853 89 3204672169640 1 1
7.1393895 -14.788293 -0.86061245 94 3204672171944 1 1
19.093021 -35.062748 4.9020724 7 3204672171944 1 0
19.46052 -40.32485 3.6552176 39 3204672174248 1 0
8.811 -14.456475 -0.6897442 72 3204672174248 1 1
8.6679 -20.466623 -0.7761648 75 3204672176552 1 1
0 0 0 9 3204672176552 1 0
13.686271 -28.380905 5.744826 26 3204672178856 1 0
8.081103 -14.855705 -0.39351928 1 3204672178856 1 1
0 0 0 4 3204672199592 1 0
0 0 0 7 3204672199592 1 0
7.5615373 -15.738359 -0.50815344 6 3204672201896 1 1
3.6798317 -7.6618047 -1.6999447 4 3204672204200 1 0
2.8894477 -5.330109 -1.6972464 2 3204672201896 1 0
18.22157 -33.62407 0 73 3204672204200 1 0
10.614298 -25.193472 -0.31826723 45 3204672206504 1 1
5.09832 -9.41098 -1.6651758 12 3204672206504 1 0
4.738653 -9.873375 -1.3940012 25 3204672208808 1 0
11.417287 -18.823748 0.1279551 31 3204672208808 1 1
16.333357 -34.043957 -0.21945786 26 3204672211112 1 0
7.244193 -13.380872 -1.6390133 4 3204672211112 1 0
30.564207 -56.474297 1.494238 46 3204672213416 1 0
7.1539426 -16.999866 -1.7216959 2 3204672213416 1 0
13.646332 -32.440224 0.40971956 23 3204672215720 1 0
7.9330015 -14.662858 -1.1657702 18 3204672215720 1 1
7.088549 -14.790526 -1.3389338 71 3204672218024 1 1
29.133318 -48.092197 1.6364007 27 3204672218024 1 0
0 0 0 43 3204672220328 1 0
8.748824 -14.446737 -1.0824174 67 3204672220328 1 1
10.797023 -25.69661 -1.6232414 11 3204672222632 1 0
27.823795 -51.478718 3.407877 79 3204672222632 1 0
24.917616 -52.046894 2.3509269 74 3204672224936 1 0
7.910951 -14.641431 -0.77520853 89 3204672224936 1 1
7.09764 -14.830521 -0.86165917 42 3204672227240 1 1
18.977352 -35.134514 4.9030476 7 3204672227240 1 0
19.314857 -40.372723 3.6535902 39 3204672229544 1 0
8.749443 -14.465796 -0.6887672 76 3204672229544 1 1
0 0 0 32 3204672231848 1 0
0 0 0 9 3204672231848 1 0
13.573248 -28.391521 5.7376513 21 3204672234152 1 0
8.025125 -14.872389 -0.39324012 1 3204672234152 1 1
0 0 0 4 3204672254888 1 0
8.871686 -14.718375 -0.29997197 1 3204672254888 1 1
0 0 0 22 3204672257192 1 0
3.65092 -7.666936 -1.6983757 5 3204672259496 1 0
2.8552973 -5.3091507 -1.6875417 2 3204672257192 1 0
18.090536 -33.64934 0 52 3204672259496 1 0
10.551714 -25.280436 -0.31891912 35 3204672261800 1 1
5.0668783 -9.427946 -1.6651758 12 3204672261800 1 0
4.7004833 -9.878422 -1.392486 65 3204672264104 1 0
11.640998 -19.338179 0.13118652 18 3204672264104 1 1
15.272446 -32.10824 -0.20664841 48 3204672266408 1 0
7.199293 -13.405082 -1.6390133 4 3204672266408 1 0
7.101384 -17.034834 -1.7228112 2 3204672268712 1 0
30.003553 -55.88611 1.4759997 45 3204672268712 1 0
13.792414 -33.09886 0.41744924 83 3204672271016 1 0
0 0 0 3 3204672271016 1 0
18.977438 -31.567118 1.071928 60 3204672273320 1 0
7.040312 -14.817962 -1.3392593 67 3204672273320 1 1
8.689641 -14.459132 -1.0811383 67 3204672275624 1 1
15.248265 -32.10554 0.62039816 52 3204672275624 1 0
27.617107 -51.512882 3.4039235 79 3204672277928 1 0
24.723577 -52.095108 2.3492985 73 3204672280232 1 0
10.72062 -25.75886 -1.6248693 11 3204672277928 1 0
7.863069 -14.671735 -0.7753946 71 3204672280232 1 1
7.0437007 -14.847373 -0.8612405 9 3204672282536 1 1
18.844542 -35.1744 4.8996353 7 3204672282536 1 0
19.141174 -40.362717 3.6467557 26 3204672284840 1 0
8.691827 -14.481846 -0.6881159 75 3204672284840 1 1
10.462614 -25.180223 -0.95219785 3 3204672287144 1 1
0 0 0 9 3204672287144 1 0
13.464126 -28.412952 5.732629 26 3204672289448 1 0
7.9703627 -14.892738 -0.393054 2 3204672289448 1 1
0 0 0 4 3204672310184 1 0
8.791517 -14.701199 -0.29899463 1 3204672310184 1 1
8.852088 -18.75073 -0.60345405 82 3204672312488 1 1
2.8367476 -5.319085 -1.6875417 2 3204672312488 1 0
3.6291568 -7.6902747 -1.7007291 5 3204672314792 1 0
14.37875 -26.970533 0 29 3204672314792 1 0
13.862597 -33.541756 -0.42252475 15 3204672317096 1 0
5.0432324 -9.463015 -1.6682503 12 3204672317096 1 0
4.6625876 -9.887591 -1.3914758 57 3204672319400 1 0
15.134691 -32.10708 -0.20629969 53 3204672321704 1 0
11.686225 -19.567572 0.13246514 18 3204672319400 1 1
7.1580653 -13.440661 -1.6402984 5 3204672321704 1 0
7.041878 -17.059519 -1.7228112 2 3204672324008 1 0
29.708693 -55.803417 1.4710679 44 3204672324008 1 0
13.824774 -33.505447 0.421966 19 3204672326312 1 0
7.781647 -14.621808 -1.1582365 3 3204672326312 1 1
6.990243 -14.846054 -1.3395847 70 3204672328616 1 1
18.828218 -31.567924 1.0697172 78 3204672328616 1 0
15.119072 -32.122387 0.6197001 35 3204672330920 1 0
10.630639 -25.796124 -1.6248693 7 3204672333224 1 0
27.416506 -51.570187 3.4013653 52 3204672333224 1 0
24.517769 -52.13046 2.347019 73 3204672335528 1 0
8.630939 -14.475662 -1.080115 64 3204672330920 1 1
7.7893057 -14.656753 -0.7731612 82 3204672335528 1 1
0 0 0 104 3204672337832 1 0
18.691843 -35.18387 4.891835 7 3204672337832 1 0
18.984903 -40.396816 3.6438265 26 3204672340136 1 0
8.633043 -14.498362 -0.68746454 75 3204672340136 1 1
10.386823 -25.246166 -0.95331466 3 3204672342440 1 1
0 0 0 9 3204672342440 1 0
13.351482 -28.431284 5.726889 31 3204672344744 1 0
7.8677144 -14.825097 -0.39054158 4 3204672344744 1 1
0 0 0 4 3204672365480 1 0
8.7095375 -14.680203 -0.2979475 1 3204672365480 1 1
8.771197 -18.748985 -0.6024068 100 3204672367784 1 1
2.8163238 -5.32557 -1.6864635 2 3204672367784 1 0
3.6021788 -7.702948 -1.7007291 6 3204672370088 1 0
17.875252 -33.813976 0 31 3204672370088 1 0
16.556044 -40.460804 -0.50894815 76 3204672372392 1 0
5.0062695 -9.473681 -1.6670204 12 3204672372392 1 0
4.622718 -9.893157 -1.3899606 59 3204672374696 1 0
15.009505 -32.13489 -0.20613696 58 3204672377000 1 0
11.541843 -19.481255 0.13160497 15 3204672374696 1 1
7.1161866 -13.476375 -1.6415836 4 3204672377000 1 0
6.9890738 -17.102734 -1.7246702 2 3204672379304 1 0
29.52435 -55.932823 1.4717193 44 3204672379304 1 0
16.520737 -40.444992 0.5086222 13 3204672381608 1 0
7.724228 -14.638688 -1.1573994 13 3204672381608 1 1
6.9408836 -14.877994 -1.3402356 57 3204672383912 1 1
18.693676 -31.596691 1.0684371 69 3204672383912 1 0
14.987843 -32.1397 0.6190019 23 3204672386216 1 0
8.573311 -14.495955 -1.0793475 65 3204672386216 1 1
10.396869 -25.486284 -1.6030091 10 3204672388520 1 0
27.197191 -51.600433 3.3969467 52 3204672388520 1 0
21.937826 -47.080677 2.1161273 71 3204672390824 1 0
7.725747 -14.663261 -0.7720444 80 3204672390824 1 1
6.948695 -14.918516 -0.86249655 33 3204672393128 1 1
18.576939 -35.271595 4.89476 7 3204672393128 1 0
18.823124 -40.42848 3.640572 39 3204672395432 1 0
8.574911 -14.518896 -0.6869761 76 3204672395432 1 1
0 0 0 86 3204672397736 1 0
0 0 0 9 3204672397736 1 0
13.239091 -28.457752 5.7225842 21 3204672400040 1 0
0 0 0 89 3204672400040 1 0
0 0 0 4 3204672420776 1 0
8.635393 -14.677556 -0.29724938 1 3204672420776 1 1
8.694287 -18.762743 -0.60182494 100 3204672423080 1 1
2.8004398 -5.3426394 -1.6886201 2 3204672423080 1 0
3.5708492 -7.708877 -1.6991602 5 3204672425384 1 0
17.681635 -33.74411 0 52 3204672425384 1 0
14.058341 -34.71491 -0.43602842 12 3204672427688 1 0
4.975595 -9.498753 -1.6682503 12 3204672427688 1 0
4.5836697 -9.902565 -1.3889505 60 3204672429992 1 0
12.62972 -27.295153 -0.17479911 32 3204672432296 1 0
7.071416 -13.5089 -1.6424403 4 3204672432296 1 0
6.9338107 -17.142399 -1.7261572 2 3204672434600 1 0
29.314766 -56.020386 1.471254 29 3204672434600 1 0
16.372015 -40.49248 0.5084825 45 3204672436904 1 0
11.627533 -19.788305 0.13339505 35 3204672429992 1 1
7.666467 -14.655513 -1.1565623 12 3204672436904 1 1
6.9081125 -14.945958 -1.3441411 37 3204672439208 1 1
18.563213 -31.631798 1.0673898 67 3204672439208 1 0
14.862416 -32.167057 0.6185133 23 3204672441512 1 0
8.503845 -14.495178 -1.077045 65 3204672441512 1 1
10.245791 -25.37091 -1.5934743 10 3204672443816 1 0
26.993208 -51.65337 3.394156 78 3204672443816 1 0
7.6632013 -14.669003 -0.77092767 89 3204672446120 1 1
21.760937 -47.13188 2.1149874 71 3204672446120 1 0
0 0 0 8 3204672448424 1 0
18.46657 -35.360863 4.898173 7 3204672448424 1 0
18.665775 -40.457462 3.6373174 26 3204672450728 1 0
8.504186 -14.514132 -0.6853478 76 3204672450728 1 1
10.181571 -25.252071 -0.9508019 18 3204672453032 1 1
0 0 0 9 3204672453032 1 0
13.13268 -28.485352 5.718997 21 3204672455336 1 0
7.757502 -14.869534 -0.39026242 77 3204672455336 1 1
0 0 0 4 3204672476072 1 0
8.5725565 -14.681935 -0.2967607 1 3204672476072 1 1
8.625208 -18.777 -0.60135955 100 3204672478376 1 1
3.5517006 -7.734986 -1.702298 5 3204672480680 1 0
2.7826686 -5.351917 -1.6886201 2 3204672478376 1 0
14.060482 -27.05219 0 25 3204672480680 1 0
4.9475055 -9.522323 -1.6694801 12 3204672482984 1 0
13.857517 -34.55004 -0.43337426 42 3204672482984 1 0
4.542244 -9.89981 -1.3864251 58 3204672485288 1 0
18.464186 -31.665295 0.21304151 64 3204672485288 1 0
14.757622 -32.176548 -0.20574175 47 3204672487592 1 0
7.033418 -13.546649 -1.6441538 4 3204672487592 1 0
29.546398 -56.927807 1.49247 31 3204672489896 1 0
6.8687725 -17.147112 -1.7242984 2 3204672489896 1 0
16.219227 -40.50653 0.50797033 13 3204672492200 1 0
7.6170783 -14.681243 -1.1565623 6 3204672492200 1 1
6.884208 -15.027175 -1.3493484 12 3204672494504 1 1
18.432228 -31.652794 1.0659935 67 3204672494504 1 0
14.735239 -32.177135 0.6177454 17 3204672496808 1 0
8.442731 -14.503153 -1.07551 65 3204672496808 1 1
10.150858 -25.38324 -1.5920789 10 3204672499112 1 0
26.79412 -51.69846 3.3911328 52 3204672499112 1 0
21.58079 -47.161903 2.1130335 57 3204672501416 1 0
6.892206 -15.067778 -0.8683582 4 3204672503720 1 1
7.604149 -14.677204 -0.76999706 92 3204672501416 1 1
18.335161 -35.402355 4.895248 7 3204672503720 1 0
8.440573 -14.518866 -0.684208 76 3204672506024 1 1
18.517733 -40.499138 3.6353648 26 3204672506024 1 0
10.1040945 -25.309 -0.9516395 15 3204672508328 1 1
0 0 0 9 3204672508328 1 0
13.025224 -28.50869 5.714692 30 3204672510632 1 0
7.6936626 -14.871156 -0.38961107 83 3204672510632 1 1
0 0 0 4 3204672531368 1 0
8.531278 -14.729074 -0.29710975 1 3204672531368 1 1
8.55285 -18.7925 -0.6008941 100 3204672533672 1 1
2.763931 -5.3616176 -1.6886201 2 3204672533672 1 0
3.524566 -7.747388 -1.702298 5 3204672535976 1 0
17.417572 -33.80019 0 42 3204672535976 1 0
13.023223 -32.802963 -0.41088367 36 3204672538280 1 0
4.914028 -9.539641 -1.6694801 12 3204672538280 1 0
4.509013 -9.919349 -1.3869302 18 3204672540584 1 0
18.330587 -31.692 0.21278578 75 3204672540584 1 0
14.620877 -32.177414 -0.20541628 52 3204672542888 1 0
6.983775 -13.567835 -1.6437255 4 3204672542888 1 0
20.511688 -39.864353 1.0432123 65 3204672545192 1 0
0 0 0 67 3204672547496 1 0
7.5522604 -14.683288 -1.1546092 20 3204672547496 1 1
6.81987 -17.2009 -1.7272725 2 3204672545192 1 0
0 0 0 9 3204672549800 1 0
18.297785 -31.679922 1.0647136 67 3204672549800 1 0
14.610807 -32.207478 0.6173265 23 3204672552104 1 0
8.3771305 -14.508885 -1.0737191 64 3204672552104 1 1
10.279303 -25.972486 -1.6267298 11 3204672554408 1 0
20.461864 -39.827305 2.6076515 39 3204672554408 1 0
21.397404 -47.2059 2.111568 56 3204672556712 1 0
7.548043 -14.697154 -0.76962477 85 3204672556712 1 1
0 0 0 34 3204672559016 1 0
18.204752 -35.460663 4.894273 7 3204672559016 1 0
18.354324 -40.52532 3.6317847 26 3204672561320 1 0
8.378484 -14.531721 -0.68339384 76 3204672561320 1 1
10.678494 -27.029358 -1.0148773 36 3204672563624 1 0
0 0 0 9 3204672563624 1 0
12.914403 -28.537468 5.7111044 25 3204672565928 1 0
7.640081 -14.898754 -0.38961107 64 3204672565928 1 1
0 0 0 4 3204672586664 1 0
8.467277 -14.742903 -0.2967607 1 3204672586664 1 1
8.47748 -18.809078 -0.60042864 100 3204672588968 1 1
2.7425478 -5.368262 -1.6875417 3 3204672588968 1 0
3.497871 -7.763779 -1.7030826 4 3204672591272 1 0
17.27951 -33.83505 0 47 3204672591272 1 0
10.844659 -27.60846 -0.3453211 25 3204672593576 1 0
4.873848 -9.546921 -1.6676353 19 3204672593576 1 0
0 0 0 22 3204672595880 1 0
18.19533 -31.723745 0.2125533 53 3204672595880 1 0
14.500732 -32.222965 -0.20536979 66 3204672598184 1 0
6.9399157 -13.603717 -1.6450107 4 3204672598184 1 0
6.7880754 -17.303345 -1.7350799 2 3204672600488 1 0
20.345383 -39.895626 1.0420957 29 3204672600488 1 0
13.167782 -33.58009 0.41991717 71 3204672602792 1 0
7.4918923 -14.696268 -1.153493 3 3204672602792 1 1
6.8909135 -15.330592 -1.3721305 1 3204672605096 1 1
18.169485 -31.72143 1.063899 45 3204672605096 1 0
14.48494 -32.237976 0.61690766 17 3204672607400 1 0
10.239809 -26.146824 -1.6353344 11 3204672609704 1 0
20.30597 -39.87565 2.6060236 52 3204672609704 1 0
8.314931 -14.521626 -1.07244 67 3204672607400 1 1
21.237846 -47.304184 2.112545 28 3204672612008 1 0
6.8414516 -15.244263 -0.8756852 45 3204672614312 1 1
7.4880514 -14.709877 -0.7688803 89 3204672612008 1 1
18.070557 -35.511417 4.892323 7 3204672614312 1 0
18.194818 -40.55786 3.6288555 25 3204672616616 1 0
8.318607 -14.5476675 -0.68274254 78 3204672616616 1 1
10.6024885 -27.119362 -1.0168318 40 3204672618920 1 0
0 0 0 9 3204672618920 1 0
12.803182 -28.561666 5.7067995 25 3204672621224 1 0
0 0 0 8 3204672621224 1 0
0 0 0 4 3204672641960 1 0
8.400634 -18.812878 -0.5996141 85 3204672644264 1 1
8.411803 -14.765419 -0.2966211 1 3204672641960 1 1
2.725611 -5.381199 -1.6886201 2 3204672644264 1 0
17.167706 -33.90537 0 21 3204672646568 1 0
3.4693763 -7.7722588 -1.702298 4 3204672646568 1 0
10.7610235 -27.675499 -0.34569362 5 3204672648872 1 0
4.8409104 -9.563664 -1.6676353 17 3204672648872 1 0
4.42747 -9.925607 -1.3833947 2 3204672651176 1 0
18.220846 -32.02242 0.21413414 22 3204672651176 1 0
14.37748 -32.243114 -0.2051838 52 3204672653480 1 0
6.898764 -13.638004 -1.6462958 5 3204672653480 1 0
6.73203 -17.333773 -1.7358234 2 3204672655784 1 0
20.189634 -39.925385 1.041072 21 3204672655784 1 0
0 0 0 43 3204672658088 1 0
7.431245 -14.700206 -1.1518189 3 3204672658088 1 1
0 0 0 57 3204672660392 1 0
18.238167 -32.091938 1.0742552 9 3204672660392 1 0
14.366785 -32.264538 0.6164888 23 3204672662696 1 0
8.258207 -14.535597 -1.0714167 68 3204672662696 1 1
10.155173 -26.188377 -1.6357995 7 3204672665000 1 0
20.150862 -39.900578 2.6032329 64 3204672665000 1 0
23.294779 -52.35166 2.3344812 72 3204672667304 1 0
7.433614 -14.724035 -0.76832193 87 3204672667304 1 1
6.852553 -15.405556 -0.8836403 33 3204672669608 1 1
17.954487 -35.57469 4.8928103 7 3204672669608 1 0
18.049477 -40.59221 3.6265774 25 3204672671912 1 0
8.264614 -14.564624 -0.682254 81 3204672671912 1 1
10.504629 -27.131699 -1.0159942 44 3204672674216 1 0
0 0 0 9 3204672674216 1 0
12.693666 -28.567451 5.699625 30 3204672676520 1 0
0 0 0 1 3204672676520 1 0
0 0 0 4 3204672697256 1 0
8.355531 -14.774366 -0.29627204 1 3204672697256 1 1
8.34931 -18.857576 -0.6001959 27 3204672699560 1 1
2.7103434 -5.393216 -1.6896983 2 3204672699560 1 0
17.05473 -33.948906 0 21 3204672701864 1 0
15.652697 -40.63881 -0.50699246 10 3204672704168 1 0
4.8192925 -9.596696 -1.67071 13 3204672704168 1 0
4.3924785 -9.932465 -1.3823845 2 3204672706472 1 0
3.4494777 -7.7939806 -1.7046515 5 3204672701864 1 0
14.262445 -32.263554 -0.20502107 76 3204672708776 1 0
18.309092 -32.418392 0.21638916 16 3204672706472 1 0
6.8566756 -13.663663 -1.6467242 4 3204672708776 1 0
6.6960444 -17.40746 -1.7410283 4 3204672711080 1 0
20.040892 -39.951046 1.0400485 21 3204672711080 1 0
0 0 0 21 3204672713384 1 0
7.3871045 -14.731365 -1.1523769 2 3204672713384 1 1
7.128863 -16.145485 -1.4408021 40 3204672715688 1 0
18.288689 -32.426308 1.0834478 9 3204672715688 1 0
14.251433 -32.28943 0.61607 28 3204672717992 1 0
8.200793 -14.545158 -1.0701375 67 3204672717992 1 1
10.070468 -26.225344 -1.6360321 7 3204672720296 1 0
20.001715 -39.930897 2.6009073 77 3204672720296 1 0
22.687983 -51.444595 2.2906802 66 3204672722600 1 0
7.381383 -14.741352 -0.76794964 85 3204672722600 1 1
6.906165 -15.665777 -0.8972476 14 3204672724904 1 1
17.83464 -35.630486 4.892323 7 3204672724904 1 0
17.8981 -40.61562 3.6233227 25 3204672727208 1 0
8.2023325 -14.567692 -0.6811142 76 3204672727208 1 1
0 0 0 9 3204672729512 1 0
12.592857 -28.599133 5.6974726 25 3204672731816 1 0
7.5773115 -15.154656 -0.3942637 1 3204672731816 1 1
0 0 0 4 3204672752552 1 0
8.309777 -14.813907 -0.2964815 1 3204672752552 1 1
10.555465 -27.536226 -1.0298144 37 3204672729512 1 0
8.488995 -19.355293 -0.61509025 83 3204672754856 1 1
3.4238255 -7.809566 -1.705436 4 3204672757160 1 0
16.920073 -33.976006 0 15 3204672757160 1 0
2.6932187 -5.406092 -1.6907767 2 3204672754856 1 0
15.354042 -40.28208 -0.5018704 10 3204672759464 1 0
4.789287 -9.620537 -1.6719397 13 3204672759464 1 0
4.3545966 -9.940468 -1.3813744 2 3204672761768 1 0
29.184074 -52.097694 0.34706423 28 3204672761768 1 0
14.152946 -32.32047 -0.20506756 33 3204672764072 1 0
6.816024 -13.7017565 -1.6484377 5 3204672764072 1 0
6.6224885 -17.397228 -1.7376823 11 3204672766376 1 0
19.88529 -39.988533 1.039211 21 3204672766376 1 0
15.460043 -40.631187 0.50610775 6 3204672768680 1 0
8.264252 -18.895145 -1.6835936 28 3204672770984 1 0
0 0 0 100 3204672768680 1 0
36.405434 -65.07761 2.1701539 69 3204672770984 1 0
14.125818 -32.30966 0.6155115 28 3204672773288 1 0
8.138281 -14.552792 -1.0686026 67 3204672773288 1 1
9.994466 -26.301397 -1.6385902 11 3204672775592 1 0
19.846224 -39.96828 2.5988142 64 3204672775592 1 0
22.40587 -51.289078 2.2802591 43 3204672777896 1 0
7.326328 -14.75987 -0.7675774 89 3204672777896 1 1
17.671335 -35.61428 4.8815985 7 3204672780200 1 0
6.97293 -15.968002 -0.91315776 78 3204672780200 1 1
17.759407 -40.685154 3.6239736 25 3204672782504 1 0
8.143637 -14.582277 -0.6804629 78 3204672782504 1 1
10.517412 -27.726149 -1.0355378 37 3204672784808 1 0
0 0 0 9 3204672784808 1 0
12.478792 -28.610455 5.6910152 30 3204672787112 1 0
0 0 0 4 3204672808296 1 0
7.6078315 -15.349413 -0.39863718 2 3204672787112 1 1
8.241176 -14.824732 -0.29606262 1 3204672808296 1 1
8.570616 -19.747187 -0.62649375 20 3204672810600 1 1
3.395375 -7.8262534 -1.7062204 5 3204672812904 1 0
2.672441 -5.4163933 -1.6907767 3 3204672810600 1 0
16.76118 -33.983326 0 36 3204672812904 1 0
4.7540593 -9.6424 -1.6725546 13 3204672815208 1 0
10.434154 -27.693554 -0.3445295 2 3204672815208 1 0
4.3148174 -9.953474 -1.3808693 25 3204672817512 1 0
14.012837 -32.33787 -0.20483509 80 3204672819816 1 0
29.073126 -52.37024 0.34813362 28 3204672817512 1 0
6.766878 -13.734962 -1.6492945 7 3204672819816 1 0
6.559847 -17.43371 -1.7387977 13 3204672822120 1 0
19.736898 -40.075356 1.0394901 21 3204672822120 1 0
15.491185 -41.188164 0.5123008 13 3204672824424 1 0
7.280683 -14.788699 -1.152656 86 3204672824424 1 1
8.190055 -18.92308 -1.6832682 38 3204672826728 1 0
36.240585 -65.37077 2.1752737 69 3204672826728 1 0
13.992126 -32.34164 0.61509264 28 3204672829032 1 0
8.074602 -14.569967 -1.0675793 65 3204672829032 1 1
9.8976145 -26.350794 -1.6392878 11 3204672831336 1 0
19.715519 -40.090775 2.6018374 25 3204672831336 1 0
7.2678375 -14.784307 -0.76739126 89 3204672833640 1 1
0 0 0 51 3204672835944 1 0
17.534456 -35.681873 4.8815985 7 3204672835944 1 0
17.595152 -40.73475 3.6223464 25 3204672838248 1 0
22.12789 -51.187637 2.2719548 63 3204672833640 1 0
10.168076 -27.11877 -1.0113875 40 3204672840552 1 0
8.0779085 -14.595955 -0.67964876 76 3204672838248 1 1
0 0 0 9 3204672840552 1 0
12.361048 -28.640093 5.687428 30 3204672842856 1 0
7.6069875 -15.496974 -0.40170792 4 3204672842856 1 1
0 0 0 4 3204672863592 1 0
0 0 0 72 3204672863592 1 0
8.560058 -19.912893 -0.6307991 30 3204672865896 1 1
2.653518 -5.425689 -1.6907767 2 3204672865896 1 0
3.3680356 -7.8380575 -1.7062204 4 3204672868200 1 0
16.623129 -34.002098 0 52 3204672868200 1 0
10.329039 -27.707321 -0.3442501 2 3204672870504 1 0
4.720372 -9.6589365 -1.6725546 13 3204672870504 1 0
4.2831783 -9.975767 -1.3818794 64 3204672872808 1 0
18.433744 -33.480087 0.22213134 11 3204672872808 1 0
10.807856 -25.182219 -0.15926968 37 3204672875112 1 1
6.7380896 -13.79781 -1.6540068 13 3204672875112 1 0
6.498952 -17.456503 -1.7387977 24 3204672877416 1 0
15.504948 -41.665577 0.51756257 6 3204672879720 1 0
7.1975174 -14.749475 -1.1476336 76 3204672879720 1 1
8.130234 -18.96621 -1.6845701 38 3204672882024 1 0
19.837223 -40.63633 1.0522383 14 3204672877416 1 0
13.868121 -32.36455 0.61460394 28 3204672884328 1 0
31.18076 -56.709774 1.8834375 35 3204672882024 1 0
8.014081 -14.580573 -1.0663002 62 3204672884328 1 1
9.847304 -26.497477 -1.6462646 11 3204672886632 1 0
21.931774 -51.224148 2.2701635 42 3204672888936 1 0
25.330166 -51.965225 3.3667145 25 3204672886632 1 0
7.2039347 -14.784442 -0.7660884 92 3204672888936 1 1
0 0 0 8 3204672891240 1 0
17.411535 -35.74643 4.882086 7 3204672891240 1 0
17.443445 -40.773926 3.6203935 25 3204672893544 1 0
8.023064 -14.617056 -0.6793231 78 3204672893544 1 1
10.065009 -27.13161 -1.0105498 44 3204672895848 1 0
0 0 0 9 3204672895848 1 0
12.250173 -28.657738 5.6824055 25 3204672898152 1 0
7.598335 -15.616926 -0.40412727 4 3204672898152 1 1
0 0 0 4 3204672918888 1 0
8.116373 -14.843305 -0.2952947 66 3204672918888 1 1
8.7038 -20.44284 -0.6466244 65 3204672921192 1 1
2.6312811 -5.427948 -1.6886201 3 3204672921192 1 0
3.3378112 -7.842451 -1.7046515 5 3204672923496 1 0
16.484396 -34.016243 0 47 3204672923496 1 0
4.690496 -9.682264 -1.6737845 15 3204672925800 1 0
4.2395935 -9.968501 -1.378849 60 3204672928104 1 0
0 0 0 14 3204672928104 1 0
10.721722 -25.219011 -0.15926968 20 3204672930408 1 1
10.277764 -27.862843 -0.34574017 2 3204672925800 1 0
6.6856914 -13.81002 -1.6527216 18 3204672930408 1 0
6.4450107 -17.493467 -1.7402847 26 3204672932712 1 0
24.985851 -51.628212 1.3346529 33 3204672932712 1 0
19.51869 -53.00029 0.65753496 9 3204672935016 1 0
7.142279 -14.763004 -1.1467965 82 3204672935016 1 1
8.075541 -19.015553 -1.6865228 40 3204672937320 1 0
30.74416 -56.36537 1.8685431 50 3204672937320 1 0
13.759306 -32.41096 0.61460394 97 3204672939624 1 0
7.9459386 -14.572369 -1.0637418 64 3204672939624 1 1
9.757232 -26.526522 -1.646032 11 3204672941928 1 0
25.159664 -52.056858 3.3671796 77 3204672941928 1 0
21.742311 -51.25276 2.2682097 42 3204672944232 1 0
7.1546526 -14.808354 -0.7660884 85 3204672944232 1 1
10.640462 -25.091705 -1.428353 4 3204672946536 1 0
17.284267 -35.7861 4.8796487 7 3204672946536 1 0
17.300953 -40.812943 3.6187663 25 3204672948840 1 0
9.990931 -27.205826 -1.0120854 32 3204672951144 1 0
7.967115 -14.629425 -0.6786718 78 3204672948840 1 1
0 0 0 9 3204672951144 1 0
12.14865 -28.679556 5.678818 30 3204672953448 1 0
7.6497173 -15.854201 -0.40961736 9 3204672953448 1 1
8.050624 -14.833579 -0.2945966 58 3204672974184 1 1
0 0 0 4 3204672974184 1 0
2.617396 -5.4432063 -1.6907767 2 3204672976488 1 0
3.3172736 -7.863933 -1.7070049 5 3204672978792 1 0
16.361605 -34.03997 0 42 3204672978792 1 0
10.60396 -25.126534 -0.7937061 38 3204672976488 1 1
10.132862 -27.745602 -0.34387758 2 3204672981096 1 0
4.659209 -9.697358 -1.6737845 13 3204672981096 1 0
4.199389 -9.963979 -1.3763236 60 3204672983400 1 0
18.203619 -33.592113 0.2220616 34 3204672983400 1 0
13.915341 -33.031986 -0.20832223 14 3204672985704 1 0
6.384236 -17.507261 -1.7395412 23 3204672988008 1 0
24.778175 -51.635075 1.3326988 33 3204672988008 1 0
6.6402617 -13.831922 -1.6527216 22 3204672985704 1 0
17.42236 -47.800472 0.5922983 8 3204672990312 1 0
7.085951 -14.772424 -1.1456803 82 3204672990312 1 1
8.014422 -19.050043 -1.6871737 40 3204672992616 1 0
30.433922 -56.247246 1.8612124 33 3204672992616 1 0
13.895418 -33.043785 0.6257037 100 3204672994920 1 0
7.901994 -14.609861 -1.0645093 30 3204672994920 1 1
9.668854 -26.567362 -1.6464971 11 3204672997224 1 0
24.939425 -52.05648 3.3615983 51 3204672997224 1 0
7.101624 -14.829428 -0.7659023 85 3204672999528 1 1
21.557026 -51.30929 2.2673955 21 3204672999528 1 0
17.150673 -35.82831 4.877211 7 3204673001832 1 0
10.583743 -25.202353 -1.4325398 4 3204673001832 1 0
17.149479 -40.8552 3.617139 25 3204673004136 1 0
7.90228 -14.63276 -0.67753196 78 3204673004136 1 1
0 0 0 9 3204673006440 1 0
12.03835 -28.704695 5.675231 25 3204673008744 1 0
8.959052 -18.738836 -0.483315 69 3204673008744 1 1
0 0 0 4 3204673029480 1 0
7.9803486 -14.8397255 -0.29410794 63 3204673029480 1 1
9.895683 -27.24487 -1.012225 48 3204673006440 1 0
10.513931 -25.181671 -0.7941716 76 3204673031784 1 1
2.5982118 -5.4566565 -1.691855 2 3204673031784 1 0
3.2872832 -7.876517 -1.7070049 4 3204673034088 1 0
15.286266 -32.115616 0 45 3204673034088 1 0
10.027465 -27.783867 -0.34387758 2 3204673036392 1 0
4.6240616 -9.718544 -1.6743994 13 3204673036392 1 0
18.063213 -33.636044 0.22189887 17 3204673038696 1 0
4.158625 -9.972463 -1.3753135 59 3204673038696 1 0
6.5846944 -13.849654 -1.6518649 20 3204673041000 1 0
13.872377 -33.27985 -0.20955436 24 3204673041000 1 0
6.3211966 -17.538588 -1.7402847 17 3204673043304 1 0
15.27718 -32.144703 0.8281678 51 3204673043304 1 0
17.251698 -47.887836 0.5925777 8 3204673045608 1 0
7.0306835 -14.798807 -1.1456803 81 3204673045608 1 1
7.9510984 -19.098154 -1.688801 40 3204673047912 1 0
29.957846 -55.863342 1.8448054 31 3204673047912 1 0
13.788136 -33.13202 0.6264018 36 3204673050216 1 0
0 0 0 31 3204673050216 1 0
9.578752 -26.625444 -1.6478924 11 3204673052520 1 0
24.721264 -52.094143 3.35811 51 3204673052520 1 0
21.372679 -51.39934 2.267884 63 3204673054824 1 0
7.0470076 -14.855459 -0.7659023 17 3204673054824 1 1
17.022644 -35.8981 4.878186 7 3204673057128 1 0
16.997158 -40.910175 3.6164882 25 3204673059432 1 0
10.483635 -25.222532 -1.431493 4 3204673057128 1 0
7.8374906 -14.640369 -0.676555 76 3204673059432 1 1
9.78034 -27.235521 -1.0105498 44 3204673061736 1 0
0 0 0 9 3204673061736 1 0
11.92979 -28.7372 5.6730785 25 3204673064040 1 0
8.88257 -18.753088 -0.48284975 50 3204673064040 1 1
7.9209723 -14.853375 -0.29382873 55 3204673084776 1 1
0 0 0 4 3204673084776 1 0
10.465685 -25.314287 -0.797197 55 3204673087080 1 1
2.5791485 -5.4656925 -1.691855 3 3204673087080 1 0
3.261267 -7.8915687 -1.7077894 5 3204673089384 1 0
15.15359 -32.125366 0 20 3204673089384 1 0
9.926386 -27.8074 -0.3437379 2 3204673091688 1 0
4.5901093 -9.734626 -1.6743994 13 3204673091688 1 0
4.1222754 -9.983251 -1.3748084 48 3204673093992 1 0
16.687733 -40.430714 -0.2542131 63 3204673096296 1 0
17.91749 -33.645935 0.22155015 17 3204673093992 1 0
0 0 0 105 3204673096296 1 0
6.2666235 -17.579304 -1.7421436 15 3204673098600 1 0
15.134211 -32.132713 0.82649285 51 3204673098600 1 0
17.089804 -47.962837 0.59276396 8 3204673100904 1 0
6.9772835 -14.819648 -1.1454012 82 3204673100904 1 1
7.8904624 -19.140537 -1.6901028 40 3204673103208 1 0
29.835878 -56.10525 1.8493434 47 3204673103208 1 0
0 0 0 21 3204673105512 1 0
0 0 0 9 3204673105512 1 0
24.518877 -52.136757 3.3553193 51 3204673107816 1 0
9.48843 -26.666243 -1.6483575 11 3204673107816 1 0
21.156612 -51.384937 2.263976 62 3204673110120 1 0
6.9917097 -14.872736 -0.76553005 61 3204673110120 1 1
10.3484 -25.144463 -1.4250034 4 3204673112424 1 0
16.885412 -35.93215 4.8747735 7 3204673112424 1 0
16.816332 -40.877083 3.6083517 25 3204673114728 1 0
7.7807164 -14.657048 -0.6760665 76 3204673114728 1 1
9.6919 -27.288332 -1.0112479 40 3204673117032 1 0
0 0 0 9 3204673117032 1 0
11.823421 -28.764109 5.6702085 30 3204673119336 1 0
0 0 0 4 3204673140072 1 0
8.80856 -18.76588 -0.48238447 37 3204673119336 1 1
11.019493 -26.919586 -0.84653455 57 3204673142376 1 0
2.5584223 -5.471173 -1.6907767 3 3204673142376 1 0
7.8765545 -14.895077 -0.29410794 27 3204673140072 1 1
3.2337003 -7.9029045 -1.7077894 5 3204673144680 1 0
15.024422 -32.14183 0 34 3204673144680 1 0
9.871868 -27.96257 -0.34522796 2 3204673146984 1 0
0 0 0 38 3204673149288 1 0
4.559448 -9.757751 -1.6756293 13 3204673146984 1 0
16.529856 -40.44799 -0.2539574 63 3204673151592 1 0
6.491211 -13.9024935 -1.6527216 59 3204673151592 1 0
17.790594 -33.690586 0.22143391 40 3204673149288 1 0
6.210519 -17.616095 -1.7436308 16 3204673153896 1 0
15.008424 -32.156357 0.82574844 51 3204673153896 1 0
16.968803 -48.154232 0.59439373 8 3204673156200 1 0
6.9288845 -14.851146 -1.1459594 81 3204673156200 1 1
29.587635 -56.11003 1.8460853 46 3204673158504 1 0
7.825108 -19.171654 -1.6904283 34 3204673158504 1 0
22.934093 -56.2123 1.0597101 15 3204673160808 1 0
7.7118587 -14.629936 -1.0599043 3 3204673160808 1 1
9.40722 -26.733103 -1.6504506 11 3204673163112 1 0
21.938148 -47.075108 3.0246243 57 3204673163112 1 0
20.959013 -51.414063 2.2620223 41 3204673165416 1 0
6.9566245 -14.9332695 -0.76739126 22 3204673165416 1 1
10.307295 -25.295107 -1.431493 8 3204673167720 1 0
16.76491 -36.00167 4.876236 7 3204673167720 1 0
16.666023 -40.917072 3.6067243 25 3204673170024 1 0
7.7220597 -14.669971 -0.6754152 76 3204673170024 1 1
9.668125 -27.525665 -1.0187861 36 3204673172328 1 0
11.706627 -28.765112 5.6623163 25 3204673174632 1 0
0 0 0 9 3204673172328 1 0
8.734569 -18.778385 -0.4819192 33 3204673174632 1 1
0 0 0 14 3204673195368 1 0
10.916449 -26.935656 -0.84583634 57 3204673197672 1 0
2.5393088 -5.48007 -1.6907767 2 3204673197672 1 0
0 0 0 4 3204673195368 1 0
3.2060945 -7.914144 -1.7077894 5 3204673199976 1 0
13.301557 -28.716972 0 65 3204673199976 1 0
9.722785 -27.849588 -0.34341195 2 3204673202280 1 0
4.5220375 -9.766434 -1.6743994 14 3204673202280 1 0
17.646908 -33.702873 0.22110845 39 3204673204584 1 0
4.0554566 -10.019142 -1.3758186 2 3204673204584 1 0
16.381065 -40.486904 -0.25384113 63 3204673206888 1 0
6.4443126 -13.928677 -1.6531501 56 3204673206888 1 0
6.1555448 -17.65647 -1.7454896 23 3204673209192 1 0
14.880978 -32.175884 0.82491094 46 3204673209192 1 0
17.100693 -49.07432 0.6050104 8 3204673211496 1 0
6.880351 -14.882485 -1.1465174 73 3204673211496 1 1
7.756645 -19.195156 -1.6901028 26 3204673213800 1 0
29.343426 -56.120846 1.8430599 46 3204673213800 1 0
22.721258 -56.25122 1.0589422 14 3204673216104 1 0
7.6533475 -14.642615 -1.058881 3 3204673216104 1 1
9.309909 -26.754463 -1.6497529 11 3204673218408 1 0
21.755276 -47.111523 3.0220664 57 3204673218408 1 0
20.768946 -51.460964 2.2608824 41 3204673220712 1 0
6.926225 -15.004623 -0.7698109 8 3204673220712 1 1
10.211463 -25.312408 -1.4304464 12 3204673223016 1 0
16.63415 -36.049156 4.8747735 7 3204673223016 1 0
16.51713 -40.96021 3.6054225 12 3204673225320 1 0
7.6615586 -14.679122 -0.6746011 72 3204673225320 1 1
9.670353 -27.842466 -1.029256 41 3204673227624 1 0
0 0 0 9 3204673227624 1 0
11.600264 -28.7912 5.6594462 30 3204673229928 1 0
8.660598 -18.7906 -0.48145396 31 3204673229928 1 1
0 0 0 4 3204673250664 1 0
7.8553944 -15.109383 -0.29724938 3 3204673250664 1 1
2.5218515 -5.4923644 -1.691855 2 3204673252968 1 0
10.803395 -26.9252 -0.84432364 52 3204673252968 1 0
3.18014 -7.9288354 -1.7085738 4 3204673255272 1 0
14.770568 -32.18007 0 19 3204673255272 1 0
15.885735 -46.01157 -0.56668794 12 3204673257576 1 0
4.489994 -9.785556 -1.6750143 14 3204673257576 1 0
4.012185 -10.010904 -1.3727881 2 3204673259880 1 0
17.52559 -33.752598 0.2210387 16 3204673259880 1 0
16.229198 -40.50924 -0.25363192 56 3204673262184 1 0
6.398325 -13.954236 -1.6535784 48 3204673262184 1 0
6.1058035 -17.70744 -1.7484639 27 3204673264488 1 0
14.76472 -32.211803 0.82453877 41 3204673264488 1 0
18.298885 -53.091137 0.65376323 9 3204673266792 1 0
6.848161 -14.94562 -1.1495867 62 3204673266792 1 1
7.694793 -19.228622 -1.6907537 16 3204673269096 1 0
0 0 0 27 3204673269096 1 0
13.104261 -32.758846 0.6158605 17 3204673271400 1 0
9.265849 -26.91761 -1.6578923 11 3204673273704 1 0
7.598597 -14.657615 -1.0581136 2 3204673271400 1 1
21.5826 -47.151356 3.0199733 57 3204673273704 1 0
20.581114 -51.48903 2.2590911 62 3204673276008 1 0
6.906137 -15.09301 -0.7731612 29 3204673276008 1 1
10.130432 -25.353552 -1.430865 8 3204673278312 1 0
16.502954 -36.078846 4.8713613 7 3204673278312 1 0
16.372934 -40.992306 3.6034698 25 3204673280616 1 0
7.6038647 -14.686591 -0.6737869 75 3204673280616 1 1
9.417685 -27.405313 -1.0119458 36 3204673282920 1 0
0 0 0 9 3204673282920 1 0
11.49869 -28.810734 5.655859 30 3204673285224 1 0
8.592411 -18.804293 -0.48108172 24 3204673285224 1 1
7.83356 -15.183746 -0.2982267 3 3204673305960 1 1
0 0 0 4 3204673305960 1 0
10.719839 -26.962877 -0.84444004 52 3204673308264 1 0
2.5140817 -5.52133 -1.6983248 5 3204673308264 1 0
3.1549842 -7.9388785 -1.7085738 4 3204673310568 1 0
14.65189 -32.190334 0 34 3204673310568 1 0
15.737803 -46.05815 -0.5666414 12 3204673312872 1 0
4.4604387 -9.803405 -1.6756293 14 3204673312872 1 0
3.978668 -10.020003 -1.3722831 2 3204673315176 1 0
17.393686 -33.762276 0.22073649 45 3204673315176 1 0
13.023735 -32.8133 -0.2051838 14 3204673317480 1 0
6.356731 -13.981972 -1.6544352 23 3204673317480 1 0
6.047311 -17.723291 -1.748092 30 3204673319784 1 0
14.6474 -32.230183 0.8237943 35 3204673319784 1 0
19.023886 -55.78122 0.68612546 20 3204673322088 1 0
6.8227563 -15.018613 -1.153493 52 3204673322088 1 1
7.6394525 -19.27212 -1.692381 8 3204673324392 1 0
20.480051 -39.809986 1.3029069 57 3204673324392 1 0
12.982256 -32.764374 0.61516243 100 3204673326696 1 0
7.552415 -14.685952 -1.0583694 2 3204673326696 1 1
9.161872 -26.902561 -1.6551017 11 3204673329000 1 0
21.409344 -47.182045 3.0174153 57 3204673329000 1 0
20.399237 -51.52697 2.2577887 61 3204673331304 1 0
6.8843274 -15.177589 -0.7763253 7 3204673331304 1 1
16.379942 -36.12614 4.8703866 7 3204673333608 1 0
16.231913 -41.03549 3.6024935 12 3204673335912 1 0
10.0624695 -25.427862 -1.4331678 8 3204673333608 1 0
7.551255 -14.704725 -0.67346126 69 3204673335912 1 1
9.291219 -27.334473 -1.0081767 40 3204673338216 1 0
0 0 0 9 3204673338216 1 0
11.394596 -28.830906 5.6522717 30 3204673340520 1 0
0 0 0 4 3204673361256 1 0
8.519286 -18.8112 -0.48052344 24 3204673340520 1 1
7.8242216 -15.2964525 -0.29990214 4 3204673361256 1 1
10.621067 -26.989048 -0.84409094 50 3204673363560 1 0
2.4884174 -5.5160456 -1.6940116 2 3204673363560 1 0
3.1328807 -7.964489 -1.7117118 5 3204673365864 1 0
14.527456 -32.21597 0 39 3204673365864 1 0
9.441043 -27.950577 -0.3434585 2 3204673368168 1 0
4.425977 -9.819012 -1.6756293 13 3204673368168 1 0
3.946278 -10.041331 -1.3732932 2 3204673370472 1 0
17.262009 -33.798355 0.22057375 39 3204673370472 1 0
10.841425 -27.59846 -0.17233486 34 3204673372776 1 0
6.3155427 -14.022435 -1.6565771 15 3204673372776 1 0
5.989725 -17.75965 -1.7495792 33 3204673375080 1 0
14.520265 -32.25258 0.8230499 30 3204673375080 1 0
18.832602 -55.867195 0.6863583 20 3204673377384 1 0
6.8104625 -15.133652 -1.1604687 42 3204673377384 1 1
7.5768347 -19.313955 -1.6936829 6 3204673379688 1 0
20.324112 -39.85392 1.301976 31 3204673379688 1 0
12.85982 -32.795437 0.6148832 92 3204673381992 1 0
0 0 0 33 3204673381992 1 0
9.057033 -26.908545 -1.6534737 11 3204673384296 1 0
21.226347 -47.225254 3.0153222 57 3204673384296 1 0
20.204918 -51.573433 2.2566488 41 3204673386600 1 0
6.8726654 -15.296836 -0.7811645 12 3204673386600 1 1
10.62104 -27.1226 -1.5265352 13 3204673388904 1 0
16.253834 -36.19176 4.8713613 7 3204673388904 1 0
16.083235 -41.089706 3.6021678 12 3204673391208 1 0
7.493048 -14.721018 -0.67297274 58 3204673391208 1 1
0 0 0 9 3204673393512 1 0
9.19678 -27.379042 -1.0085955 44 3204673393512 1 0
11.283572 -28.853413 5.648684 30 3204673395816 1 0
8.444969 -18.827148 -0.4801512 31 3204673395816 1 1
0 0 0 4 3204673416552 1 0
7.833201 -15.453449 -0.3024153 4 3204673416552 1 1
10.538032 -27.068779 -0.84537095 52 3204673418856 1 0
3.1050906 -7.9795732 -1.7124962 4 3204673421160 1 0
14.399496 -32.24708 0 39 3204673421160 1 0
0 0 0 20 3204673423464 1 0
2.4650412 -5.518095 -1.691855 3 3204673418856 1 0
4.389959 -9.835168 -1.6756293 13 3204673423464 1 0
17.123566 -33.832844 0.22038777 39 3204673425768 1 0
0 0 0 31 3204673425768 1 0
15.792279 -40.63865 -0.25339943 14 3204673428072 1 0
6.2738247 -14.067282 -1.6591475 16 3204673428072 1 0
5.9245925 -17.781483 -1.7495792 33 3204673430376 1 0
14.388929 -32.276363 0.8223055 30 3204673430376 1 0
6.792305 -15.242341 -1.1668863 33 3204673432680 1 1
7.5132065 -19.36018 -1.6953101 4 3204673434984 1 0
0 0 0 63 3204673432680 1 0
20.156263 -39.88532 1.3005795 44 3204673434984 1 0
12.738087 -32.838623 0.6148134 92 3204673437288 1 0
7.435368 -14.718729 -1.0568343 65 3204673437288 1 1
8.962128 -26.952927 -1.6541715 11 3204673439592 1 0
21.285307 -47.82443 3.0485778 19 3204673439592 1 0
20.01431 -51.643414 2.256486 20 3204673441896 1 0
6.865278 -15.431443 -0.78674823 36 3204673441896 1 1
10.527331 -27.176245 -1.5273726 18 3204673444200 1 0
