# .PCD v.7 - Point Cloud Data file format
VERSION .7
FIELDS x y z rgb timestamp_ns device_id active
SIZE 4 4 4 4 8 1 1
TYPE F F F F F U U
COUNT 1 1 1 1 1 1 1
WIDTH 1013
HEIGHT 1
VIEWPOINT 0 0 0 1 0 0 0
POINTS 1013               
DATA ascii
75.78016 -34.275116 3.388474 58 3204061204528 1 0
26.228685 -10.351369 -1.3134806 4 3204061204528 1 0
24.911179 -11.27139 -1.4329585 4 3204061206832 1 0
0 0 0 1 3204061206832 1 0
55.43172 -25.09004 4.9671383 28 3204061209136 1 0
29.49273 -10.013107 -1.2689273 4 3204061209136 1 0
31.559011 -16.191868 -1.238653 6 3204061211440 1 0
0 0 0 9 3204061211440 1 0
43.502007 -19.704784 8.707282 28 3204061213744 1 0
41.499226 -16.40453 -1.0383735 7 3204061213744 1 0
0 0 0 4 3204061234480 1 0
49.297398 -16.820618 -0.90920055 9 3204061234480 1 0
38.701847 -17.595657 -1.2372786 9 3204061236784 1 0
0 0 0 1 3204061236784 1 0
7.4656363 -3.3956008 -1.6403251 17 3204061239088 1 0
0 0 0 118 3204061239088 1 0
41.27357 -21.272099 -0.5405653 56 3204061241392 1 0
9.506276 -3.7765217 -1.5913866 4 3204061241392 1 0
11.426564 -5.2013655 -1.5980506 3 3204061243696 1 0
65.08037 -22.250269 0.39974344 27 3204061243696 1 0
56.04171 -25.520485 -0.35789764 12 3204061246000 1 0
13.015804 -5.175342 -1.5087832 3 3204061246000 1 0
14.507681 -7.4855676 -1.523911 3 3204061248304 1 0
0 0 0 176 3204061248304 1 0
23.22662 -11.988793 0.30429792 2 3204061250608 1 1
18.952457 -7.5425777 -1.4263804 4 3204061250608 1 0
16.512327 -7.5285816 -1.4814843 4 3204061252912 1 0
81.04219 -36.965088 1.5548 29 3204061255216 1 0
69.70795 -23.879957 2.1444378 99 3204061252912 1 0
21.590553 -11.156842 -1.4153364 6 3204061257520 1 0
58.699677 -23.39208 3.6799674 28 3204061257520 1 0
75.73327 -34.57152 3.3917305 58 3204061259824 1 0
26.188833 -10.441 -1.3132944 8 3204061259824 1 0
20.576351 -7.0523834 -1.3940185 5 3204061255216 1 0
24.886215 -11.364916 -1.4337958 4 3204061262128 1 0
0 0 0 1 3204061262128 1 0
55.408707 -25.314005 4.9729967 28 3204061264432 1 0
29.46501 -10.1190195 -1.269253 4 3204061264432 1 0
31.526678 -16.315708 -1.2396301 6 3204061266736 1 0
0 0 0 9 3204061266736 1 0
42.762863 -19.552418 8.573114 27 3204061269040 1 0
41.47441 -16.564445 -1.039211 7 3204061269040 1 0
0 0 0 4 3204061289776 1 0
49.26944 -17.012936 -0.90982884 9 3204061289776 1 0
0 0 0 1 3204061292080 1 0
38.637226 -17.737108 -1.2372786 9 3204061292080 1 0
7.4531903 -3.4228325 -1.6403251 21 3204061294384 1 0
50.820187 -20.395248 0 108 3204061294384 1 0
23.527273 -12.234479 -0.3087215 28 3204061296688 1 1
9.492454 -3.8111315 -1.5913866 4 3204061296688 1 0
65.301445 -22.591381 0.40160322 27 3204061298992 1 0
11.400365 -5.239565 -1.5970405 3 3204061298992 1 0
55.97417 -25.735378 -0.3580604 12 3204061301296 1 0
12.989557 -5.219574 -1.5079265 3 3204061301296 1 0
14.487541 -7.5417366 -1.5246545 3 3204061303600 1 0
0 0 0 227 3204061303600 1 0
41.79705 -21.765894 0.54862094 15 3204061305904 1 0
19.02503 -7.6512275 -1.4339141 5 3204061305904 1 0
16.492306 -7.5914264 -1.4821353 4 3204061308208 1 0
80.21111 -36.935402 1.5413965 29 3204061310512 1 0
83.5275 -28.951202 2.5727668 75 3204061308208 1 0
21.557417 -11.238026 -1.4158014 6 3204061312816 1 0
20.57723 -7.135562 -1.3958093 5 3204061310512 1 0
58.115196 -23.401442 3.6485724 28 3204061312816 1 0
75.732254 -34.899693 3.3972669 58 3204061315120 1 0
26.158644 -10.537811 -1.3136667 8 3204061315120 1 0
24.859905 -11.460573 -1.4346333 4 3204061317424 1 0
0 0 0 1 3204061317424 1 0
55.426575 -25.561777 4.9827604 28 3204061319728 1 0
29.47022 -10.238592 -1.2710441 4 3204061319728 1 0
23.629604 -12.335759 -0.93083936 7 3204061322032 1 1
0 0 0 9 3204061322032 1 0
43.12896 -19.905544 8.660646 28 3204061324336 1 0
41.574703 -16.776173 -1.0432123 7 3204061324336 1 0
0 0 0 4 3204061345072 1 0
49.353233 -17.23492 -0.9124816 9 3204061345072 1 0
38.781864 -17.967674 -1.2439113 9 3204061347376 1 0
0 0 0 1 3204061347376 1 0
7.4340796 -3.4455295 -1.638756 17 3204061349680 1 0
0 0 0 19 3204061349680 1 0
23.374619 -12.258942 -0.30727804 40 3204061351984 1 1
9.486418 -3.847214 -1.5926164 4 3204061351984 1 0
11.374807 -5.2759886 -1.5960304 3 3204061354288 1 0
68.08403 -23.820457 0.41922495 31 3204061354288 1 0
45.321842 -21.029686 -0.29038647 9 3204061356592 1 0
12.971258 -5.2648845 -1.5079265 3 3204061356592 1 0
14.450549 -7.5867076 -1.5235392 3 3204061358896 1 0
50.737797 -20.602484 1.2742617 217 3204061358896 1 0
23.409975 -12.294855 0.3078368 9 3204061361200 1 1
18.890997 -7.674039 -1.4258224 4 3204061361200 1 0
16.48017 -7.655668 -1.4834371 4 3204061363504 1 0
83.49384 -29.266397 2.5748613 75 3204061363504 1 0
79.356316 -36.87807 1.5274346 29 3204061365808 1 0
20.661438 -7.245655 -1.4032284 5 3204061365808 1 0
21.52866 -11.318782 -1.4164991 6 3204061368112 1 0
57.596676 -23.426628 3.6211307 28 3204061368112 1 0
75.69332 -35.2026 3.401012 58 3204061370416 1 0
26.143906 -10.638093 -1.3147835 8 3204061370416 1 0
24.837856 -11.555705 -1.4356799 4 3204061372720 1 0
0 0 0 1 3204061372720 1 0
55.398457 -25.783693 4.988293 28 3204061375024 1 0
29.43053 -10.3400755 -1.2708813 4 3204061375024 1 0
0 0 0 100 3204061377328 1 0
0 0 0 9 3204061377328 1 0
43.07705 -20.06428 8.664233 18 3204061379632 1 0
41.512188 -16.919683 -1.0431192 7 3204061379632 1 0
0 0 0 4 3204061400368 1 0
49.899925 -17.6215 -0.92372096 9 3204061400368 1 0
38.53781 -18.018267 -1.2380931 9 3204061402672 1 0
7.418454 -3.4697964 -1.6379716 18 3204061404976 1 0
0 0 0 1 3204061402672 1 0
0 0 0 15 3204061404976 1 0
23.204401 -12.273137 -0.30560172 42 3204061407280 1 1
9.469273 -3.878806 -1.5920014 4 3204061407280 1 0
11.359915 -5.3173437 -1.5965354 3 3204061409584 1 0
67.80061 -23.987263 0.41799283 63 3204061409584 1 0
45.085148 -21.111431 -0.28934032 9 3204061411888 1 0
12.960161 -5.3131475 -1.5087832 3 3204061411888 1 0
14.441577 -7.6464214 -1.525398 3 3204061414192 1 0
0 0 0 12 3204061414192 1 0
23.33157 -12.357775 0.30737117 3 3204061416496 1 1
18.85671 -7.736905 -1.4252642 4 3204061416496 1 0
16.475004 -7.723301 -1.4853898 4 3204061418800 1 0
83.43263 -29.572361 2.5761414 75 3204061418800 1 0
43.37213 -20.340075 0.8361797 9 3204061421104 1 1
21.492548 -11.395732 -1.4167317 6 3204061423408 1 0
20.684929 -7.335077 -1.4065542 5 3204061421104 1 0
57.01221 -23.421167 3.589503 28 3204061423408 1 0
75.70384 -35.52943 3.4070365 58 3204061425712 1 0
26.102919 -10.727769 -1.3145972 8 3204061425712 1 0
24.8046 -11.64573 -1.4360987 4 3204061428016 1 0
0 0 0 1 3204061428016 1 0
55.438023 -26.037928 5.0000095 57 3204061430320 1 0
29.40932 -10.448095 -1.2715327 4 3204061430320 1 0
23.239265 -12.3392 -0.918834 72 3204061432624 1 1
0 0 0 9 3204061432624 1 0
43.16701 -20.289852 8.69652 18 3204061434928 1 0
41.456573 -17.066008 -1.0432123 7 3204061434928 1 0
0 0 0 4 3204061455664 1 0
49.676155 -17.737745 -0.92071915 9 3204061455664 1 0
38.42044 -18.127087 -1.2363477 9 3204061457968 1 0
7.406297 -3.4956706 -1.6379716 18 3204061460272 1 0
0 0 0 1 3204061457968 1 0
0 0 0 3 3204061460272 1 0
23.052015 -12.295708 -0.3041582 45 3204061462576 1 1
9.455676 -3.9118364 -1.5920014 4 3204061462576 1 0
65.83336 -23.550154 0.406369 28 3204061464880 1 0
11.341285 -5.356965 -1.5965354 3 3204061464880 1 0
43.53564 -20.571457 -0.27985528 8 3204061467184 1 0
12.941536 -5.3583546 -1.5087832 3 3204061467184 1 0
14.425338 -7.702413 -1.5265133 3 3204061469488 1 0
0 0 0 1 3204061469488 1 0
0 0 0 21 3204061471792 1 0
18.833275 -7.8042073 -1.4255433 4 3204061471792 1 0
16.473171 -7.792696 -1.487668 4 3204061474096 1 0
83.47569 -29.916021 2.5806794 75 3204061474096 1 0
0 0 0 100 3204061476400 1 0
20.572775 -7.376249 -1.4006702 5 3204061476400 1 0
21.463202 -11.476335 -1.4174293 6 3204061478704 1 0
56.487503 -23.4364 3.5615964 28 3204061478704 1 0
43.43899 -20.572178 1.958183 31 3204061481008 1 0
26.054241 -10.814224 -1.3140389 8 3204061481008 1 0
24.792677 -11.745926 -1.4377733 4 3204061483312 1 0
0 0 0 1 3204061483312 1 0
55.400837 -26.256895 5.0048914 57 3204061485616 1 0
29.39524 -10.558796 -1.2725096 4 3204061485616 1 0
0 0 0 53 3204061487920 1 0
0 0 0 9 3204061487920 1 0
42.843483 -20.320677 8.645579 18 3204061490224 1 0
41.407825 -17.21522 -1.0434914 7 3204061490224 1 0
49.170048 -17.750792 -0.9124816 9 3204061510960 1 0
0 0 0 4 3204061510960 1 0
38.566315 -18.360773 -1.2430967 9 3204061513264 1 0
0 0 0 1 3204061513264 1 0
7.4011326 -3.5248752 -1.6395406 22 3204061515568 1 0
56.50997 -23.600014 0 13 3204061515568 1 0
22.913849 -12.324943 -0.30290097 45 3204061517872 1 1
9.44561 -3.9463427 -1.5926164 4 3204061517872 1 0
65.58149 -23.718594 0.40532285 28 3204061520176 1 0
11.333262 -5.4016423 -1.5980506 3 3204061520176 1 0
0 0 0 106 3204061522480 1 0
12.922753 -5.4034963 -1.5087832 3 3204061522480 1 0
55.728355 -23.311676 1.4056519 25 3204061524784 1 0
14.405376 -7.756496 -1.527257 3 3204061524784 1 0
0 0 0 21 3204061527088 1 0
18.920029 -7.9176526 -1.4341931 5 3204061527088 1 0
83.42714 -30.227655 2.5824249 75 3204061529392 1 0
16.46386 -7.8587375 -1.4892954 4 3204061529392 1 0
43.40592 -20.726814 0.8396004 36 3204061531696 1 0
20.505621 -7.433052 -1.397856 5 3204061531696 1 0
21.423012 -11.551185 -1.4174293 6 3204061534000 1 0
55.95602 -23.44517 3.5332246 28 3204061534000 1 0
43.39216 -20.735746 1.9593228 31 3204061536304 1 0
26.023703 -10.908195 -1.3144112 8 3204061536304 1 0
24.729902 -11.82206 -1.4365174 4 3204061538608 1 0
0 0 0 1 3204061538608 1 0
55.423935 -26.505161 5.015306 57 3204061540912 1 0
29.392014 -10.673618 -1.273975 4 3204061540912 1 0
22.892258 -12.360591 -0.9085037 3 3204061543216 1 1
0 0 0 9 3204061543216 1 0
42.960415 -20.560139 8.683605 18 3204061545520 1 0
41.32536 -17.350367 -1.0429331 7 3204061545520 1 0
0 0 0 4 3204061566256 1 0
49.182926 -17.949741 -0.9138778 9 3204061566256 1 0
0 0 0 1 3204061568560 1 0
7.385248 -3.5489895 -1.638756 22 3204061570864 1 0
38.501987 -18.495283 -1.2430967 9 3204061568560 1 0
0 0 0 11 3204061570864 1 0
22.765211 -12.347643 -0.30150405 42 3204061573168 1 1
9.431777 -3.97929 -1.5926164 5 3204061573168 1 0
11.30361 -5.436011 -1.5965354 3 3204061575472 1 0
65.3593 -23.896551 0.4044627 56 3204061575472 1 0
0 0 0 19 3204061577776 1 0
12.900148 -5.4470253 -1.5083548 3 3204061577776 1 0
14.381714 -7.8086333 -1.5276287 3 3204061580080 1 0
55.6798 -23.520067 1.4064895 25 3204061580080 1 0
0 0 0 21 3204061582384 1 0
18.906977 -7.9898605 -1.4353092 5 3204061582384 1 0
16.439919 -7.917889 -1.4896208 4 3204061584688 1 0
83.37368 -30.537937 2.584054 37 3204061584688 1 0
51.616608 -24.86914 1.0000927 26 3204061586992 1 0
20.46081 -7.497718 -1.3965769 5 3204061586992 1 0
21.382559 -11.625895 -1.4174293 6 3204061589296 1 0
55.807644 -23.612343 3.5290387 56 3204061589296 1 0
43.30511 -20.880142 1.9586715 10 3204061591600 1 0
25.989147 -11.0005245 -1.3145972 4 3204061591600 1 0
24.710072 -11.918723 -1.4377733 4 3204061593904 1 0
0 0 0 1 3204061593904 1 0
55.370575 -26.717524 5.018886 57 3204061596208 1 0
29.452126 -10.811961 -1.2782086 4 3204061596208 1 0
22.796309 -12.411751 -0.90640974 10 3204061598512 1 1
0 0 0 9 3204061598512 1 0
43.033676 -20.78013 8.713022 18 3204061600816 1 0
41.27559 -17.499197 -1.0432123 7 3204061600816 1 0
0 0 0 4 3204061621552 1 0
49.24379 -18.166994 -0.9161815 9 3204061621552 1 0
38.43719 -18.629566 -1.2430967 9 3204061623856 1 0
7.3728147 -3.5747473 -1.638756 18 3204061626160 1 0
0 0 0 1 3204061623856 1 0
55.718204 -23.727524 0 25 3204061626160 1 0
9.4178295 -4.012189 -1.5926164 3 3204061628464 1 0
22.609676 -12.365617 -0.300014 40 3204061628464 1 1
11.284566 -5.475435 -1.5965354 3 3204061630768 1 0
65.358025 -24.155058 0.40497413 28 3204061630768 1 0
45.15303 -21.917019 -0.29171157 9 3204061633072 1 0
12.89569 -5.498261 -1.5100684 3 3204061633072 1 0
14.375329 -7.870263 -1.5298594 3 3204061635376 1 0
75.86106 -32.357483 1.919116 57 3204061635376 1 0
0 0 0 21 3204061637680 1 0
18.845942 -8.041715 -1.432798 5 3204061637680 1 0
16.39425 -7.9665146 -1.4879935 4 3204061639984 1 0
83.39406 -30.87598 2.5880103 37 3204061639984 1 0
43.303326 -21.05032 0.84043807 9 3204061642288 1 0
20.438255 -7.57048 -1.3968327 5 3204061642288 1 0
21.352352 -11.706223 -1.418127 6 3204061644592 1 0
55.743244 -23.814848 3.5302014 28 3204061644592 1 0
51.408264 -25.008728 2.3291078 23 3204061646896 1 0
25.965286 -11.097458 -1.3153418 4 3204061646896 1 0
24.747335 -12.04336 -1.442379 4 3204061649200 1 0
0 0 0 1 3204061649200 1 0
55.420357 -26.980442 5.0319047 57 3204061651504 1 0
29.444181 -10.925825 -1.2795112 4 3204061651504 1 0
22.584642 -12.398907 -0.89970905 10 3204061653808 1 1
0 0 0 9 3204061653808 1 0
42.37363 -20.64412 8.593921 18 3204061656112 1 0
41.239986 -17.654184 -1.0438637 7 3204061656112 1 0
49.02588 -18.27153 -0.91324955 9 3204061676296 1 0
0 0 0 4 3204061676296 1 0
0 0 0 1 3204061678600 1 0
38.554676 -18.844995 -1.2489148 9 3204061678600 1 0
7.3643913 -3.6010067 -1.6395406 3 3204061680904 1 0
22.470198 -12.386951 -0.2987102 40 3204061683208 1 1
55.594765 -23.894018 0 25 3204061680904 1 0
9.400754 -4.0420413 -1.5920014 3 3204061683208 1 0
11.276878 -5.518386 -1.5980506 3 3204061685512 1 0
63.313305 -23.640392 0.39279237 25 3204061685512 1 0
43.096214 -21.097464 -0.27887887 8 3204061687816 1 0
12.880837 -5.543035 -1.5104967 3 3204061687816 1 0
14.35578 -7.9223647 -1.5306029 3 3204061690120 1 0
75.7409 -32.607433 1.9188368 28 3204061690120 1 0
22.497643 -12.420007 0.29917583 5 3204061692424 1 1
18.833418 -8.111438 -1.4339141 5 3204061692424 1 0
16.360117 -8.018279 -1.4873426 4 3204061694728 1 0
51.476803 -25.239117 1.000721 26 3204061697032 1 0
20.412539 -7.63955 -1.3968327 5 3204061697032 1 0
21.323044 -11.784309 -1.4188247 6 3204061699336 1 0
56.32958 -24.291407 3.5725265 28 3204061699336 1 0
51.56702 -25.30289 2.3401802 24 3204061701640 1 0
25.945793 -11.193489 -1.3162724 4 3204061701640 1 0
83.43545 -31.211836 2.5925484 37 3204061694728 1 0
0 0 0 1 3204061703944 1 0
24.720547 -12.134556 -1.4432163 4 3204061703944 1 0
55.3638 -27.186878 5.035159 57 3204061706248 1 0
29.38055 -11.016364 -1.2783715 4 3204061706248 1 0
22.524643 -12.466349 -0.899011 10 3204061708552 1 1
0 0 0 9 3204061708552 1 0
42.136684 -20.707561 8.5602 18 3204061710856 1 0
41.197628 -17.803268 -1.0443289 7 3204061710856 1 0
0 0 0 4 3204061731592 1 0
49.104534 -18.506104 -0.9159721 9 3204061731592 1 0
38.3313 -18.909836 -1.2439113 9 3204061733896 1 0
0 0 0 1 3204061733896 1 0
7.3652654 -3.634811 -1.6426784 1 3204061736200 1 0
22.320047 -12.410426 -0.29731327 45 3204061738504 1 1
9.385964 -4.076265 -1.5920014 3 3204061738504 1 0
11.260297 -5.56111 -1.5985557 3 3204061740808 1 0
63.140858 -23.837955 0.3922577 25 3204061740808 1 0
55.8007 -24.224243 0 38 3204061736200 1 0
44.080868 -21.778145 -0.28576016 9 3204061743112 1 0
12.864285 -5.5913258 -1.5109252 3 3204061743112 1 0
14.333955 -7.9781766 -1.5313464 3 3204061745416 1 0
55.73483 -24.234194 1.4142128 38 3204061745416 1 0
0 0 0 16 3204061747720 1 0
16.320368 -8.071936 -1.4863662 4 3204061750024 1 0
83.382164 -31.535215 2.5944102 37 3204061750024 1 0
51.572014 -25.516483 1.0043511 26 3204061752328 1 0
18.814955 -8.184229 -1.4347512 5 3204061747720 1 0
20.396107 -7.7172184 -1.3976002 5 3204061752328 1 0
21.280571 -11.860835 -1.4188247 6 3204061754632 1 0
51.51537 -25.507113 2.3419712 24 3204061756936 1 0
55.707428 -24.260824 3.5385733 84 3204061754632 1 0
25.909159 -11.2880335 -1.3164586 4 3204061756936 1 0
24.673393 -12.221153 -1.443007 4 3204061759240 1 0
0 0 0 1 3204061759240 1 0
55.40212 -27.45165 5.0475264 57 3204061761544 1 0
29.378399 -11.135366 -1.2799997 4 3204061761544 1 0
22.008833 -12.283524 -0.8801653 7 3204061763848 1 1
0 0 0 9 3204061763848 1 0
41.033333 -20.346811 8.350697 18 3204061766152 1 0
41.25501 -18.002438 -1.0473996 7 3204061766152 1 0
48.893875 -18.621881 -0.91324955 9 3204061786888 1 0
38.422554 -19.121904 -1.2490312 9 3204061789192 1 0
0 0 0 4 3204061786888 1 0
0 0 0 1 3204061789192 1 0
7.341999 -3.655254 -1.6403251 1 3204061791496 1 0
55.807392 -24.459019 0 39 3204061791496 1 0
21.868391 -12.259425 -0.29186523 27 3204061793800 1 1
11.244368 -5.6021514 -1.5990608 3 3204061796104 1 0
9.378919 -4.1121774 -1.5932313 4 3204061793800 1 0
62.937675 -24.012587 0.39151376 75 3204061796104 1 0
42.751602 -21.3074 -0.2776235 17 3204061798408 1 0
12.837406 -5.6330004 -1.5100684 3 3204061798408 1 0
14.35117 -8.053501 -1.5361795 3 3204061800712 1 0
0 0 0 10 3204061800712 1 0
21.937984 -12.315219 0.29288965 24 3204061803016 1 1
18.804539 -8.257877 -1.4361463 5 3204061803016 1 0
16.284958 -8.125296 -1.4857153 4 3204061805320 1 0
83.40603 -31.877468 2.5985992 37 3204061805320 1 0
50.913662 -25.41236 0.9932514 25 3204061807624 1 0
20.376501 -7.7912183 -1.3981118 5 3204061807624 1 0
21.259928 -11.946784 -1.42022 6 3204061809928 1 0
55.432316 -24.371557 3.5264804 56 3204061809928 1 0
42.798405 -21.377373 1.9490646 10 3204061812232 1 0
25.946405 -11.412188 -1.3203672 4 3204061812232 1 0
24.641302 -12.312561 -1.443635 4 3204061814536 1 0
55.32022 -27.652002 5.048828 28 3204061816840 1 0
0 0 0 1 3204061814536 1 0
29.339352 -11.237848 -1.2799997 4 3204061816840 1 0
22.066854 -12.417125 -0.8842136 3 3204061819144 1 1
0 0 0 9 3204061819144 1 0
41.085236 -20.551537 8.375809 18 3204061821448 1 0
41.08945 -18.101194 -1.0447942 7 3204061821448 1 0
0 0 0 4 3204061842184 1 0
48.843506 -18.798185 -0.91352874 9 3204061842184 1 0
38.39502 -19.275362 -1.2503111 9 3204061844488 1 0
0 0 0 1 3204061844488 1 0
7.3292484 -3.6807535 -1.6403251 1 3204061846792 1 0
56.032963 -24.790426 0 13 3204061846792 1 0
21.773502 -12.305689 -0.29116678 51 3204061849096 1 1
9.364597 -4.1446867 -1.5932313 4 3204061849096 1 0
11.224908 -5.641041 -1.5990608 3 3204061851400 1 0
62.966145 -24.273468 0.39221117 25 3204061851400 1 0
42.5884 -21.410034 -0.2770423 25 3204061853704 1 0
12.814236 -5.6757007 -1.50964 3 3204061853704 1 0
14.330256 -8.106844 -1.5369232 3 3204061856008 1 0
55.671387 -24.667257 1.4169114 12 3204061856008 1 0
21.749292 -12.307872 0.29093394 42 3204061858312 1 1
18.786966 -8.327363 -1.4369833 5 3204061858312 1 0
16.260532 -8.182938 -1.4860407 4 3204061860616 1 0
83.4677 -32.22982 2.603952 74 3204061860616 1 0
42.585087 -21.437859 0.8322005 27 3204061862920 1 0
20.375761 -7.871035 -1.3999026 5 3204061862920 1 0
21.302359 -12.066614 -1.4258014 6 3204061865224 1 0
55.42169 -24.593273 3.5311315 56 3204061865224 1 0
42.632442 -21.476469 1.944831 20 3204061867528 1 0
25.910984 -11.502236 -1.3205533 4 3204061867528 1 0
24.595688 -12.394556 -1.4434257 4 3204061869832 1 0
55.386192 -27.920475 5.0634737 28 3204061872136 1 0
29.319653 -11.344634 -1.2808139 4 3204061872136 1 0
21.791676 -12.359698 -0.8748606 3 3204061874440 1 1
0 0 0 1 3204061869832 1 0
0 0 0 9 3204061874440 1 0
40.867943 -20.615913 8.3456745 18 3204061876744 1 0
41.163204 -18.300144 -1.0482371 7 3204061876744 1 0
0 0 0 4 3204061897480 1 0
48.91137 -19.010765 -0.9159721 9 3204061897480 1 0
38.33075 -19.402857 -1.2503111 9 3204061899784 1 0
0 0 0 1 3204061899784 1 0
7.3169484 -3.7051444 -1.6403251 2 3204061902088 1 0
56.107143 -25.04703 0 13 3204061902088 1 0
21.617613 -12.312973 -0.28963014 48 3204061904392 1 1
9.35432 -4.1775336 -1.5938462 3 3204061904392 1 0
11.209514 -5.6803527 -1.5995659 3 3204061906696 1 0
0 0 0 1 3204061906696 1 0
41.895603 -21.237999 -0.2729972 41 3204061909000 1 0
12.806028 -5.7234964 -1.5109252 3 3204061909000 1 0
14.320238 -8.164807 -1.538782 3 3204061911304 1 0
21.606972 -12.323566 0.2895836 47 3204061913608 1 1
75.68128 -33.838024 1.9290726 57 3204061911304 1 0
18.762465 -8.3922 -1.4372624 5 3204061913608 1 0
16.232828 -8.237759 -1.4860407 4 3204061915912 1 0
82.96734 -32.358734 2.591734 37 3204061915912 1 0
41.83834 -21.239576 0.8190065 26 3204061918216 1 0
20.345308 -7.9384413 -1.3996468 5 3204061918216 1 0
21.25441 -12.134775 -1.4253362 6 3204061920520 1 0
55.414562 -24.81522 3.5360153 56 3204061920520 1 0
42.545006 -21.613888 1.9441798 30 3204061922824 1 0
25.87177 -11.590167 -1.3205533 4 3204061922824 1 0
24.564045 -12.483623 -1.4440536 4 3204061925128 1 0
0 0 0 1 3204061925128 1 0
55.34395 -28.136316 5.0683556 57 3204061927432 1 0
29.258455 -11.435838 -1.2798369 4 3204061927432 1 0
21.683365 -12.396411 -0.87220824 3 3204061929736 1 1
0 0 0 9 3204061929736 1 0
38.882095 -19.781507 7.953933 17 3204061932040 1 0
41.10028 -18.44103 -1.0482371 7 3204061932040 1 0
0 0 0 8 3204061952776 1 0
48.85588 -19.185766 -0.9161815 9 3204061952776 1 0
38.401665 -19.607449 -1.2548493 9 3204061955080 1 0
7.2934914 -3.72531 -1.6379716 2 3204061957384 1 0
56.059486 -25.260803 0 13 3204061957384 1 0
0 0 0 1 3204061955080 1 0
21.473913 -12.330599 -0.28827977 53 3204061959688 1 1
9.328871 -4.205288 -1.5920014 3 3204061959688 1 0
11.182551 -5.7158346 -1.5985557 3 3204061961992 1 0
41.7856 -21.365904 -0.27276474 8 3204061964296 1 0
0 0 0 1 3204061961992 1 0
12.782347 -5.7665277 -1.5104967 3 3204061964296 1 0
14.305462 -8.222683 -1.5402691 3 3204061966600 1 0
75.577286 -34.108574 1.9294448 28 3204061966600 1 0
21.463268 -12.341096 0.28823322 44 3204061968904 1 1
18.754877 -8.467495 -1.4389366 5 3204061968904 1 0
16.200426 -8.292555 -1.4857153 4 3204061971208 1 0
0 0 0 251 3204061971208 1 0
41.742588 -21.374554 0.81858766 8 3204061973512 1 0
20.328615 -8.0138035 -1.4004142 5 3204061973512 1 0
55.407658 -25.044687 3.5411315 56 3204061975816 1 0
21.24653 -12.228813 -1.4276618 6 3204061975816 1 0
42.43729 -21.745863 1.9427142 20 3204061978120 1 0
25.853 -11.690284 -1.32167 4 3204061978120 1 0
24.509657 -12.563824 -1.4434257 4 3204061980424 1 0
0 0 0 1 3204061980424 1 0
55.3873 -28.402096 5.081374 57 3204061982728 1 0
29.225794 -11.540835 -1.2801626 4 3204061982728 1 0
21.345564 -12.302351 -0.8603424 3 3204061985032 1 1
0 0 0 9 3204061985032 1 0
38.7988 -19.909925 7.951063 17 3204061987336 1 0
41.03566 -18.584385 -1.0482371 7 3204061987336 1 0
0 0 0 8 3204062008072 1 0
48.721695 -19.329641 -0.914925 9 3204062008072 1 0
38.158813 -19.651674 -1.2491475 9 3204062010376 1 0
0 0 0 1 3204062010376 1 0
7.287417 -3.7543392 -1.6395406 2 3204062012680 1 0
21.340738 -12.353383 -0.2870691 65 3204062014984 1 1
56.0802 -25.506014 0 13 3204062012680 1 0
9.314135 -4.237826 -1.5920014 4 3204062014984 1 0
11.159004 -5.753016 -1.5980506 3 3204062017288 1 0
0 0 0 142 3204062017288 1 0
23.480747 -12.109804 -0.15355076 3 3204062019592 1 1
12.762139 -5.811111 -1.5104967 3 3204062019592 1 0
14.283564 -8.276562 -1.5410126 3 3204062021896 1 0
75.59969 -34.43683 1.9330739 28 3204062021896 1 0
21.323166 -12.359778 0.28692943 47 3204062024200 1 1
18.765146 -8.55111 -1.4420059 5 3204062024200 1 0
16.174923 -8.3508835 -1.4860407 4 3204062026504 1 0
41.838287 -21.608223 0.8219385 17 3204062028808 1 0
20.315353 -8.090622 -1.4014376 5 3204062028808 1 0
0 0 0 223 3204062026504 1 0
21.193352 -12.29689 -1.4269642 6 3204062031112 1 0
55.399826 -25.274406 3.5462477 56 3204062031112 1 0
51.42557 -26.578722 2.358417 25 3204062033416 1 0
25.819307 -11.783774 -1.3220422 4 3204062033416 1 0
24.483393 -12.658475 -1.4444724 4 3204062035720 1 0
0 0 0 1 3204062035720 1 0
42.0652 -21.756428 3.8661144 15 3204062038024 1 0
29.177906 -11.63982 -1.2798369 4 3204062038024 1 0
21.250643 -12.3466625 -0.8582484 3 3204062040328 1 1
0 0 0 9 3204062040328 1 0
40.977814 -18.730837 -1.0484232 7 3204062042632 1 0
40.65818 -21.0437 8.34711 9 3204062042632 1 0
0 0 0 8 3204062063368 1 0
48.80242 -19.559107 -0.91771734 9 3204062063368 1 0
0 0 0 56 3204062065672 1 0
7.2812285 -3.7833712 -1.6411095 1 3204062067976 1 0
0 0 0 1 3204062065672 1 0
21.204214 -12.373372 -0.28581187 63 3204062070280 1 1
56.045357 -25.726646 0 13 3204062067976 1 0
9.306468 -4.2736115 -1.5932313 4 3204062070280 1 0
50.80582 -20.396347 0.31819066 71 3204062072584 1 0
11.145896 -5.795594 -1.5990608 3 3204062072584 1 0
0 0 0 100 3204062074888 1 0
12.738164 -5.853963 -1.5100684 3 3204062074888 1 0
14.261464 -8.330388 -1.5417562 3 3204062077192 1 0
75.55532 -34.73559 1.935028 28 3204062077192 1 0
21.186651 -12.379653 0.2856722 49 3204062079496 1 1
18.75331 -8.624898 -1.443401 5 3204062079496 1 0
16.14921 -8.409135 -1.4863662 4 3204062081800 1 0
50.795563 -20.426552 1.5933467 220 3204062081800 1 0
41.826454 -21.787392 0.8231951 26 3204062084104 1 0
20.298098 -8.1659565 -1.4022051 5 3204062084104 1 0
21.167534 -12.380875 -1.4281269 6 3204062086408 1 0
55.387432 -25.502707 3.5511315 56 3204062086408 1 0
51.488422 -26.839355 2.3655815 25 3204062088712 1 0
25.792534 -11.880515 -1.3227868 4 3204062088712 1 0
24.431973 -12.740167 -1.4440536 4 3204062091016 1 0
0 0 0 1 3204062091016 1 0
29.137098 -11.741599 -1.2798369 4 3204062093320 1 0
42.201084 -22.013762 3.8856418 15 3204062093320 1 0
21.086683 -12.350056 -0.8533625 3 3204062095624 1 1
0 0 0 9 3204062095624 1 0
40.567036 -21.17639 8.343522 27 3204062097928 1 0
40.894024 -18.865387 -1.0479579 7 3204062097928 1 0
0 0 0 8 3204062118664 1 0
48.752384 -19.736845 -0.9180664 9 3204062118664 1 0
23.347218 -12.23072 -0.7670592 41 3204062120968 1 1
0 0 0 1 3204062120968 1 0
7.2749257 -3.8124056 -1.6426784 2 3204062123272 1 0
56.107647 -25.992743 0 13 3204062123272 1 0
21.078154 -12.3986435 -0.28469434 46 3204062125576 1 1
9.287908 -4.304409 -1.5926164 4 3204062125576 1 0
11.122083 -5.8326225 -1.5985557 3 3204062127880 1 0
0 0 0 3 3204062127880 1 0
23.314165 -12.230696 -0.15301606 46 3204062130184 1 1
12.714044 -5.8967185 -1.50964 4 3204062130184 1 0
14.239162 -8.384161 -1.5424998 3 3204062132488 1 0
75.58597 -35.069805 1.9389362 57 3204062132488 1 0
21.046812 -12.396695 0.28436837 45 3204062134792 1 1
18.72309 -8.690307 -1.443401 5 3204062134792 1 0
16.130346 -8.471016 -1.4873426 4 3204062137096 1 0
23.353456 -12.268639 0.4604643 3 3204062139400 1 1
20.280563 -8.241268 -1.4029726 5 3204062139400 1 0
21.117308 -12.450631 -1.4276618 3 3204062141704 1 0
55.370502 -25.729544 3.5557826 56 3204062141704 1 0
51.539463 -27.095171 2.3722575 25 3204062144008 1 0
25.758152 -11.973845 -1.323159 4 3204062144008 1 0
24.412102 -12.838388 -1.4455191 4 3204062146312 1 0
50.79063 -20.630821 1.5954412 106 3204062137096 1 0
0 0 0 1 3204062146312 1 0
45.401745 -23.885328 4.187992 18 3204062148616 1 0
29.092232 -11.841728 -1.279674 4 3204062148616 1 0
20.905748 -12.342294 -0.84777856 3 3204062150920 1 1
0 0 0 9 3204062150920 1 0
40.71572 -21.435188 8.389441 18 3204062153224 1 0
40.987434 -19.082281 -1.0520523 7 3204062153224 1 0
0 0 0 8 3204062173960 1 0
48.653576 -19.894793 -0.9175079 9 3204062173960 1 0
23.191254 -12.252374 -0.7633356 44 3204062176264 1 1
0 0 0 1 3204062176264 1 0
7.254638 -3.8341112 -1.6411095 2 3204062178568 1 0
56.049187 -26.203684 0 13 3204062178568 1 0
9.276406 -4.338478 -1.5932313 3 3204062180872 1 0
20.938414 -12.415027 -0.28339052 63 3204062180872 1 1
11.115686 -5.878831 -1.600576 3 3204062183176 1 0
0 0 0 1 3204062183176 1 0
23.15819 -12.252145 -0.15227214 53 3204062185480 1 1
12.693383 -5.941063 -1.50964 3 3204062185480 1 0
14.21666 -8.43788 -1.5432433 3 3204062187784 1 0
75.61157 -35.402958 1.9427514 28 3204062187784 1 0
20.924309 -12.423121 0.2832974 45 3204062190088 1 1
16.111248 -8.532867 -1.4883189 4 3204062192392 1 0
0 0 0 6 3204062192392 1 0
18.70348 -8.760687 -1.4442381 5 3204062190088 1 0
23.282217 -12.335104 0.4599058 6 3204062194696 1 1
20.27383 -8.321105 -1.4045075 5 3204062194696 1 0
21.080584 -12.528349 -1.4281269 3 3204062197000 1 0
55.37074 -25.965052 3.5615964 56 3204062197000 1 0
25.712582 -12.061987 -1.3229729 4 3204062199304 1 0
51.47988 -27.293633 2.3738859 25 3204062199304 1 0
24.367138 -12.923524 -1.4455191 4 3204062201608 1 0
0 0 0 1 3204062201608 1 0
45.40614 -24.090376 4.196129 18 3204062203912 1 0
29.06181 -11.947766 -1.2801626 4 3204062203912 1 0
20.86254 -12.415193 -0.84777856 3 3204062206216 1 1
0 0 0 9 3204062206216 1 0
40.619797 -21.56611 8.385136 18 3204062208520 1 0
40.779423 -19.15892 -1.0484232 7 3204062208520 1 0
0 0 0 8 3204062229256 1 0
48.376827 -19.979012 -0.9135986 18 3204062229256 1 0
23.056597 -12.28437 -0.7603102 28 3204062231560 1 1
0 0 0 1 3204062231560 1 0
7.2412105 -3.8594112 -1.6411095 1 3204062233864 1 0
56.083996 -26.458906 0 27 3204062233864 1 0
20.805683 -12.4346895 -0.28217986 65 3204062236168 1 1
9.254057 -4.367459 -1.5920014 5 3204062236168 1 0
11.091597 -5.9157286 -1.600071 3 3204062238472 1 0
58.47707 -24.190115 0.36780116 38 3204062238472 1 0
23.01294 -12.278303 -0.15159796 56 3204062240776 1 1
12.676164 -5.9870334 -1.5100684 4 3204062240776 1 0
14.180284 -8.483364 -1.5424998 3 3204062243080 1 0
0 0 0 176 3204062243080 1 0
20.784718 -12.438576 0.2819936 47 3204062245384 1 1
18.68 -8.829331 -1.4447961 5 3204062245384 1 0
16.081366 -8.589054 -1.4883189 4 3204062247688 1 0
0 0 0 6 3204062247688 1 0
23.101446 -12.342796 0.45718324 3 3204062249992 1 1
20.252035 -8.39488 -1.4050193 5 3204062249992 1 0
21.033298 -12.599806 -1.4278944 3 3204062252296 1 0
55.355568 -26.194042 3.5664802 56 3204062252296 1 0
51.447735 -27.507086 2.3768167 25 3204062254600 1 0
25.677544 -12.1550865 -1.3233452 4 3204062254600 1 0
0 0 0 1 3204062256904 1 0
24.328922 -13.01227 -1.4459378 4 3204062256904 1 0
45.543232 -24.367214 4.2166324 19 3204062259208 1 0
29.03469 -12.055268 -1.2808139 4 3204062259208 1 0
20.647667 -12.385126 -0.8407987 3 3204062261512 1 1
40.76283 -21.824787 8.430337 18 3204062263816 1 0
17.387531 -8.240097 5.1556754 1 3204062261512 1 0
40.741203 -19.314856 -1.0491676 7 3204062263816 1 0
0 0 0 8 3204062284552 1 0
48.100086 -20.061544 -0.90968925 9 3204062284552 1 0
23.15446 -12.440473 -0.7649647 8 3204062286856 1 1
0 0 0 1 3204062286856 1 0
7.2207847 -3.8809505 -1.6395406 1 3204062289160 1 0
0 0 0 118 3204062289160 1 0
20.6765 -12.455642 -0.28101575 54 3204062291464 1 1
9.238755 -4.3997345 -1.5920014 5 3204062291464 1 0
11.0638895 -5.95065 -1.5990608 3 3204062293768 1 0
22.85722 -12.297913 -0.15085404 56 3204062296072 1 1
58.407036 -24.400259 0.36789414 19 3204062293768 1 0
12.658778 -6.032956 -1.5104967 4 3204062296072 1 0
14.160817 -8.5389805 -1.5436151 3 3204062298376 1 0
0 0 0 233 3204062298376 1 0
20.65555 -12.459405 0.2808295 47 3204062300680 1 1
18.667074 -8.903071 -1.4461912 5 3204062300680 1 0
16.061815 -8.650807 -1.4892954 4 3204062302984 1 0
76.895996 -32.176804 2.4259179 41 3204062302984 1 0
23.05822 -12.42336 0.45718324 3 3204062305288 1 1
20.237337 -8.471687 -1.4060426 5 3204062305288 1 0
21.016535 -12.689661 -1.4297549 3 3204062307592 1 0
55.364693 -26.435286 3.5729916 56 3204062307592 1 0
45.48348 -24.522766 2.1052177 27 3204062309896 1 0
25.634958 -12.244643 -1.3233452 4 3204062309896 1 0
22.873533 -12.336735 -1.3619909 3 3204062312200 1 0
0 0 0 1 3204062312200 1 0
51.310303 -27.683609 4.759496 26 3204062314504 1 0
28.97032 -12.147272 -1.2798369 4 3204062314504 1 0
20.518785 -12.405417 -0.8373087 3 3204062316808 1 1
40.210747 -19.228382 11.942946 9 3204062316808 1 0
41.5763 -22.44741 8.614728 18 3204062319112 1 0
40.662712 -19.451775 -1.0488884 7 3204062319112 1 0
0 0 0 8 3204062340296 1 0
47.838104 -20.148598 -0.90605915 18 3204062340296 1 0
23.174173 -12.555505 -0.7670592 12 3204062342600 1 1
0 0 0 1 3204062342600 1 0
7.2140903 -3.90987 -1.6411095 2 3204062344904 1 0
43.426075 -20.859123 0 93 3204062344904 1 0
20.540586 -12.471692 -0.2797585 62 3204062347208 1 1
9.223341 -4.4319572 -1.5920014 4 3204062347208 1 0
11.043051 -5.9892344 -1.5990608 3 3204062349512 1 0
55.572197 -23.444141 0.3505514 29 3204062349512 1 0
22.712194 -12.322308 -0.15017985 54 3204062351816 1 1
12.634058 -6.075383 -1.5100684 4 3204062351816 1 0
14.137731 -8.592496 -1.5443586 3 3204062354120 1 0
43.376957 -20.866596 1.1200737 222 3204062354120 1 0
20.52991 -12.481563 0.27971193 47 3204062356424 1 1
18.625097 -8.962986 -1.4453541 5 3204062356424 1 0
16.049038 -8.716335 -1.4909226 4 3204062358728 1 0
76.04661 -32.133774 2.4026453 42 3204062358728 1 0
22.839003 -12.40831 0.45369276 3 3204062361032 1 1
20.22235 -8.548494 -1.4070659 5 3204062361032 1 0
20.955057 -12.752565 -1.428592 6 3204062363336 1 0
55.336834 -26.65958 3.5771778 56 3204062363336 1 0
51.412457 -27.951488 2.384144 26 3204062365640 1 0
25.613657 -12.3444605 -1.3244619 4 3204062365640 1 0
0 0 0 1 3204062367944 1 0
51.36044 -27.942568 4.773165 27 3204062370248 1 0
28.935102 -12.25144 -1.2801626 4 3204062370248 1 0
22.802258 -12.401236 -1.3603162 3 3204062367944 1 0
0 0 0 9 3204062372552 1 0
20.475359 -12.476966 -0.8373087 3 3204062372552 1 1
40.256947 -21.916908 8.357154 18 3204062374856 1 0
40.616173 -19.604025 -1.0494468 7 3204062374856 1 0
47.58346 -20.237198 -0.90256864 18 3204062395592 1 0
23.179329 -12.663158 -0.76868826 4 3204062397896 1 1
0 0 0 1 3204062397896 1 0
0 0 0 8 3204062395592 1 0
7.2107244 -3.940671 -1.6434629 2 3204062400200 1 0
20.418459 -12.495297 -0.27868754 54 3204062402504 1 1
0 0 0 7 3204062400200 1 0
9.211371 -4.46585 -1.5926164 5 3204062402504 1 0
11.025558 -6.0296493 -1.5995659 3 3204062404808 1 0
55.515785 -23.648956 0.35071412 29 3204062404808 1 0
12.616352 -6.1211834 -1.5104967 4 3204062407112 1 0
14.107651 -8.641793 -1.5443586 3 3204062409416 1 0
22.56026 -12.342001 -0.14945917 57 3204062407112 1 1
43.336235 -21.033598 1.1209111 137 3204062409416 1 0
20.400955 -12.500905 0.27854782 47 3204062411720 1 1
18.608055 -9.034917 -1.4464703 5 3204062411720 1 0
16.029005 -8.7780485 -1.491899 4 3204062414024 1 0
75.73539 -32.314297 2.3963618 42 3204062414024 1 0
20.192387 -8.619032 -1.4070659 5 3204062416328 1 0
20.917221 -12.82981 -1.4290571 6 3204062418632 1 0
22.532484 -12.343843 0.44845703 3 3204062416328 1 1
55.343998 -26.90146 3.5836892 56 3204062418632 1 0
45.49341 -24.939604 2.113685 14 3204062420936 1 0
25.541664 -12.419815 -1.3229729 4 3204062420936 1 0
22.604723 -12.396244 -1.3511051 3 3204062423240 1 0
0 0 0 1 3204062423240 1 0
45.677044 -25.057554 4.2530837 19 3204062425544 1 0
28.92891 -12.368079 -1.2817909 4 3204062425544 1 0
20.380585 -12.516981 -0.83521473 3 3204062427848 1 1
0 0 0 9 3204062427848 1 0
40.16295 -22.047829 8.353567 18 3204062430152 1 0
40.53311 -19.738678 -1.0490745 7 3204062430152 1 0
0 0 0 8 3204062450888 1 0
47.365536 -20.340048 -0.8997763 9 3204062450888 1 0
22.57833 -12.436929 -0.7501867 3 3204062453192 1 1
0 0 0 1 3204062453192 1 0
7.186734 -3.959929 -1.6411095 2 3204062455496 1 0
0 0 0 3 3204062455496 1 0
20.283348 -12.508919 -0.2774303 48 3204062457800 1 1
9.195923 -4.4975753 -1.5926164 5 3204062457800 1 0
11.008272 -6.0693746 -1.600071 3 3204062460104 1 0
55.783363 -23.989494 0.35292265 31 3204062460104 1 0
22.451395 -12.382336 -0.14901747 27 3204062462408 1 1
12.5917845 -6.162521 -1.5100684 5 3204062462408 1 0
14.081547 -8.691849 -1.5447304 3 3204062464712 1 0
0 0 0 3 3204062464712 1 0
18.595247 -9.1067 -1.4478654 5 3204062467016 1 0
20.269989 -12.515335 0.27733716 45 3204062467016 1 1
16.013254 -8.839791 -1.4932008 4 3204062469320 1 0
55.80322 -24.032663 1.768239 11 3204062469320 1 0
0 0 0 14 3204062471624 1 0
20.18531 -8.6963005 -1.4086008 5 3204062471624 1 0
20.88098 -12.90391 -1.4295223 6 3204062473928 1 0
55.328995 -27.12336 3.588573 56 3204062473928 1 0
25.525269 -12.517132 -1.3242757 4 3204062476232 1 0
22.71379 -12.550326 1.0572495 3 3204062476232 1 1
22.514547 -12.444083 -1.3481742 7 3204062478536 1 0
45.185852 -24.98253 4.2150054 19 3204062480840 1 0
0 0 0 1 3204062478536 1 0
28.880577 -12.460357 -1.2814652 4 3204062480840 1 0
20.220348 -12.51029 -0.8303288 3 3204062483144 1 1
0 0 0 9 3204062483144 1 0
39.939075 -22.095325 8.321998 27 3204062485448 1 0
40.507786 -19.890606 -1.0500982 7 3204062485448 1 0
47.132587 -20.415628 -0.896565 18 3204062506184 1 0
0 0 0 8 3204062506184 1 0
22.35717 -12.407239 -0.74413586 7 3204062508488 1 1
0 0 0 1 3204062508488 1 0
7.177572 -3.9845996 -1.641894 2 3204062510792 1 0
50.506905 -24.89264 0 22 3204062510792 1 0
9.18155 -4.5268435 -1.5926164 5 3204062513096 1 0
20.17205 -12.529145 -0.27645245 46 3204062513096 1 1
10.988795 -6.104567 -1.600071 3 3204062515400 1 0
0 0 0 5 3204062515400 1 0
22.254145 -12.367003 -0.14797132 42 3204062517704 1 1
14.066938 -8.745682 -1.5462176 3 3204062520008 1 0
12.58261 -6.2082424 -1.5113535 4 3204062517704 1 0
20.15117 -12.53243 0.2762662 45 3204062522312 1 1
0 0 0 1 3204062520008 1 0
18.569191 -9.168731 -1.4481444 5 3204062522312 1 0
15.991339 -8.895791 -1.4938518 4 3204062524616 1 0
0 0 0 16 3204062524616 1 0
22.320816 -12.421056 0.44587407 37 3204062526920 1 1
20.175049 -8.7702675 -1.40988 5 3204062526920 1 0
20.848621 -12.978807 -1.4302199 6 3204062529224 1 0
50.940228 -25.179916 3.309273 24 3204062529224 1 0
0 0 0 38 3204062531528 1 0
22.462688 -12.512844 -1.3475462 3 3204062533832 1 0
25.48022 -12.5995655 -1.3240896 4 3204062531528 1 0
0 0 0 1 3204062533832 1 0
45.311348 -25.249329 4.234533 19 3204062536136 1 0
28.84258 -12.558074 -1.281628 4 3204062536136 1 0
20.093573 -12.524996 -0.82683885 3 3204062538440 1 1
0 0 0 9 3204062538440 1 0
39.854305 -22.223639 8.319845 18 3204062540744 1 0
40.429977 -20.021265 -1.049819 7 3204062540744 1 0
46.89614 -20.507917 -0.8934236 18 3204062561480 1 0
0 0 0 8 3204062561480 1 0
22.29279 -12.473491 -0.7434377 7 3204062563784 1 1
0 0 0 1 3204062563784 1 0
7.163619 -4.0096297 -1.641894 1 3204062566088 1 0
50.509247 -25.11331 0 11 3204062566088 1 0
20.040045 -12.544306 -0.27524176 66 3204062568392 1 1
9.155076 -4.553585 -1.5907717 5 3204062568392 1 0
10.970881 -6.144827 -1.600576 3 3204062570696 1 0
55.78649 -24.434385 0.3539688 31 3204062570696 1 0
21.854908 -12.245183 -0.14560007 60 3204062573000 1 1
12.564424 -6.253898 -1.5117819 5 3204062573000 1 0
14.04645 -8.801076 -1.5473329 3 3204062575304 1 0
51.544136 -25.66527 1.3398638 11 3204062575304 1 0
20.025965 -12.551714 0.27514863 45 3204062577608 1 1
18.554932 -9.242389 -1.4495395 5 3204062577608 1 0
15.967143 -8.955458 -1.4945027 4 3204062579912 1 0
0 0 0 3 3204062579912 1 0
21.823895 -12.244494 0.43679884 57 3204062582216 1 1
20.180864 -8.85668 -1.4124383 5 3204062582216 1 0
20.80319 -13.051503 -1.4302199 6 3204062584520 1 0
43.175976 -21.529884 2.8097427 15 3204062584520 1 0
21.819506 -12.250379 1.0194731 32 3204062586824 1 1
25.443235 -12.6919985 -1.3244619 4 3204062586824 1 0
22.432804 -12.599001 -1.3483835 3 3204062589128 1 0
0 0 0 1 3204062589128 1 0
50.109833 -28.15292 4.6921263 25 3204062591432 1 0
28.802227 -12.660285 -1.2817909 4 3204062591432 1 0
19.965103 -12.541898 -0.82334894 3 3204062593736 1 1
41.417664 -20.68319 12.404679 30 3204062593736 1 0
39.594685 -22.26041 8.281819 18 3204062596040 1 0
40.32407 -20.1444 -1.0488884 7 3204062596040 1 0
0 0 0 8 3204062616776 1 0
46.769386 -20.647263 -0.8923764 18 3204062616776 1 0
21.963556 -12.3901415 -0.733896 7 3204062619080 1 1
7.152995 -4.0365386 -1.6426784 2 3204062621384 1 0
0 0 0 11 3204062621384 1 0
19.91833 -12.5651 -0.2741708 70 3204062623688 1 1
9.146191 -4.5890594 -1.5920014 6 3204062623688 1 0
0 0 0 1 3204062619080 1 0
10.9459095 -6.181134 -1.600071 3 3204062625992 1 0
56.132538 -24.81984 0.356712 16 3204062625992 1 0
21.704067 -12.260409 -0.14487939 66 3204062628296 1 1
12.538962 -6.2959332 -1.5113535 4 3204062628296 1 0
14.07289 -8.886202 -1.553653 3 3204062630600 1 0
42.663525 -21.429535 1.1109545 7 3204062630600 1 0
19.904251 -12.572413 0.27407765 45 3204062632904 1 1
18.53682 -9.314267 -1.4506556 5 3204062632904 1 0
15.953137 -9.02095 -1.49613 4 3204062635208 1 0
75.78932 -33.564106 2.4123034 41 3204062635208 1 0
21.693993 -12.271372 0.4350536 57 3204062637512 1 1
20.157125 -8.930305 -1.4129499 3 3204062637512 1 0
20.777756 -13.136845 -1.4316152 6 3204062639816 1 0
43.08986 -21.675083 2.8090448 31 3204062639816 1 0
21.707048 -12.287092 1.0162165 42 3204062642120 1 1
25.434471 -12.798696 -1.3263232 4 3204062642120 1 0
24.15448 -13.677079 -1.4547303 4 3204062644424 1 0
43.12566 -21.708813 5.928212 23 3204062644424 1 0
0 0 0 8 3204062646728 1 0
28.856495 -12.804515 -1.2861873 4 3204062646728 1 0
49.124104 -31.09899 -2.030313 13 3204062649032 1 0
41.365917 -20.838068 12.410891 10 3204062649032 1 0
39.318184 -22.28594 8.240206 18 3204062651336 1 0
40.242794 -20.279634 -1.0486093 7 3204062651336 1 0
0 0 0 8 3204062672072 1 0
46.510723 -20.727365 -0.8888162 17 3204062672072 1 0
0 0 0 1 3204062674376 1 0
21.972305 -12.496383 -0.7356414 11 3204062674376 1 1
7.1422706 -4.063422 -1.6434629 2 3204062676680 1 0
41.973656 -21.236145 0 24 3204062676680 1 0
19.793337 -12.583052 -0.27305326 70 3204062678984 1 1
9.130116 -4.6209574 -1.5920014 7 3204062678984 1 0
10.927715 -6.2212677 -1.600576 3 3204062681288 1 0
56.01634 -25.002584 0.35652605 16 3204062681288 1 0
21.570768 -12.284629 -0.14427495 63 3204062683592 1 1
12.520457 -6.341461 -1.5117819 4 3204062683592 1 0
14.038425 -8.933133 -1.5532813 3 3204062685896 1 0
0 0 0 8 3204062685896 1 0
19.772516 -12.585974 0.272867 45 3204062688200 1 1
18.521988 -9.387936 -1.4520508 3 3204062688200 1 0
15.935405 -9.08448 -1.4974318 4 3204062690504 1 0
75.7082 -33.844772 2.4134672 83 3204062690504 1 0
21.557224 -12.29353 0.43316874 57 3204062692808 1 1
20.140406 -9.00713 -1.4139733 3 3204062692808 1 0
20.815968 -13.262937 -1.4374292 3 3204062695112 1 0
49.60188 -25.168098 3.2392738 23 3204062695112 1 0
21.56336 -12.305344 1.0114945 42 3204062697416 1 1
25.4609 -12.923571 -1.3300456 4 3204062697416 1 0
24.116997 -13.767252 -1.4553583 4 3204062699720 1 0
0 0 0 1 3204062699720 1 0
49.133114 -28.057243 4.6188984 24 3204062702024 1 0
28.822567 -12.910066 -1.2866757 4 3204062702024 1 0
49.06917 -31.304676 -2.0325468 13 3204062704328 1 0
0 0 0 9 3204062704328 1 0
39.22307 -22.413288 8.236618 9 3204062706632 1 0
40.18602 -20.427233 -1.0489815 15 3204062706632 1 0
0 0 0 8 3204062727368 1 0
46.14995 -20.759975 -0.8833012 26 3204062727368 1 0
21.942425 -12.580959 -0.7361069 7 3204062729672 1 1
0 0 0 1 3204062729672 1 0
7.1246405 -4.086377 -1.6426784 2 3204062731976 1 0
41.77457 -21.318893 0 16 3204062731976 1 0
19.6752 -12.604599 -0.27202883 70 3204062734280 1 1
9.117451 -4.654597 -1.5926164 5 3204062734280 1 0
56.019894 -25.239042 0.35710722 16 3204062736584 1 0
21.430628 -12.304086 -0.14362401 60 3204062738888 1 1
10.905932 -6.259375 -1.600576 3 3204062736584 1 0
12.508869 -6.390555 -1.5130671 5 3204062738888 1 0
14.01051 -8.984232 -1.553653 3 3204062741192 1 0
41.7473 -21.335596 1.0909482 22 3204062741192 1 0
19.651031 -12.605247 0.27179602 42 3204062743496 1 1
18.496212 -9.456165 -1.4526088 5 3204062743496 1 0
15.91051 -9.144023 -1.4980826 4 3204062745800 1 0
21.420565 -12.314883 0.43128386 54 3204062748104 1 1
20.119757 -9.082305 -1.4147408 3 3204062748104 1 0
20.678818 -13.277265 -1.4311502 3 3204062750408 1 0
42.54647 -21.775251 2.7834637 45 3204062750408 1 0
75.73902 -34.17626 2.418238 83 3204062745800 1 0
21.426739 -12.326728 1.0070981 45 3204062752712 1 1
25.415632 -13.012367 -1.3300456 4 3204062752712 1 0
24.089567 -13.863307 -1.4566144 4 3204062755016 1 0
0 0 0 1 3204062755016 1 0
28.780968 -13.012243 -1.2868385 4 3204062757320 1 0
51.194317 -29.471735 4.8223095 27 3204062757320 1 0
48.976414 -31.486576 -2.0332446 13 3204062759624 1 0
40.229176 -20.618807 12.112731 9 3204062759624 1 0
40.62333 -20.828285 -1.062288 16 3204062761928 1 0
0 0 0 8 3204062782664 1 0
45.74946 -20.772133 -0.87701833 26 3204062782664 1 0
22.209831 -12.837715 -0.74657947 7 3204062784968 1 1
39.49239 -22.750423 8.309801 18 3204062761928 1 0
0 0 0 1 3204062784968 1 0
7.113669 -4.113289 -1.6434629 2 3204062787272 1 0
23.348213 -12.018676 0 3 3204062787272 1 1
19.55016 -12.621565 -0.27091128 63 3204062789576 1 1
9.101046 -4.6865926 -1.5926164 5 3204062789576 1 0
10.890702 -6.301697 -1.6015861 3 3204062791880 1 0
56.15646 -25.538727 0.35854858 16 3204062791880 1 0
21.29709 -12.327496 -0.14301957 63 3204062794184 1 1
12.493322 -6.4382777 -1.5139239 4 3204062794184 1 0
13.98536 -9.038016 -1.5543966 3 3204062796488 1 0
41.74983 -21.523323 1.0929954 23 3204062796488 1 0
19.52565 -12.622647 0.27067846 42 3204062798792 1 1
18.483885 -9.532585 -1.454283 5 3204062798792 1 0
15.884858 -9.204427 -1.4987336 4 3204062801096 1 0
75.679115 -34.47301 2.420216 83 3204062801096 1 0
21.283213 -12.336826 0.429399 57 3204062803400 1 1
20.105495 -9.162072 -1.4160199 3 3204062803400 1 0
20.63808 -13.355206 -1.4316152 6 3204062805704 1 0
42.475704 -21.930387 2.7839289 30 3204062805704 1 0
21.289244 -12.349011 1.0027018 45 3204062808008 1 1
25.376108 -13.106702 -1.3304179 4 3204062808008 1 0
24.05363 -13.957428 -1.4574517 4 3204062810312 1 0
0 0 0 1 3204062810312 1 0
51.22969 -29.737144 4.8356533 55 3204062812616 1 0
28.730495 -13.113686 -1.2866757 4 3204062812616 1 0
19.535128 -12.658406 -0.8128791 3 3204062814920 1 1
40.141117 -20.756096 12.10859 19 3204062814920 1 0
38.19207 -22.184834 8.052944 17 3204062817224 1 0
40.388256 -20.891706 -1.0581007 16 3204062817224 1 0
45.12042 -20.686323 -0.8664073 25 3204062837960 1 0
22.311256 -13.005453 -0.75158304 7 3204062840264 1 1
0 0 0 1 3204062840264 1 0
7.098605 -4.1392307 -1.6434629 2 3204062842568 1 0
23.48522 -12.19786 0 3 3204062842568 1 1
19.423588 -12.64035 -0.26979375 69 3204062844872 1 1
0 0 0 8 3204062837960 1 0
9.080402 -4.717898 -1.5920014 5 3204062844872 1 0
10.871144 -6.3432546 -1.6020912 3 3204062847176 1 0
56.055954 -25.739408 0.3585021 16 3204062847176 1 0
21.165854 -12.354289 -0.14243838 63 3204062849480 1 1
12.469877 -6.4835715 -1.5139239 4 3204062849480 1 0
13.945862 -9.084258 -1.553653 3 3204062851784 1 0
41.753204 -21.716822 1.0951356 23 3204062851784 1 0
19.426283 -12.658199 0.26993343 42 3204062854088 1 1
18.45993 -9.604855 -1.4551201 5 3204062854088 1 0
15.861881 -9.267697 -1.49971 4 3204062856392 1 0
75.68868 -34.80757 2.4245214 83 3204062856392 1 0
21.152344 -12.362908 0.42765376 54 3204062858696 1 1
20.08689 -9.24106 -1.4170432 3 3204062858696 1 0
20.600002 -13.435805 -1.432313 6 3204062861000 1 0
21.158585 -12.374815 0.998631 45 3204062863304 1 1
48.31468 -25.165321 3.1725302 22 3204062861000 1 0
25.346672 -13.206827 -1.3313485 4 3204062863304 1 0
24.048359 -14.069623 -1.4601731 4 3204062865608 1 0
0 0 0 1 3204062865608 1 0
51.154152 -29.938002 4.8385825 27 3204062867912 1 0
28.719788 -13.232913 -1.288304 4 3204062867912 1 0
19.426304 -12.686406 -0.81022674 6 3204062870216 1 1
40.063473 -20.897215 12.107555 19 3204062870216 1 0
37.93636 -22.217098 8.0156355 26 3204062872520 1 0
0 0 0 19 3204062872520 1 0
0 0 0 8 3204062893256 1 0
22.093363 -12.981976 -0.7457649 7 3204062895560 1 1
44.949932 -20.798353 -0.8645224 25 3204062893256 1 0
0 0 0 1 3204062895560 1 0
7.087495 -4.1659718 -1.6442474 2 3204062897864 1 0
23.463757 -12.2909 0 6 3204062897864 1 1
19.309107 -12.662014 -0.2688159 71 3204062900168 1 1
9.063879 -4.7495656 -1.5920014 5 3204062900168 1 0
10.838675 -6.3751283 -1.600576 4 3204062902472 1 0
55.991173 -25.946697 0.3586648 16 3204062902472 1 0
21.022623 -12.369272 -0.1417642 66 3204062904776 1 1
13.927385 -9.141624 -1.5551401 3 3204062907080 1 0
12.450691 -6.528907 -1.5143523 4 3204062904776 1 0
41.786922 -21.920021 1.0980202 23 3204062907080 1 0
19.308424 -12.677636 0.268909 27 3204062909384 1 1
18.440424 -9.676649 -1.4562361 3 3204062909384 1 0
15.853481 -9.337172 -1.5019882 4 3204062911688 1 0
75.715416 -35.14057 2.4292922 82 3204062911688 1 0
21.009132 -12.377794 0.4256293 57 3204062913992 1 1
20.05813 -9.312801 -1.417299 5 3204062913992 1 0
20.623056 -13.553687 -1.4371966 6 3204062916296 1 0
48.063923 -25.248394 3.1618326 21 3204062916296 1 0
21.015417 -12.389733 0.99390894 47 3204062918600 1 1
25.303953 -13.297082 -1.3315346 4 3204062918600 1 0
24.047272 -14.1818905 -1.463104 4 3204062920904 1 0
41.4993 -21.815344 5.7566204 10 3204062920904 1 0
46.472168 -27.416096 4.404747 21 3204062923208 1 0
0 0 0 32 3204062925512 1 0
40.044994 -21.065716 12.12412 9 3204062925512 1 0
28.71691 -13.353306 -1.2902579 4 3204062923208 1 0
37.61459 -22.20535 7.9639773 26 3204062927816 1 0
23.331507 -12.277899 -0.6134955 48 3204062927816 1 1
0 0 0 8 3204062948552 1 0
44.710365 -20.877293 -0.86131114 25 3204062948552 1 0
21.3186 -12.627045 -0.72109616 11 3204062950856 1 1
0 0 0 1 3204062950856 1 0
23.39949 -12.361519 0 3 3204062953160 1 1
19.191376 -12.680829 -0.26779148 67 3204062955464 1 1
7.0762844 -4.192686 -1.6450318 2 3204062953160 1 0
9.047244 -4.781175 -1.5920014 6 3204062955464 1 0
10.840248 -6.4270887 -1.6041116 5 3204062957768 1 0
56.06331 -26.218235 0.35971096 17 3204062957768 1 0
20.893309 -12.391569 -0.141183 68 3204062960072 1 1
