# .PCD v.7 - Point Cloud Data file format
VERSION .7
FIELDS x y z rgb timestamp_ns device_id active
SIZE 4 4 4 4 8 1 1
TYPE F F F F F U U
COUNT 1 1 1 1 1 1 1
WIDTH 1004
HEIGHT 1
VIEWPOINT 0 0 0 1 0 0 0
POINTS 1004               
DATA ascii
4.291367 18.52341 -2.048124 15 3204233824296 1 0
4.8951087 14.501552 -1.4287362 18 3204233826600 1 0
11.644966 50.229862 1.1998197 18 3204233826600 1 0
5.9894757 17.73463 0.21792108 6 3204233828904 1 0
4.6648464 20.107576 -1.443401 36 3204233828904 1 0
4.2005243 14.7754135 -1.2539892 2 3204233831208 1 0
9.631267 53.15563 1.5721688 100 3204233831208 1 0
14.848882 52.20088 0.94731665 23 3204233833512 1 0
2.6440127 14.579797 -0.9496415 15 3204233833512 1 0
4.9143963 14.529395 -0.8932479 32 3204233835816 1 0
0 0 0 24 3204233835816 1 0
6.269215 22.01372 0.93252236 3 3204233838120 1 0
4.550382 19.559902 -0.9354617 53 3204233838120 1 0
4.3217583 15.166627 -0.82648945 2 3204233840424 1 0
4.559437 19.58527 2.4690728 6 3204233840424 1 0
2.8636699 15.73629 -0.65164214 12 3204233842728 1 0
5.828535 20.442612 1.7353414 5 3204233842728 1 0
6.795603 20.050812 -0.7393109 2 3204233845032 1 0
4.534201 19.449965 5.3513427 12 3204233845032 1 0
5.1975784 18.208542 3.4524918 4 3204233847336 1 0
4.690503 20.106552 -0.48043036 67 3204233847336 1 0
0 0 0 8 3204233868072 1 0
4.3691177 15.218544 -0.46079406 3 3204233870376 1 0
2.7699296 15.077338 -0.2675803 64 3204233868072 1 0
1.5757307 6.708506 -1.9290813 6 3204233870376 1 0
2.7949471 9.730045 -2.024715 50 3204233872680 1 0
11.647952 49.557537 0 19 3204233872680 1 0
6.842536 20.059643 -0.2467444 61 3204233874984 1 0
3.184331 13.539257 -2.1638675 8 3204233874984 1 0
4.3754706 15.215639 -2.015241 2 3204233877288 1 0
2.8842077 15.648148 0.09247917 12 3204233877288 1 0
4.357645 18.503845 -2.0476956 13 3204233879592 1 0
0 0 0 72 3204233879592 1 0
4.954032 14.502573 -1.4305952 19 3204233881896 1 0
0 0 0 29 3204233881896 1 0
7.7687025 22.731512 0.27966538 17 3204233884200 1 0
4.6605625 19.76435 -1.4199628 24 3204233884200 1 0
0 0 0 16 3204233886504 1 0
0 0 0 6 3204233886504 1 0
0 0 0 34 3204233888808 1 0
2.6993845 14.585885 -0.9506649 19 3204233888808 1 0
4.975612 14.538093 -0.8948758 32 3204233891112 1 0
4.893036 20.70976 1.2392914 27 3204233891112 1 0
15.098209 52.30326 2.2178955 18 3204233893416 1 0
4.6168017 19.527908 -0.93471724 25 3204233893416 1 0
4.2773476 14.809516 -0.8078578 2 3204233895720 1 0
4.2593064 18.004097 2.2716446 5 3204233895720 1 0
2.9482946 15.879216 -0.6579925 19 3204233898024 1 0
14.938565 51.693787 4.392705 21 3204233898024 1 0
5.7518973 16.774437 -0.6192567 2 3204233900328 1 0
4.63376 19.561512 5.386542 24 3204233900328 1 0
4.7647414 20.10142 -0.48070952 77 3204233902632 1 0
0 0 0 8 3204233923368 1 0
0 0 0 11 3204233902632 1 0
2.8247516 15.0793705 -0.26778972 61 3204233923368 1 0
4.365152 15.007433 -0.45485958 5 3204233925672 1 0
1.5981956 6.6992297 -1.928003 5 3204233925672 1 0
2.828753 9.720271 -2.024715 35 3204233927976 1 0
0 0 0 100 3204233927976 1 0
6.917296 20.050909 -0.24693066 66 3204233930280 1 0
3.2276044 13.512753 -2.161408 8 3204233930280 1 0
0 0 0 30 3204233932584 1 0
2.958301 15.744211 0.09310686 27 3204233932584 1 0
7.78116 26.696672 -0.1616177 28 3204233934888 1 0
4.422462 18.49255 -2.048124 12 3204233934888 1 0
5.009195 14.500468 -1.4320822 18 3204233937192 1 0
5.011519 20.942904 0.501088 45 3204233937192 1 0
7.846847 22.704655 0.27966538 22 3204233939496 1 0
4.7145815 19.689995 -1.4157774 4 3204233939496 1 0
0 0 0 223 3204233941800 1 0
9.884508 52.446064 1.5532018 25 3204233941800 1 0
7.9383764 27.180145 0.49425215 15 3204233944104 1 0
2.750808 14.584399 -0.9511765 17 3204233944104 1 0
5.029191 14.532323 -0.8955735 32 3204233946408 1 0
17.630625 60.30343 2.5596738 58 3204233948712 1 0
0 0 0 2 3204233948712 1 0
0 0 0 51 3204233951016 1 0
4.967518 20.708448 1.2402216 24 3204233946408 1 0
5.9820237 24.907347 3.145204 25 3204233951016 1 0
6.0928707 20.81857 1.7708164 5 3204233953320 1 0
5.7314525 16.532005 -0.6110204 7 3204233955624 1 0
5.014383 20.853 5.746818 16 3204233955624 1 0
6.062822 20.694681 3.9317656 10 3204233957928 1 0
4.8476563 20.1474 -0.48219836 100 3204233957928 1 0
3.0088916 15.904455 -0.6594579 27 3204233953320 1 0
0 0 0 8 3204233978664 1 0
2.8777387 15.085634 -0.26806897 68 3204233978664 1 0
4.3980618 14.935311 -0.45311415 5 3204233980968 1 0
1.620451 6.6938815 -1.928003 6 3204233980968 1 0
2.8644378 9.722082 -2.0270684 15 3204233983272 1 0
6.974967 20.001272 -0.24660471 39 3204233985576 1 0
3.270829 13.494222 -2.1601782 8 3204233985576 1 0
5.071993 20.938454 0 44 3204233983272 1 0
0 0 0 53 3204233987880 1 0
0 0 0 3 3204233987880 1 0
7.854766 26.616726 -0.16129223 17 3204233990184 1 0
4.49944 18.539457 -2.0549781 8 3204233990184 1 0
5.0631366 14.498596 -1.4335693 16 3204233992488 1 0
5.0733604 20.890974 0.5002506 60 3204233992488 1 0
7.9166536 22.659225 0.27943256 20 3204233994792 1 0
4.3709836 17.987333 -1.2944012 1 3204233994792 1 0
4.3146095 14.597057 -1.2425982 213 3204233997096 1 0
10.067451 52.443825 1.5541327 25 3204233997096 1 0
2.8038762 14.594614 -0.9524557 31 3204233999400 1 0
8.014363 27.099453 0.4932748 63 3204233999400 1 0
5.062227 20.792374 1.246268 18 3204234001704 1 0
5.0863223 14.537811 -0.89696884 27 3204234001704 1 0
15.6263275 52.781784 2.2426455 60 3204234004008 1 0
4.3508244 14.688137 -0.80283356 12 3204234006312 1 0
5.8758793 24.103827 3.046246 6 3204234006312 1 0
0 0 0 34 3204234008616 1 0
3.057068 15.862704 -0.6581553 15 3204234008616 1 0
5.7204847 16.31992 -0.6039009 7 3204234010920 1 0
4.277681 17.55885 -0.8418411 1 3204234004008 1 0
4.719162 19.334335 5.3327074 14 3204234010920 1 0
6.1090455 20.590796 3.915981 7 3204234013224 1 0
4.9251757 20.16564 -0.48303583 93 3204234013224 1 0
0 0 0 8 3204234033960 1 0
2.9341953 15.095127 -0.268418 64 3204234033960 1 0
4.4443464 14.900743 -0.45253235 3 3204234036264 1 0
1.6446778 6.6919365 -1.9290813 6 3204234036264 1 0
0 0 0 18 3204234038568 1 0
5.148567 20.936234 0 40 3204234038568 1 0
7.066918 20.041082 -0.2473963 63 3204234040872 1 0
3.3176186 13.482795 -2.1601782 8 3204234040872 1 0
4.785876 16.021553 -2.1283772 7 3204234043176 1 0
10.220294 52.424145 0.31042594 24 3204234043176 1 0
0 0 0 4 3204234045480 1 0
7.9718595 26.673748 -0.16180368 7 3204234045480 1 0
5.1520414 20.900541 0.50090194 31 3204234047784 1 0
5.1183877 14.496079 -1.4350564 15 3204234047784 1 0
9.310765 26.357952 0.3254381 13 3204234050088 1 0
4.3468294 17.623518 -1.2692888 1 3204234050088 1 0
4.3658314 14.58598 -1.2429237 99 3204234052392 1 0
10.25661 52.456047 1.555529 17 3204234052392 1 0
7.986666 26.66956 0.4859448 21 3204234054696 1 0
2.8599815 14.616265 -0.95450234 45 3204234054696 1 0
5.1359816 14.520342 -0.89696884 26 3204234057000 1 0
5.134222 20.778826 1.2465006 15 3204234057000 1 0
18.06249 60.254765 2.5627675 58 3204234059304 1 0
4.3596 17.633373 -0.84612197 5 3204234059304 1 0
0 0 0 8 3204234061608 1 0
4.718443 19.07348 2.4125254 4 3204234061608 1 0
6.21954 20.726974 1.7665855 2 3204234063912 1 0
3.0939898 15.765949 -0.6545731 12 3204234063912 1 0
5.690309 16.059286 -0.5949666 4 3204234066216 1 0
5.6856685 22.956106 6.3369255 8 3204234066216 1 0
6.157131 20.498413 3.902349 25 3204234068520 1 0
4.996225 20.160513 -0.483315 99 3204234068520 1 0
0 0 0 8 3204234089256 1 0
2.9850125 15.089237 -0.2684878 16 3204234089256 1 0
4.492687 14.882063 -0.45241597 1 3204234091560 1 0
1.6641133 6.6752214 -1.9258463 6 3204234091560 1 0
2.930547 9.70236 -2.0270684 1 3204234093864 1 0
5.225047 20.946136 0 40 3204234093864 1 0
7.145859 20.05129 -0.24781539 74 3204234096168 1 0
3.3606904 13.463976 -2.1589484 8 3204234096168 1 0
4.832554 15.982664 -2.1253467 7 3204234098472 1 0
10.423633 52.530907 0.31126285 36 3204234098472 1 0
8.054289 26.623901 -0.16166419 24 3204234100776 1 0
4.46932 17.88335 -1.9855793 2 3204234100776 1 0
5.172416 14.493805 -1.4365435 14 3204234103080 1 0
0 0 0 7 3204234103080 1 0
6.4837313 18.159943 0.22448665 13 3204234105384 1 0
4.3131585 17.237175 -1.2425023 1 3204234105384 1 0
4.41618 14.574982 -1.2432492 100 3204234107688 1 0
10.599017 53.252476 1.5801978 17 3204234107688 1 0
8.065203 26.604124 0.48524672 32 3204234109992 1 0
2.906272 14.590851 -0.953479 34 3204234109992 1 0
5.1891923 14.514133 -0.89766645 24 3204234112296 1 0
5.838678 23.290623 1.3983598 3 3204234112296 1 0
6.76294 22.285091 0.9488053 6 3204234114600 1 0
4.4058495 17.564207 -0.84351623 3 3204234114600 1 0
4.4769416 17.836626 2.2579951 5 3204234116904 1 0
4.80699 15.831601 -0.86710215 2 3204234116904 1 0
3.1524422 15.778821 -0.65555006 4 3204234119208 1 0
0 0 0 94 3204234119208 1 0
5.673722 15.840282 -0.5875679 4 3204234121512 1 0
5.7546806 22.899067 6.326573 8 3204234121512 1 0
6.235321 20.503557 3.9073713 20 3204234123816 1 0
5.068175 20.154917 -0.48359415 90 3204234123816 1 0
0 0 0 8 3204234144552 1 0
3.2090576 15.929501 -0.2836365 6 3204234144552 1 0
4.55279 14.893055 -0.45323053 1 3204234146856 1 0
1.6864593 6.6656375 -1.9247681 6 3204234146856 1 0
5.3050027 20.954914 0 34 3204234149160 1 0
2.9540718 9.658314 -2.020008 1 3204234149160 1 0
7.2252984 20.052565 -0.24814133 65 3204234151464 1 0
3.4076679 13.452163 -2.1589484 8 3204234151464 1 0
4.8871527 15.961904 -2.1248417 6 3204234153768 1 0
10.617235 52.54517 0.31156507 36 3204234153768 1 0
8.095625 26.427347 -0.1606413 16 3204234156072 1 0
4.632422 18.2647 -2.0297034 4 3204234156072 1 0
5.2270327 14.4869 -1.4376589 14 3204234158376 1 0
5.891201 23.21364 0.5572918 12 3204234158376 1 0
8.3872175 23.234877 0.28758132 13 3204234160680 1 0
4.287858 16.88554 -1.218227 1 3204234160680 1 0
4.468199 14.563289 -1.2435746 98 3204234162984 1 0
10.775309 53.16813 1.5788015 51 3204234162984 1 0
8.146283 26.537577 0.4845486 10 3204234165288 1 0
2.961153 14.600178 -0.95475817 13 3204234165288 1 0
5.2466116 14.5147085 -0.8988293 24 3204234167592 1 0
5.9032044 23.204311 1.3944063 10 3204234167592 1 0
18.518108 60.262657 2.5684667 87 3204234169896 1 0
4.4562907 17.506126 -0.8414688 1 3204234169896 1 0
4.8622236 15.814726 -0.86710215 2 3204234172200 1 0
5.300605 20.810276 2.636765 7 3204234172200 1 0
5.5079365 17.905682 1.5293267 22 3204234174504 1 0
3.0362115 14.925678 -0.6205418 2 3204234174504 1 0
5.675896 15.673791 -0.5821236 2 3204234176808 1 0
5.82694 22.848888 6.3182907 8 3204234176808 1 0
6.346228 20.609537 3.9317656 7 3204234179112 1 0
5.1404753 20.144852 -0.48378026 69 3204234179112 1 0
0 0 0 8 3204234200296 1 0
4.1391616 20.164423 -0.35931015 100 3204234200296 1 0
4.6013227 14.857204 -0.4526487 1 3204234202600 1 0
1.7108303 6.659424 -1.9247681 6 3204234202600 1 0
2.9765413 9.606253 -2.011379 2 3204234204904 1 0
5.388437 20.962526 0 34 3204234204904 1 0
7.2887225 19.999802 -0.24781539 43 3204234207208 1 0
3.4527185 13.424346 -2.1564887 8 3204234207208 1 0
4.9345803 15.909919 -2.120296 6 3204234209512 1 0
10.816289 52.545395 0.31179756 36 3204234209512 1 0
8.250744 26.588806 -0.16180368 28 3204234211816 1 0
4.7333803 18.382568 -2.0446968 13 3204234211816 1 0
5.287655 14.490324 -1.4398896 13 3204234214120 1 0
5.400556 20.961617 0.5036935 16 3204234214120 1 0
8.476627 23.21944 0.2877676 10 3204234216424 1 0
4.5206995 14.547077 -1.2435746 100 3204234218728 1 0
4.2871027 16.63037 -1.2009275 2 3204234216424 1 0
10.98884 53.234642 1.5819433 17 3204234218728 1 0
0 0 0 15 3204234221032 1 0
5.3042054 14.510769 -0.8997595 21 3204234223336 1 0
3.0185356 14.61288 -0.9562931 45 3204234221032 1 0
5.9895225 23.194553 1.3951039 10 3204234223336 1 0
18.742355 60.22259 2.5696063 87 3204234225640 1 0
4.4100723 17.068357 -0.8211813 1 3204234225640 1 0
4.921151 15.804855 -0.8675208 2 3204234227944 1 0
5.376022 20.795021 2.6372526 35 3204234227944 1 0
0 0 0 17 3204234230248 1 0
5.7454567 15.691005 -0.5835196 6 3204234232552 1 0
3.0821903 14.879519 -0.6190763 15 3204234230248 1 0
5.9073544 22.82424 6.317255 5 3204234232552 1 0
7.4398 23.858944 4.5566864 6 3204234234856 1 0
5.2030573 20.091604 -0.4829428 99 3204234234856 1 0
0 0 0 8 3204234255592 1 0
4.2158127 20.197567 -0.36014786 100 3204234255592 1 0
5.372908 17.146282 -0.52293146 2 3204234257896 1 0
1.7330011 6.653689 -1.9247681 7 3204234257896 1 0
3.007486 9.592499 -2.0105944 1 3204234260200 1 0
6.0446343 23.193262 0 15 3204234260200 1 0
7.366933 20.005226 -0.2481879 52 3204234262504 1 0
4.983484 15.878035 -2.1182756 6 3204234264808 1 0
3.4958067 13.405022 -2.155259 7 3204234262504 1 0
10.997629 52.528175 0.3119138 36 3204234264808 1 0
8.417499 26.80493 -0.16329153 38 3204234267112 1 0
4.802682 18.393356 -2.0476956 9 3204234267112 1 0
5.3465867 14.498401 -1.4424919 13 3204234269416 1 0
5.4567018 20.88508 0.5022977 50 3204234269416 1 0
7.7017303 20.875051 0.25903738 23 3204234271720 1 0
4.281344 16.376268 -1.1836278 1 3204234271720 1 0
4.5729976 14.539081 -1.2442255 87 3204234274024 1 0
11.1657505 53.16922 1.5811287 61 3204234274024 1 0
3.0680676 14.598481 -0.9560373 45 3204234276328 1 0
5.362707 14.514795 -0.9011548 21 3204234278632 1 0
6.082929 23.2239 1.3981272 7 3204234278632 1 0
18.991213 60.282875 2.5749798 87 3204234280936 1 0
4.365038 16.654818 -0.8020105 5 3204234280936 1 0
4.971487 15.772342 -0.8666834 2 3204234283240 1 0
5.4576416 20.810692 2.64164 15 3204234283240 1 0
5.6608753 17.949907 1.5364867 2 3204234285544 1 0
4.2521987 20.171585 -0.8398726 65 3204234285544 1 0
8.4147215 26.73893 0.48929566 37 3204234276328 1 0
5.656327 15.280792 -0.5690014 6 3204234287848 1 0
5.649118 21.514034 5.960085 12 3204234287848 1 0
5.277083 20.084692 -0.48322195 68 3204234290152 1 0
5.666456 17.948488 3.431685 24 3204234290152 1 0
0 0 0 8 3204234310888 1 0
4.2856545 20.16242 -0.35979882 100 3204234310888 1 0
5.4331727 17.11889 -0.5226987 2 3204234313192 1 0
1.7553592 6.6398573 -1.9226115 6 3204234313192 1 0
3.046046 9.592671 -2.0129478 1 3204234315496 1 0
6.1272187 23.163307 0 21 3204234315496 1 0
7.4537287 20.015736 -0.24865353 63 3204234317800 1 0
3.5405777 13.376912 -2.1527991 8 3204234317800 1 0
5.036377 15.844683 -2.1162555 9 3204234320104 1 0
11.194391 52.515224 0.3120765 36 3204234320104 1 0
8.512289 26.766584 -0.16324504 49 3204234322408 1 0
4.8571725 18.329676 -2.0425549 27 3204234322408 1 0
5.4074073 14.501333 -1.4447227 12 3204234324712 1 0
5.5333276 20.869047 0.5023908 38 3204234324712 1 0
7.756158 20.790867 0.25833893 36 3204234327016 1 0
4.255577 16.04057 -1.1604687 1 3204234327016 1 0
4.63025 14.537686 -1.2455274 45 3204234329320 1 0
4.8178096 22.537037 0.67071134 3 3204234329320 1 0
8.52792 26.761814 0.490273 41 3204234331624 1 0
3.1264439 14.614667 -0.9578281 34 3204234331624 1 0
5.420406 14.5104 -0.90208507 19 3204234333928 1 0
0 0 0 33 3204234333928 1 0
0 0 0 87 3204234336232 1 0
4.3928876 16.519354 -0.79624057 3 3204234336232 1 0
5.0376034 15.784897 -0.8683582 2 3204234338536 1 0
5.3595395 20.14263 2.5592563 9 3204234338536 1 0
5.760099 18.039717 1.545925 4 3204234340840 1 0
4.329227 20.17972 -0.8408496 97 3204234340840 1 0
5.6757154 15.16694 -0.56551147 6 3204234343144 1 0
5.0981703 19.137928 5.3068256 5 3204234343144 1 0
5.744623 17.973204 3.4402947 8 3204234345448 1 0
0 0 0 6 3204234345448 1 0
0 0 0 8 3204234366184 1 0
4.36446 20.186428 -0.3604969 98 3204234366184 1 0
5.4965644 17.111242 -0.5230478 2 3204234368488 1 0
1.7765309 6.6262484 -1.9204549 6 3204234368488 1 0
3.077112 9.574512 -2.011379 1 3204234370792 1 0
6.2329097 23.234499 0 30 3204234370792 1 0
7.532005 20.012056 -0.24893293 56 3204234373096 1 0
3.585201 13.356837 -2.1515694 8 3204234373096 1 0
5.0904393 15.823229 -2.1157503 6 3204234375400 1 0
11.371703 52.448463 0.3119138 36 3204234375400 1 0
8.594641 26.70244 -0.16303581 45 3204234377704 1 0
5.4664207 14.50473 -1.4469533 11 3204234380008 1 0
4.916997 18.297247 -2.0408413 13 3204234377704 1 0
5.619639 20.899807 0.5036005 30 3204234380008 1 0
7.8315067 20.77115 0.25843206 10 3204234382312 1 0
4.247269 15.786716 -1.143169 3 3204234382312 1 0
0 0 0 76 3204234384616 1 0
8.58814 26.629112 0.48838815 37 3204234386920 1 0
4.262895 19.59247 -1.2850349 19 3204234386920 1 0
10.907427 50.166176 1.4940898 16 3204234384616 1 0
5.479486 14.513805 -0.9034804 17 3204234389224 1 0
5.391027 20.003166 1.206501 23 3204234389224 1 0
5.60761 17.370132 0.7436406 12 3204234391528 1 0
4.3714595 16.210722 -0.78209513 1 3204234391528 1 0
5.088989 15.755813 -0.86773014 2 3204234393832 1 0
5.629428 20.863588 2.6533394 15 3204234393832 1 0
5.8708444 18.16745 1.5586178 2 3204234396136 1 0
0 0 0 8 3204234396136 1 0
5.6706443 14.993733 -0.5597879 4 3204234398440 1 0
5.1810646 19.179695 5.32339 4 3204234398440 1 0
7.1855826 22.213848 4.256782 3 3204234400744 1 0
0 0 0 3 3204234400744 1 0
0 0 0 8 3204234421480 1 0
4.4417677 20.202318 -0.36105537 76 3204234421480 1 0
5.558608 17.099596 -0.5232805 2 3204234423784 1 0
1.8006123 6.623737 -1.9215332 6 3204234423784 1 0
3.1006706 9.533917 -2.005103 1 3204234426088 1 0
6.325186 23.25515 0 27 3204234426088 1 0
7.615597 20.023193 -0.24939856 68 3204234428392 1 0
3.630474 13.340507 -2.1509545 8 3204234428392 1 0
11.572132 52.49472 0.31242523 36 3204234430696 1 0
5.141497 15.794193 -2.1142352 7 3204234430696 1 0
8.671964 26.626951 -0.16275683 45 3204234433000 1 0
4.9738994 18.25713 -2.038271 13 3204234433000 1 0
5.523473 14.504411 -1.4488121 11 3204234435304 1 0
6.331064 23.226068 0.56017643 35 3204234435304 1 0
9.846596 25.846014 0.32199237 22 3204234437608 1 0
4.2501 15.583381 -1.1294968 2 3204234437608 1 0
4.7431464 14.543184 -1.2487819 6 3204234439912 1 0
11.07783 50.120636 1.4938571 16 3204234439912 1 0
8.709074 26.69079 0.49006358 37 3204234442216 1 0
4.4541106 20.139011 -1.3218744 51 3204234442216 1 0
5.543293 14.532303 -0.90580595 16 3204234444520 1 0
5.6403613 20.647182 1.2465006 33 3204234444520 1 0
7.1297474 21.830153 0.93561614 12 3204234446824 1 0
4.3308563 15.844978 -0.7651578 1 3204234446824 1 0
5.695166 20.825161 2.650902 35 3204234449128 1 0
0 0 0 76 3204234451432 1 0
4.464636 20.13382 -0.8401983 95 3204234451432 1 0
5.614414 14.69436 -0.5493181 4 3204234453736 1 0
0 0 0 100 3204234449128 1 0
5.1705346 18.886261 5.24678 5 3204234453736 1 0
5.9512196 18.187622 3.489083 6 3204234456040 1 0
4.458298 16.275866 -0.3926818 2 3204234456040 1 0
0 0 0 8 3204234476776 1 0
4.5122237 20.20309 -0.36133462 70 3204234476776 1 0
4.8786726 14.840022 -0.45462686 1 3204234479080 1 0
1.8215928 6.6140027 -1.9204549 4 3204234479080 1 0
3.1373098 9.538441 -2.0082412 1 3204234481384 1 0
6.411107 23.264805 0 24 3204234481384 1 0
7.6895623 20.016329 -0.24963139 73 3204234483688 1 0
3.6707814 13.313073 -2.148495 7 3204234483688 1 0
5.1893396 15.76183 -2.1122148 6 3204234485992 1 0
11.758163 52.502556 0.3127042 36 3204234485992 1 0
8.870054 26.928255 -0.16477938 14 3204234488296 1 0
0 0 0 2 3204234488296 1 0
5.595051 14.545246 -1.4547606 23 3204234490600 1 0
0 0 0 3 3204234490600 1 0
9.871794 25.6522 0.3199901 9 3204234492904 1 0
4.24515 15.361293 -1.1144295 2 3204234492904 1 0
4.795939 14.538455 -1.2497584 5 3204234495208 1 0
11.263535 50.15709 1.496068 16 3204234495208 1 0
8.8368845 26.775124 0.49215785 37 3204234497512 1 0
4.4084096 19.617525 -1.2886165 27 3204234497512 1 0
5.599688 14.532064 -0.9069687 13 3204234499816 1 0
5.7092338 20.624102 1.246268 21 3204234499816 1 0
7.20259 21.80202 0.9354533 6 3204234502120 1 0
4.333448 15.645347 -0.7562238 1 3204234502120 1 0
5.2086525 15.758736 -0.8698236 9 3204234504424 1 0
5.2400913 18.907972 2.4091132 16 3204234504424 1 0
5.9868593 18.104357 1.5566651 6 3204234506728 1 0
4.5385504 20.141869 -0.84117526 95 3204234506728 1 0
0 0 0 15 3204234509032 1 0
6.6626115 24.01375 6.6775312 9 3204234509032 1 0
16.745745 50.590023 9.716053 17 3204234511336 1 0
4.4423523 16.002335 -0.38644728 2 3204234511336 1 0
0 0 0 8 3204234532072 1 0
4.584489 20.195017 -0.36147425 70 3204234532072 1 0
4.960731 14.913957 -0.45741954 5 3204234534376 1 0
1.8446689 6.6076035 -1.9204549 6 3204234534376 1 0
3.1743014 9.538596 -2.0105944 1 3204234536680 1 0
7.2767744 26.050776 0 16 3204234536680 1 0
7.766622 20.008009 -0.2498642 73 3204234538984 1 0
3.7140386 13.288758 -2.14665 7 3204234538984 1 0
5.2418194 15.736091 -2.1112046 7 3204234541288 1 0
11.946686 52.484592 0.31284368 24 3204234541288 1 0
9.022172 27.071686 -0.16584876 7 3204234543592 1 0
4.2660775 15.246833 -1.7054135 2 3204234543592 1 0
5.6342463 14.49593 -1.4517864 13 3204234545896 1 0
7.4527454 26.620968 0.64327234 30 3204234545896 1 0
9.929386 25.535574 0.31896567 29 3204234548200 1 0
4.212641 15.038993 -1.0921073 2 3204234548200 1 0
4.851707 14.536752 -1.2510601 6 3204234550504 1 0
11.463458 50.226616 1.4993261 8 3204234550504 1 0
5.9636626 17.859756 0.3286637 10 3204234552808 1 0
4.475972 19.598125 -1.2883607 28 3204234552808 1 0
5.660522 14.538478 -0.90859663 11 3204234555112 1 0
5.79953 20.669407 1.2502215 15 3204234555112 1 0
14.464811 43.27678 1.8590201 9 3204234557416 1 0
4.322154 15.395461 -0.74487025 1 3204234557416 1 0
5.2712297 15.763187 -0.8710797 2 3204234559720 1 0
5.938708 17.750643 1.5280248 4 3204234562024 1 0
4.621321 20.180445 -0.84345484 61 3204234562024 1 0
7.801663 20.003353 -0.7497808 89 3204234564328 1 0
0 0 0 103 3204234559720 1 0
0 0 0 38 3204234564328 1 0
7.6938562 22.974522 4.417496 6 3204234566632 1 0
4.43428 15.759613 -0.3809572 2 3204234566632 1 0
0 0 0 8 3204234587368 1 0
4.645965 20.139921 -0.36077616 88 3204234587368 1 0
5.0063844 14.877602 -0.45683774 3 3204234589672 1 0
1.8666738 6.597418 -1.9193766 6 3204234589672 1 0
3.2013206 9.508871 -2.0066721 1 3204234591976 1 0
7.5692344 26.737232 0 36 3204234591976 1 0
7.85102 20.018013 -0.25032985 69 3204234594280 1 0
3.7528622 13.249093 -2.1423457 7 3204234594280 1 0
5.2954493 15.713937 -2.1106997 9 3204234596584 1 0
7.6508517 22.692549 -0.13918371 26 3204234598888 1 0
12.1406355 52.489334 0.31312266 36 3204234596584 1 0
0 0 0 29 3204234598888 1 0
5.6702547 14.439103 -1.4480686 14 3204234601192 1 0
7.5587225 26.640955 0.644389 10 3204234601192 1 0
10.031625 25.534264 0.31938475 26 3204234603496 1 0
4.2444067 14.951263 -1.0868058 2 3204234603496 1 0
4.906246 14.531059 -1.2520366 5 3204234605800 1 0
0 0 0 50 3204234605800 1 0
6.011889 17.797152 0.32789582 45 3204234608104 1 0
4.5551834 19.629044 -1.2914306 23 3204234608104 1 0
5.718545 14.53721 -0.9097594 6 3204234610408 1 0
5.8792896 20.675924 1.2518494 18 3204234610408 1 0
4.31901 15.180436 -0.73519176 1 3204234612712 1 0
5.8721743 17.366888 0.74689716 6 3204234612712 1 0
5.317261 15.7182045 -0.86961424 2 3204234615016 1 0
6.723109 23.6173 3.0150476 16 3204234615016 1 0
6.0709276 17.937502 1.545925 4 3204234617320 1 0
4.6899242 20.156406 -0.8431292 80 3204234617320 1 0
7.875837 19.987156 -0.75019956 69 3204234619624 1 0
5.0510936 17.724174 4.938267 8 3204234619624 1 0
17.140186 50.59488 9.739729 36 3204234621928 1 0
4.4256644 15.520991 -0.37556013 2 3204234621928 1 0
0 0 0 8 3204234642664 1 0
5.0557094 14.852466 -0.45660502 5 3204234644968 1 0
1.88863 6.587159 -1.9182982 6 3204234644968 1 0
4.719888 20.139156 -0.36105537 80 3204234642664 1 0
7.52685 26.237724 0 56 3204234647272 1 0
7.926741 20.00536 -0.25051612 68 3204234649576 1 0
3.7936351 13.216917 -2.1392713 7 3204234649576 1 0
5.351549 15.699113 -2.1112046 12 3204234651880 1 0
3.2357576 9.501351 -2.0074565 1 3204234647272 1 0
4.942689 21.034727 0.12558383 26 3204234651880 1 0
7.7351813 22.680847 -0.1392767 31 3204234654184 1 0
4.3174996 15.025563 -1.6839939 10 3204234654184 1 0
5.725028 14.430328 -1.449184 3 3204234656488 1 0
7.6571956 26.633623 0.64485425 6 3204234656488 1 0
8.70123 21.922749 0.27458987 7 3204234658792 1 0
0 0 0 31 3204234658792 1 0
4.9595165 14.521391 -1.2526875 5 3204234661096 1 0
4.92724 20.914331 0.6253301 45 3204234661096 1 0
6.2653637 18.336172 0.33822763 12 3204234663400 1 0
4.639245 19.679073 -1.2957797 9 3204234663400 1 0
0 0 0 82 3204234665704 1 0
5.947004 20.639927 1.2509192 21 3204234665704 1 0
0 0 0 58 3204234668008 1 0
0 0 0 12 3204234668008 1 0
5.369509 15.69199 -0.8691956 2 3204234670312 1 0
6.800006 23.574615 3.0126102 32 3204234670312 1 0
17.970522 52.49258 4.5293975 23 3204234672616 1 0
4.763932 20.15547 -0.8437805 67 3204234672616 1 0
7.9559064 19.98554 -0.7511768 69 3204234674920 1 0
5.1054287 17.68045 4.9310203 17 3204234674920 1 0
7.8655405 22.953754 4.4239535 3 3204234677224 1 0
4.4220977 15.3056755 -0.3707214 3 3204234677224 1 0
0 0 0 8 3204234697960 1 0
4.797568 20.153685 -0.36161387 88 3204234697960 1 0
5.0994983 14.812119 -0.45590684 1 3204234700264 1 0
1.9115163 6.580554 -1.9182982 6 3204234700264 1 0
3.2596867 9.464134 -2.0019653 1 3204234702568 1 0
7.7024674 26.503433 0 36 3204234702568 1 0
8.009028 20.011337 -0.2509352 68 3204234704872 1 0
3.8369644 13.196172 -2.1380415 7 3204234704872 1 0
5.0018644 20.963167 0.12525837 46 3204234707176 1 0
5.402818 15.673148 -2.1101944 7 3204234707176 1 0
7.8478675 22.756374 -0.13990438 23 3204234709480 1 0
4.357717 14.972532 -1.6797101 3 3204234709480 1 0
7.6005497 18.969116 -1.9075841 28 3204234711784 1 0
7.8830743 27.071983 0.6561136 7 3204234711784 1 0
8.727853 21.774334 0.2730998 23 3204234714088 1 0
4.2723846 14.665033 -1.0681112 12 3204234714088 1 0
5.013693 14.519647 -1.2539892 5 3204234716392 1 0
4.995923 20.88981 0.6250974 48 3204234716392 1 0
6.290369 18.209173 0.33627295 71 3204234718696 1 0
4.3374553 18.126022 -1.194471 1 3204234718696 1 0
7.856687 19.578674 -1.2285938 27 3204234721000 1 0
5.9936466 20.54325 1.246268 9 3204234721000 1 0
6.30263 18.2292 0.78581333 2 3204234723304 1 0
4.3037806 14.744048 -0.71546257 4 3204234723304 1 0
5.4241276 15.681647 -0.86961424 2 3204234725608 1 0
6.2147856 17.959902 1.5514578 4 3204234727912 1 0
6.8547726 23.471905 3.0023732 16 3204234725608 1 0
4.829519 20.135746 -0.8436177 100 3204234727912 1 0
8.033483 19.988956 -0.7522935 69 3204234730216 1 0
5.305533 18.149387 5.066642 12 3204234730216 1 0
6.897491 19.915956 3.8427985 7 3204234732520 1 0
4.411545 15.083863 -0.36569655 3 3204234732520 1 0
0 0 0 8 3204234753256 1 0
4.873058 20.189053 -0.36252138 78 3204234753256 1 0
5.636151 16.204548 -0.49930993 4 3204234755560 1 0
3.3077247 9.505613 -2.0129478 2 3204234757864 1 0
7.8135457 26.570978 0 47 3204234757864 1 0
8.07872 20.00056 -0.25112143 71 3204234760168 1 0
1.9311898 6.5707927 -1.91722 5 3204234755560 1 0
3.8733997 13.164925 -2.1349669 7 3204234760168 1 0
5.0660934 20.935392 0.12518862 38 3204234762472 1 0
5.455551 15.663275 -2.1112046 9 3204234762472 1 0
9.318791 26.74239 -0.1645934 29 3204234764776 1 0
4.321547 14.672326 -1.647581 2 3204234764776 1 0
7.678184 18.98509 -1.9116735 25 3204234767080 1 0
0 0 0 29 3204234767080 1 0
8.735423 21.590185 0.27114412 11 3204234769384 1 0
4.315413 14.63579 -1.066995 38 3204234769384 1 0
5.063597 14.510763 -1.2546402 5 3204234771688 1 0
5.06961 20.896736 0.62579554 28 3204234771688 1 0
6.199646 17.75804 0.32831466 24 3204234773992 1 0
4.284688 17.650112 -1.1640272 1 3204234773992 1 0
7.950987 19.626764 -1.2332449 35 3204234776296 1 0
6.607424 22.37319 1.3585926 3 3204234776296 1 0
20.961842 59.98625 2.5888202 29 3204234778600 1 0
4.3479066 14.714431 -0.71471804 17 3204234778600 1 0
5.4813733 15.678657 -0.8704516 2 3204234780904 1 0
6.989976 23.643217 3.0272346 33 3204234780904 1 0
0 0 0 25 3204234783208 1 0
8.1078205 19.980492 -0.75299156 69 3204234785512 1 0
4.905063 20.154497 -0.8450831 73 3204234783208 1 0
5.3684096 18.138947 5.068712 22 3204234785512 1 0
7.0995955 20.278934 3.9174159 7 3204234787816 1 0
0 0 0 9 3204234787816 1 0
0 0 0 8 3204234808552 1 0
4.947309 20.187458 -0.36280063 84 3204234808552 1 0
5.6714544 16.124428 -0.49744815 4 3204234810856 1 0
1.9552134 6.5677032 -1.9182982 6 3204234810856 1 0
3.3252616 9.449611 -2.0035343 2 3204234813160 1 0
7.9130993 26.566544 0 54 3204234813160 1 0
8.156041 19.990755 -0.25135428 69 3204234815464 1 0
3.914815 13.136172 -2.132507 7 3204234815464 1 0
5.145821 20.94477 0.12535135 34 3204234817768 1 0
5.508875 15.640393 -2.1106997 9 3204234817768 1 0
9.160829 25.996685 -0.16019958 37 3204234820072 1 0
4.3545456 14.596176 -1.6407268 4 3204234820072 1 0
7.75495 18.98398 -1.914276 27 3204234822376 1 0
8.04193 26.941765 0.6542525 21 3204234822376 1 0
9.104274 22.277843 0.2801776 17 3204234824680 1 0
4.358482 14.593874 -1.0650419 100 3204234824680 1 0
5.119525 14.5080385 -1.255942 11 3204234826984 1 0
0 0 0 3 3204234826984 1 0
7.9671245 22.56729 0.4177408 33 3204234829288 1 0
4.2612576 17.2901 -1.1412584 1 3204234829288 1 0
8.179747 19.990646 -1.2578958 73 3204234831592 1 0
0 0 0 9 3204234831592 1 0
7.3997 20.940622 0.9048414 2 3204234833896 1 0
0 0 0 4 3204234833896 1 0
5.552046 15.704621 -0.8729637 2 3204234836200 1 0
7.1316857 23.816446 3.0525832 10 3204234836200 1 0
18.550158 52.44705 4.5414395 23 3204234838504 1 0
4.9811378 20.160534 -0.8460601 65 3204234838504 1 0
8.188128 19.97796 -0.7539687 63 3204234840808 1 0
5.3984113 18.009068 5.037654 12 3204234840808 1 0
0 0 0 17 3204234843112 1 0
4.471117 14.907736 -0.36216056 11 3204234843112 1 0
0 0 0 8 3204234864296 1 0
5.019677 20.177828 -0.36294025 74 3204234864296 1 0
5.213216 14.657949 -0.45276508 3 3204234866600 1 0
1.9736793 6.546087 -1.913985 5 3204234866600 1 0
3.3608565 9.445336 -2.005103 2 3204234868904 1 0
14.873664 49.305416 0 29 3204234868904 1 0
8.236439 19.98805 -0.25168023 68 3204234871208 1 0
3.9595027 13.118643 -2.1318922 10 3204234871208 1 0
5.55678 15.602379 -2.1081743 9 3204234873512 1 0
5.2227726 20.942205 0.12544434 26 3204234873512 1 0
9.227352 25.896729 -0.15978113 20 3204234875816 1 0
4.395117 14.546623 -1.6368713 5 3204234875816 1 0
7.830283 18.978886 -1.9165066 25 3204234878120 1 0
8.359256 27.652302 0.6722117 14 3204234878120 1 0
21.394613 51.834454 0.652832 9 3204234880424 1 0
4.4047766 14.563293 -1.0639257 109 3204234880424 1 0
5.175495 14.505098 -1.2572439 20 3204234882728 1 0
5.689585 22.757627 0.68269664 38 3204234882728 1 0
9.4670515 26.520638 0.49152958 11 3204234885032 1 0
4.265398 17.050516 -1.1264201 1 3204234885032 1 0
8.255578 19.976734 -1.2588261 80 3204234887336 1 0
6.621055 21.856443 1.3299882 6 3204234887336 1 0
7.496957 20.98241 0.90777236 9 3204234889640 1 0
5.3394723 17.616638 -0.8574755 13 3204234889640 1 0
0 0 0 59 3204234891944 1 0
6.018843 19.847702 2.5465817 4 3204234891944 1 0
6.27883 17.557009 1.5221666 2 3204234894248 1 0
5.0553694 20.15853 -0.84671146 30 3204234894248 1 0
8.26393 19.964031 -0.7545271 69 3204234896552 1 0
5.4612417 17.990114 5.037654 3 3204234896552 1 0
7.508885 20.97727 4.062346 16 3204234898856 1 0
4.5231276 14.892037 -0.36216056 11 3204234898856 1 0
0 0 0 8 3204234919592 1 0
5.26435 14.639663 -0.45276508 3 3204234921896 1 0
1.998767 6.5465255 -1.9161416 5 3204234921896 1 0
5.0939965 20.175694 -0.36321947 66 3204234919592 1 0
3.391151 9.426166 -2.0035343 2 3204234924200 1 0
8.318454 19.98872 -0.25205272 68 3204234926504 1 0
8.161479 26.71723 0 7 3204234924200 1 0
4.0029607 13.097182 -2.1306624 7 3204234926504 1 0
5.609864 15.579153 -2.107669 7 3204234928808 1 0
5.2978053 20.931602 0.12549084 30 3204234928808 1 0
9.910131 27.508871 -0.16994035 3 3204234931112 1 0
4.445867 14.531193 -1.6368713 4 3204234931112 1 0
7.905675 18.973494 -1.9187373 27 3204234933416 1 0
8.147886 26.617302 0.6477389 10 3204234933416 1 0
8.970265 21.519678 0.2714235 6 3204234935720 1 0
4.4567537 14.551644 -1.0642048 107 3204234935720 1 0
5.23286 14.505695 -1.2588711 21 3204234938024 1 0
5.7522736 22.671743 0.6807185 20 3204234938024 1 0
6.525108 18.079618 0.33550507 5 3204234940328 1 0
4.233539 16.6757 -1.102628 2 3204234940328 1 0
8.331411 19.962536 -1.2597563 78 3204234942632 1 0
6.658663 21.707216 1.3223139 3 3204234942632 1 0
7.576943 20.974909 0.9085865 9 3204234944936 1 0
5.391555 17.567335 -0.85598654 7 3204234944936 1 0
5.589591 15.4663725 -0.8618685 11 3204234947240 1 0
0 0 0 61 3204234947240 1 0
0 0 0 53 3204234949544 1 0
0 0 0 1 3204234949544 1 0
8.34436 19.96088 -0.7555043 63 3204234951848 1 0
0 0 0 13 3204234951848 1 0
7.5914373 20.976833 4.0673685 24 3204234954152 1 0
4.575083 14.876158 -0.36216056 8 3204234954152 1 0
0 0 0 8 3204234974888 1 0
5.1653843 20.161663 -0.3632893 54 3204234974888 1 0
5.5927343 15.384009 -0.47638658 4 3204234977192 1 0
3.4186711 9.399527 -2.0003963 2 3204234979496 1 0
2.0170557 6.5247884 -1.9118285 5 3204234977192 1 0
0 0 0 38 3204234979496 1 0
8.397475 19.981684 -0.25233212 68 3204234981800 1 0
4.045149 13.071802 -2.1288178 7 3204234981800 1 0
5.3827777 20.959473 0.12576981 30 3204234984104 1 0
0 0 0 18 3204234986408 1 0
4.500094 14.526982 -1.6381564 5 3204234986408 1 0
7.9811244 18.967808 -1.920968 27 3204234988712 1 0
5.662854 15.555748 -2.1071641 9 3204234984104 1 0
9.048432 21.495607 0.27151662 13 3204234991016 1 0
8.49054 27.394648 0.66737294 10 3204234988712 1 0
4.508703 14.53981 -1.0644838 104 3204234991016 1 0
5.2889266 14.502323 -1.260173 22 3204234993320 1 0
5.3858004 20.920717 0.6287046 24 3204234993320 1 0
8.45661 23.177689 0.43065557 31 3204234995624 1 0
4.2339683 16.436615 -1.0877898 2 3204234995624 1 0
13.300607 42.826157 2.611605 13 3204234997928 1 0
8.410348 19.95541 -1.2611517 78 3204234997928 1 0
7.633661 20.903282 0.90663254 18 3204235000232 1 0
5.450472 17.540775 -0.8556143 1 3204235000232 1 0
5.7175674 15.649372 -0.8731731 4 3204235002536 1 0
6.508496 20.934975 2.69185 5 3204235002536 1 0
8.077862 22.099686 1.9208524 10 3204235004840 1 0
4.4075885 17.069506 -0.71823925 1 3204235004840 1 0
8.423314 19.95373 -0.7563419 60 3204235007144 1 0
5.506335 17.693306 4.9651847 8 3204235007144 1 0
7.061612 19.301981 3.7473743 11 3204235009448 1 0
4.630549 14.8715515 -0.36243972 2 3204235009448 1 0
0 0 0 8 3204235030184 1 0
5.2256694 20.104803 -0.3625912 100 3204235030184 1 0
5.6229544 15.300594 -0.47440842 6 3204235032488 1 0
2.0432708 6.528736 -1.9150634 6 3204235032488 1 0
3.450107 9.383855 -1.9996119 2 3204235034792 1 0
8.39322 26.804657 0 26 3204235034792 1 0
8.479672 19.981705 -0.25270462 73 3204235037096 1 0
4.0836635 13.034972 -2.1251283 7 3204235037096 1 0
5.7143784 15.528439 -2.106154 7 3204235039400 1 0
0 0 0 3 3204235039400 1 0
7.6780243 20.855154 -0.12916397 22 3204235041704 1 0
4.554345 14.52257 -1.6394416 3 3204235041704 1 0
8.0628605 18.976488 -1.9246857 24 3204235044008 1 0
8.643578 27.547987 0.6718395 10 3204235044008 1 0
21.862701 51.434566 0.6506434 19 3204235046312 1 0
4.5618196 14.531597 -1.0650419 100 3204235046312 1 0
5.3450327 14.498735 -1.2614748 18 3204235048616 1 0
5.453743 20.882448 0.6281228 60 3204235048616 1 0
7.6932664 20.859118 0.38807172 38 3204235050920 1 0
8.492464 19.955326 -1.263012 76 3204235053224 1 0
0 0 0 51 3204235053224 1 0
4.2307625 16.190008 -1.07244 2 3204235050920 1 0
7.642913 20.704037 0.8991424 23 3204235055528 1 0
4.6196337 14.685859 -0.7171377 1 3204235055528 1 0
5.730643 15.516905 -0.86689276 6 3204235057832 1 0
8.142519 22.037699 1.9179233 6 3204235060136 1 0
7.44445 23.653957 3.0447836 10 3204235057832 1 0
0 0 0 7 3204235060136 1 0
5.700414 18.094084 5.083206 10 3204235062440 1 0
8.505454 19.953625 -0.7574587 66 3204235062440 1 0
6.5870748 17.811954 3.4625366 4 3204235064744 1 0
4.68123 14.851483 -0.36234668 2 3204235064744 1 0
0 0 0 8 3204235085480 1 0
5.303973 20.117376 -0.36314967 92 3204235085480 1 0
5.5929017 15.055948 -0.4674267 4 3204235087784 1 0
2.0626054 6.510533 -1.9118285 5 3204235087784 1 0
3.4802454 9.36435 -1.998043 2 3204235090088 1 0
8.557683 19.97018 -0.25293747 61 3204235092392 1 0
4.1270337 13.013013 -2.1238985 8 3204235092392 1 0
5.709511 15.348312 -2.084436 3 3204235094696 1 0
6.1244426 23.171898 0.13929994 21 3204235094696 1 0
7.744557 20.8092 -0.12904774 83 3204235097000 1 0
4.6115556 14.525369 -1.6415836 3 3204235097000 1 0
8.473829 26.733128 0 29 3204235090088 1 0
8.137731 18.966173 -1.9265447 25 3204235099304 1 0
0 0 0 71 3204235099304 1 0
21.243269 49.489697 0.62698877 18 3204235101608 1 0
4.6180897 14.530561 -1.0661579 100 3204235101608 1 0
5.402022 14.494618 -1.2627766 16 3204235103912 1 0
5.5237207 20.847502 0.62765735 28 3204235103912 1 0
7.757614 20.805395 0.38758305 40 3204235106216 1 0
4.201356 15.846888 -1.0506945 2 3204235106216 1 0
8.574556 19.950619 -1.26464 76 3204235108520 1 0
7.042225 22.12285 1.3520811 6 3204235108520 1 0
8.328879 22.316666 0.97046155 6 3204235110824 1 0
4.655066 14.615969 -0.71453196 1 3204235110824 1 0
7.5386777 23.657433 3.0486834 16 3204235113128 1 0
8.2089205 21.974752 1.9149942 10 3204235115432 1 0
0 0 0 1 3204235115432 1 0
8.589728 19.952314 -0.75857544 66 3204235117736 1 0
5.7204523 15.320419 -0.85705364 4 3204235113128 1 0
5.7489405 18.021955 5.068712 5 3204235117736 1 0
0 0 0 16 3204235120040 1 0
4.738309 14.845965 -0.36262584 1 3204235120040 1 0
0 0 0 8 3204235140776 1 0
5.392144 20.15189 -0.364127 66 3204235140776 1 0
5.5606575 14.803368 -0.46021226 3 3204235143080 1 0
2.0840056 6.495624 -1.9096719 5 3204235143080 1 0
3.5128922 9.347962 -1.9972585 2 3204235145384 1 0
8.4682865 26.382217 0 54 3204235145384 1 0
8.642659 19.968422 -0.25330997 63 3204235147688 1 0
4.1705084 12.986691 -2.1220536 7 3204235147688 1 0
5.7215323 15.212484 -2.0687785 3 3204235149992 1 0
6.2214527 23.19988 0.13960217 23 3204235149992 1 0
7.555851 20.081173 -0.12470042 19 3204235152296 1 0
4.707521 14.645012 -1.6570055 5 3204235152296 1 0
8.218205 18.966171 -1.9295188 22 3204235154600 1 0
8.606671 26.762505 0.6541595 31 3204235154600 1 0
0 0 0 8 3204235156904 1 0
0 0 0 19 3204235156904 1 0
5.4632654 14.5014715 -1.2650548 10 3204235159208 1 0
5.6090856 20.870241 0.62893736 17 3204235159208 1 0
7.835329 20.789074 0.38779247 14 3204235161512 1 0
4.205507 15.639196 -1.037903 3 3204235161512 1 0
8.657441 19.94962 -1.2665005 75 3204235163816 1 0
5.8917356 18.285711 1.1188273 5 3204235163816 1 0
7.808967 20.701792 0.901422 8 3204235166120 1 0
4.767565 14.78971 -0.72383815 1 3204235166120 1 0
5.7470994 15.22935 -0.8530761 4 3204235168424 1 0
6.68166 20.717722 2.6728384 31 3204235168424 1 0
8.254279 21.864029 1.9078342 9 3204235170728 1 0
4.335776 16.08817 -0.6788346 1 3204235170728 1 0
8.66671 19.940792 -0.75927347 66 3204235173032 1 0
5.8706374 18.185791 5.120476 8 3204235173032 1 0
6.7152085 17.772457 3.4639714 12 3204235175336 1 0
4.8177223 14.917068 -0.36476603 1 3204235175336 1 0
0 0 0 8 3204235196072 1 0
5.4620805 20.14548 -0.36433643 66 3204235196072 1 0
0 0 0 36 3204235198376 1 0
2.1032038 6.481334 -1.9075153 6 3204235198376 1 0
3.5398316 9.32521 -1.9949051 3 3204235200680 1 0
8.632691 26.589746 0 25 3204235200680 1 0
8.714067 19.950459 -0.25344965 21 3204235202984 1 0
4.2101707 12.961421 -2.120209 7 3204235202984 1 0
5.775208 15.200678 -2.0697887 3 3204235205288 1 0
6.309516 23.217537 0.13983464 28 3204235205288 1 0
7.6174455 20.040773 -0.12460743 17 3204235207592 1 0
4.787335 14.7237 -1.6677152 12 3204235207592 1 0
8.575497 19.609875 -1.9979256 17 3204235209896 1 0
8.717568 26.798084 0.6557414 24 3204235209896 1 0
10.144416 23.188389 0.2946591 8 3204235212200 1 0
4.7421446 14.5703 -1.0714594 34 3204235212200 1 0
5.5249295 14.516488 -1.2679839 10 3204235214504 1 0
7.1684337 26.317644 0.79382247 5 3204235214504 1 0
9.815448 25.778341 0.481477 21 3204235216808 1 0
4.1964393 15.397656 -1.022809 2 3204235216808 1 0
8.739416 19.953087 -1.2685934 45 3204235219112 1 0
5.7272043 17.570854 1.0762695 7 3204235219112 1 0
0 0 0 22 3204235221416 1 0
5.5612493 14.586385 -0.81811565 2 3204235223720 1 0
6.744743 20.672215 2.6699135 25 3204235223720 1 0
7.864995 20.637806 0.89979374 23 3204235221416 1 0
8.16825 21.414827 1.8710574 21 3204235226024 1 0
4.3169007 15.803409 -0.6674366 3 3204235226024 1 0
8.7460575 19.936678 -0.7602506 18 3204235228328 1 0
6.34899 19.440077 5.479717 8 3204235228328 1 0
6.739553 17.653767 3.445317 16 3204235230632 1 0
4.8675456 14.896677 -0.364673 2 3204235230632 1 0
0 0 0 8 3204235251368 1 0
5.5355477 20.13786 -0.36454585 36 3204235251368 1 0
7.685328 20.044052 -0.6247483 86 3204235253672 1 0
2.1269696 6.477628 -1.9085935 5 3204235253672 1 0
3.570821 9.309186 -1.9941206 2 3204235255976 1 0
8.469146 25.780537 0 7 3204235255976 1 0
0 0 0 28 3204235258280 1 0
4.2538724 12.942984 -2.119594 7 3204235258280 1 0
0 0 0 38 3204235260584 1 0
6.427028 23.330528 0.1406483 10 3204235260584 1 0
7.6995335 20.047947 -0.124816656 23 3204235262888 1 0
4.8307095 14.684408 -1.6651449 11 3204235262888 1 0
8.713806 19.740513 -2.014284 12 3204235265192 1 0
5.879511 17.864243 0.43762618 10 3204235265192 1 0
10.20473 23.10945 0.2941003 13 3204235267496 1 0
4.7972264 14.569062 -1.0725756 54 3204235267496 1 0
5.5861716 14.527207 -1.2705876 10 3204235269800 1 0
14.417435 52.223476 1.5767069 25 3204235269800 1 0
10.090359 26.229824 0.49055225 37 3204235272104 1 0
4.193888 15.183111 -1.0095057 1 3204235272104 1 0
9.421106 21.310959 -1.3569647 33 3204235274408 1 0
14.090422 42.73264 2.620442 13 3204235274408 1 0
7.93103 20.599672 0.8993052 17 3204235276712 1 0
5.208605 15.789027 -0.774464 3 3204235276712 1 0
5.6524963 14.675473 -0.8241866 6 3204235279016 1 0
6.800128 20.603899 2.664064 20 3204235279016 1 0
8.210828 21.308842 1.8642228 31 3204235281320 1 0
4.319366 15.603768 -0.65962076 1 3204235281320 1 0
9.604945 21.694382 -0.82851404 19 3204235283624 1 0
9.23382 27.951855 7.887769 8 3204235283624 1 0
7.0413327 18.258715 3.5680053 12 3204235285928 1 0
4.919147 14.883929 -0.36476603 2 3204235285928 1 0
0 0 0 4 3204235306664 1 0
0 0 0 14 3204235306664 1 0
7.7547874 20.025856 -0.62498105 69 3204235308968 1 0
2.1472719 6.4668684 -1.9075153 6 3204235308968 1 0
3.603224 9.300899 -1.9949051 2 3204235311272 1 0
8.533527 25.687653 0 17 3204235311272 1 0
0 0 0 25 3204235313576 1 0
5.9617414 15.375593 -2.099083 7 3204235315880 1 0
7.406066 26.537468 0.16012985 21 3204235315880 1 0
7.77972 20.055584 -0.12502588 36 3204235318184 1 0
4.294558 12.921211 -2.1183643 7 3204235313576 1 0
4.8736343 14.649262 -1.663003 12 3204235318184 1 0
8.74929 19.642 -2.00722 7 3204235320488 1 0
8.919981 26.798834 0.65723026 35 3204235320488 1 0
4.8475146 14.556613 -1.0728545 55 3204235322792 1 0
23.111164 51.863857 0.66102725 20 3204235322792 1 0
5.642376 14.526856 -1.2722149 10 3204235325096 1 0
14.594647 52.178383 1.5768234 8 3204235325096 1 0
8.820254 22.698835 0.42507082 8 3204235327400 1 0
4.1892643 14.968948 -0.99620265 1 3204235327400 1 0
0 0 0 24 3204235329704 1 0
5.804982 17.406456 1.0685952 2 3204235329704 1 0
8.005289 20.583794 0.89979374 23 3204235332008 1 0
5.494891 16.468655 -0.80871093 3 3204235332008 1 0
0 0 0 42 3204235334312 1 0
0 0 0 3 3204235334312 1 0
8.251642 21.198978 1.8570627 12 3204235336616 1 0
4.3131943 15.377296 -0.65066516 1 3204235336616 1 0
8.786969 19.664997 -0.75215393 2 3204235338920 1 0
6.139537 18.374004 5.1908746 5 3204235338920 1 0
6.995267 17.95582 3.5134773 6 3204235341224 1 0
4.97517 14.882163 -0.36513826 2 3204235341224 1 0
0 0 0 4 3204235361960 1 0
4.4536996 15.781085 -0.28621948 3 3204235361960 1 0
7.8333845 20.021006 -0.6256792 66 3204235364264 1 0
3.632809 9.280959 -1.9933362 2 3204235366568 1 0
2.1698322 6.4593334 -1.9075153 5 3204235364264 1 0
7.6381135 22.726809 0 21 3204235366568 1 0
8.950174 19.928993 -0.2543344 3 3204235368872 1 0
4.3358564 12.894903 -2.1165195 8 3204235368872 1 0
6.011034 15.343605 -2.0975678 6 3204235371176 1 0
7.467083 26.399836 0.15945566 31 3204235371176 1 0
7.855518 20.043203 -0.12511888 29 3204235373480 1 0
4.920934 14.620853 -1.6617178 12 3204235373480 1 0
8.799835 19.571384 -2.0031307 17 3204235375784 1 0
0 0 0 15 3204235378088 1 0
4.9021187 14.550948 -1.0736916 32 3204235378088 1 0
5.706157 14.540473 -1.275144 5 3204235380392 1 0
8.962425 26.615942 0.6535081 17 3204235375784 1 0
7.5404654 26.60018 0.80464417 6 3204235380392 1 0
8.887742 22.638128 0.42451233 37 3204235382696 1 0
4.191385 14.777579 -0.9844344 2 3204235382696 1 0
9.57241 21.256567 -1.3576624 24 3204235385000 1 0
0 0 0 9 3204235385000 1 0
6.93554 17.650545 0.7726242 11 3204235387304 1 0
4.9376884 14.628395 -0.71918505 1 3204235387304 1 0
7.599284 19.331472 -1.0885879 28 3204235389608 1 0
7.3751707 21.839195 2.8302937 8 3204235389608 1 0
8.315376 21.144075 1.8547845 18 3204235391912 1 0
4.271771 15.027686 -0.63649905 4 3204235391912 1 0
0 0 0 93 3204235394216 1 0
7.029076 17.858059 3.4991279 8 3204235396520 1 0
0 0 0 15 3204235394216 1 0
5.027088 14.864706 -0.36513826 2 3204235396520 1 0
0 0 0 4 3204235417256 1 0
4.4361787 15.511657 -0.28161204 3 3204235417256 1 0
7.9135118 20.01957 -0.62649375 66 3204235419560 1 0
2.191127 6.448073 -1.9064369 6 3204235419560 1 0
3.6666257 9.27187 -1.9941206 1 3204235421864 1 0
7.716111 22.69622 0 42 3204235421864 1 0
4.3795686 12.875947 -2.1159046 8 3204235424168 1 0
0 0 0 72 3204235424168 1 0
6.061636 15.31515 -2.0965576 7 3204235426472 1 0
7.6032734 26.527414 0.16038556 28 3204235426472 1 0
7.9298515 20.026817 -0.12518862 36 3204235428776 1 0
4.9732223 14.607352 -1.6621462 14 3204235428776 1 0
8.892787 19.594948 -2.0087073 8 3204235431080 1 0
6.070376 17.821415 0.43809146 4 3204235431080 1 0
10.03161 22.095764 0.2825058 12 3204235433384 1 0
7.546536 19.034485 -1.6715517 42 3204235435688 1 0
4.9580297 14.548856 -1.0748078 37 3204235433384 1 0
0 0 0 37 3204235435688 1 0
8.652631 21.815107 0.40964288 18 3204235437992 1 0
0 0 0 31 3204235437992 1 0
8.964121 19.721634 -1.2616167 7 3204235440296 1 0
0 0 0 9 3204235440296 1 0
7.053146 17.767385 0.7788117 20 3204235442600 1 0
5.357969 15.692532 -0.77241665 5 3204235442600 1 0
7.6549225 19.27513 -1.0869131 28 3204235444904 1 0
6.271924 18.360607 2.3823018 8 3204235444904 1 0
8.3861885 21.10751 1.8541336 9 3204235447208 1 0
4.292121 14.901307 -0.631777 2 3204235447208 1 0
0 0 0 21 3204235449512 1 0
0 0 0 19 3204235449512 1 0
20.020723 50.34822 9.87892 39 3204235451816 1 0
5.0841227 14.862202 -0.36551046 2 3204235451816 1 0
4.424624 15.269437 -0.27749327 2 3204235472552 1 0
0 0 0 4 3204235472552 1 0
7.989276 20.006676 -0.6269592 66 3204235474856 1 0
2.2111175 6.4330997 -1.9042803 5 3204235474856 1 0
3.6931477 9.244445 -1.9909828 2 3204235477160 1 0
7.817401 22.733452 0 44 3204235477160 1 0
9.079102 19.844202 -0.254055 7 3204235479464 1 0
4.421916 12.8531065 -2.1146748 7 3204235479464 1 0
6.1135855 15.290214 -2.0960524 6 3204235481768 1 0
7.709211 26.546808 0.16066454 49 3204235481768 1 0
8.008623 20.021297 -0.12532811 40 3204235484072 1 0
5.025476 14.593663 -1.6625745 12 3204235484072 1 0
8.984351 19.61448 -2.013912 15 3204235486376 1 0
9.106338 26.431738 0.65053046 7 3204235486376 1 0
9.313912 20.326162 0.26029462 17 3204235488680 1 0
5.0178866 14.557867 -1.0767609 41 3204235488680 1 0
7.6144147 19.011728 -1.6718771 42 3204235490984 1 0
7.847768 26.965343 0.8173276 15 3204235490984 1 0
4.2598524 14.629147 -0.97650373 20 3204235493288 1 0
8.670714 21.639986 0.4069203 10 3204235493288 1 0
9.024583 19.672075 -1.2604539 4 3204235495592 1 0
5.9882436 17.348488 1.0688277 2 3204235495592 1 0
5.4218435 15.7001705 -0.77371955 5 3204235497896 1 0
7.7474427 19.311316 -1.090472 46 3204235500200 1 0
6.293192 18.21477 2.3662152 4 3204235500200 1 0
7.106197 17.7204 0.7778347 20 3204235497896 1 0
9.037465 22.517355 1.9807367 7 3204235502504 1 0
4.312761 14.778808 -0.62721777 11 3204235502504 1 0
0 0 0 28 3204235504808 1 0
0 0 0 15 3204235504808 1 0
5.13597 14.844364 -0.36551046 2 3204235507112 1 0
0 0 0 4 3204235527296 1 0
4.429457 15.088888 -0.27449146 2 3204235527296 1 0
0 0 0 5 3204235507112 1 0
8.07103 20.008331 -0.6278901 69 3204235529600 1 0
2.2348247 6.428981 -1.9053587 5 3204235529600 1 0
3.7253942 9.231497 -1.9909828 2 3204235531904 1 0
7.9440093 22.842035 0 11 3204235531904 1 0
9.106397 19.721607 -0.25289088 21 3204235534208 1 0
4.464157 12.830127 -2.113445 7 3204235534208 1 0
6.160977 15.254064 -2.0940323 7 3204235536512 1 0
7.798443 26.508224 0.1605948 35 3204235536512 1 0
8.093447 20.030306 -0.12556058 42 3204235538816 1 0
5.085543 14.602323 -1.6655734 12 3204235538816 1 0
6.2314854 17.884336 0.44069692 12 3204235541120 1 0
9.06112 19.601074 -2.015771 10 3204235541120 1 0
9.309258 20.130163 0.25819921 18 3204235543424 1 0
5.0712996 14.547798 -1.077319 43 3204235543424 1 0
7.694188 19.018295 -1.6748064 42 3204235545728 1 0
6.6212206 22.458382 0.6814167 10 3204235545728 1 0
9.0733 22.417768 0.4221388 33 3204235548032 1 0
4.308633 14.60653 -0.975992 36 3204235548032 1 0
0 0 0 100 3204235550336 1 0
14.885015 42.640076 2.6302092 13 3204235550336 1 0
9.108189 22.48516 0.98837274 20 3204235552640 1 0
