# .PCD v.7 - Point Cloud Data file format
VERSION .7
FIELDS x y z rgb timestamp_ns device_id active
SIZE 4 4 4 4 8 1 1
TYPE F F F F F U U
COUNT 1 1 1 1 1 1 1
WIDTH 997
HEIGHT 1
VIEWPOINT 0 0 0 1 0 0 0
POINTS 997               
DATA ascii
-9.187786 -33.778805 -1.6306367 34 3203984398416 1 0
-11.056302 -33.977345 -1.8725805 51 3203984400720 1 0
-9.378286 -34.458397 4.384859 45 3203984400720 1 0
-35.295734 -108.41177 9.307445 28 3203984403024 1 0
-7.308469 -33.14771 -1.3829077 38 3203984403024 1 0
0 0 0 10 3203984405328 1 0
-9.290384 -34.094322 9.468636 12 3203984405328 1 0
-9.3926325 -34.448814 -0.83086634 100 3203984407632 1 0
0 0 0 29 3203984407632 1 0
-1.172073 -3.5796137 -1.7564015 5 3203984428368 1 0
-7.3725996 -33.17344 -0.5931724 56 3203984428368 1 0
-11.329209 -34.58424 -1.0591282 14 3203984430672 1 0
-1.6668806 -6.077285 -1.7641011 4 3203984430672 1 0
-2.8193488 -8.602499 -1.8105549 2 3203984432976 1 0
-9.463689 -34.485012 0 65 3203984432976 1 0
-29.830158 -77.89811 -0.97109914 14 3203984435280 1 0
-3.0945652 -11.270274 -1.8182883 12 3203984435280 1 0
-3.797031 -11.574829 -1.5505738 19 3203984437584 1 0
-7.976538 -35.797462 0.21315774 16 3203984437584 1 0
-11.359172 -34.611034 -0.2117164 15 3203984439888 1 0
-4.5525694 -16.562338 -1.8502086 3 3203984439888 1 0
-7.5824394 -19.776138 -1.9771062 3 3203984442192 1 0
-9.474879 -34.451168 0.83142465 61 3203984442192 1 0
-19.986614 -52.10655 0.64971215 9 3203984444496 1 0
-7.6922073 -27.95417 -2.0274022 7 3203984444496 1 0
-7.9965596 -35.794113 1.0673898 27 3203984446800 1 0
-7.588037 -23.0882 -1.9839913 2 3203984446800 1 0
-30.578709 -92.99883 1.7088001 29 3203984449104 1 0
-6.963488 -31.149664 -2.045618 7 3203984449104 1 0
-8.558365 -22.284645 -1.3902203 2 3203984451408 1 1
-9.498463 -34.462414 2.081842 52 3203984451408 1 0
-9.318877 -33.792614 -1.6328702 34 3203984453712 1 0
-11.426093 -34.71777 1.4890723 7 3203984453712 1 0
0 0 0 8 3203984456016 1 0
-9.4964 -34.417797 4.383884 45 3203984456016 1 0
-35.689835 -108.34144 9.312001 28 3203984458320 1 0
-9.419598 -24.486717 -0.91618156 3 3203984460624 1 1
-7.4420056 -33.204002 -1.3863271 38 3203984458320 1 0
-9.384688 -33.9763 9.444824 18 3203984460624 1 0
-9.526235 -34.470196 -0.83216906 73 3203984462928 1 0
0 0 0 29 3203984462928 1 0
-1.183937 -3.5757074 -1.7564015 5 3203984483664 1 0
-7.499298 -33.22293 -0.59449875 56 3203984483664 1 0
-11.500916 -34.71711 -1.0643644 7 3203984485968 1 0
-1.6871127 -6.0716996 -1.7641011 5 3203984485968 1 0
-2.8481102 -8.5930195 -1.8105549 3 3203984488272 1 0
0 0 0 3 3203984488272 1 0
-20.092402 -51.94579 -0.64840835 24 3203984490576 1 0
-3.132413 -11.259813 -1.8182883 12 3203984490576 1 0
-3.8435636 -11.584548 -1.5536042 18 3203984492880 1 0
-8.078738 -35.68842 0.21266955 21 3203984492880 1 0
-4.6086707 -16.546814 -1.8502086 2 3203984495184 1 0
-25.576477 -77.04845 -0.4718344 28 3203984495184 1 0
-7.6511397 -19.753931 -1.977478 1 3203984497488 1 0
0 0 0 1 3203984497488 1 0
-20.131355 -51.952152 0.64864117 29 3203984499792 1 0
-7.8145027 -28.023808 -2.0343778 7 3203984499792 1 0
-7.6672416 -23.062017 -1.9839913 2 3203984502096 1 0
-30.736256 -92.40332 1.6997945 29 3203984504400 1 0
-8.098131 -35.67288 1.0645971 18 3203984502096 1 0
-7.076126 -31.14883 -2.047153 11 3203984504400 1 0
-8.641232 -22.269777 -1.3911505 2 3203984506704 1 1
0 0 0 6 3203984506704 1 0
-11.6060505 -34.856064 1.4967253 7 3203984509008 1 0
-9.453498 -33.821587 -1.6358482 34 3203984509008 1 0
-9.634661 -34.449436 4.392171 26 3203984511312 1 0
-7.703894 -23.125067 -1.277416 3 3203984511312 1 1
-36.124844 -108.38209 9.326322 28 3203984513616 1 0
-7.5796523 -33.271236 -1.3902351 38 3203984513616 1 0
0 0 0 10 3203984515920 1 0
-9.531304 -34.039795 9.471742 12 3203984515920 1 0
0 0 0 29 3203984518224 1 0
-1.1970346 -3.571344 -1.7564015 4 3203984538960 1 0
0 0 0 4 3203984518224 1 0
-7.6424932 -33.288773 -0.5961742 51 3203984538960 1 0
-12.246914 -36.52095 -1.1210328 7 3203984541264 1 0
-1.7093111 -6.0654874 -1.7641011 4 3203984541264 1 0
-2.879461 -8.582564 -1.8105549 2 3203984543568 1 0
-25.496027 -90.422226 0 28 3203984543568 1 0
-20.135878 -51.49973 -0.6437519 32 3203984545872 1 0
-3.174489 -11.2521305 -1.8189032 11 3203984545872 1 0
-3.89324 -11.593065 -1.5566347 19 3203984548176 1 0
-8.190506 -35.58085 0.21220459 21 3203984548176 1 0
-25.652073 -76.348465 -0.46811476 28 3203984550480 1 0
0 0 0 115 3203984550480 1 0
-31.003054 -109.708626 2.6528354 28 3203984552784 1 0
-7.7197256 -19.718676 -1.9767344 1 3203984552784 1 0
-20.177504 -51.5178 0.6441244 28 3203984555088 1 0
-7.9189944 -28.006899 -2.035215 7 3203984555088 1 0
-7.758005 -23.056883 -1.985944 2 3203984557392 1 0
-30.950018 -91.939575 1.6933023 29 3203984559696 1 0
-8.209666 -35.569412 1.0623863 18 3203984557392 1 0
-7.1900043 -31.130936 -2.0476646 11 3203984559696 1 0
-8.728469 -22.25718 -1.3923132 2 3203984562000 1 1
0 0 0 3 3203984562000 1 0
-36.522636 -108.38921 4.659844 29 3203984564304 1 0
-9.59866 -33.87205 -1.6399429 34 3203984564304 1 0
-7.707468 -22.86267 -1.2644367 3 3203984566608 1 1
0 0 0 1 3203984566608 1 0
-36.57149 -108.429955 9.341618 28 3203984568912 1 0
-7.7182403 -33.32962 -1.3938173 38 3203984568912 1 0
0 0 0 10 3203984571216 1 0
-9.856163 -34.72297 9.67155 44 3203984571216 1 0
0 0 0 29 3203984573520 1 0
-10.266405 -36.148224 -0.8744149 16 3203984573520 1 0
-1.2106577 -3.5705771 -1.7580919 4 3203984594256 1 0
-7.777725 -33.343685 -0.5976402 51 3203984594256 1 0
-1.7304733 -6.059484 -1.7641011 4 3203984596560 1 0
-2.9144447 -8.587318 -1.8136927 2 3203984598864 1 0
-25.46423 -89.11732 0 28 3203984598864 1 0
-12.351201 -36.40982 -1.1189383 7 3203984596560 1 0
-20.149471 -51.008766 -0.63849014 39 3203984601168 1 0
-3.2148333 -11.244781 -1.8195181 11 3203984601168 1 0
-3.9400651 -11.59819 -1.55916 20 3203984603472 1 0
-8.294617 -35.466354 0.21169314 16 3203984603472 1 0
-25.635246 -75.42528 -0.4630003 28 3203984605776 1 0
-3.338763 -11.665419 -1.3070124 63 3203984605776 1 0
-7.7943687 -19.706423 -1.9782215 1 3203984608080 1 0
-33.861763 -118.24577 2.8621106 28 3203984608080 1 0
-20.217407 -51.093735 0.63970083 28 3203984610384 1 0
-8.020006 -27.990593 -2.036052 7 3203984610384 1 0
-7.837157 -23.025888 -1.9856186 2 3203984612688 1 0
-8.312782 -35.451008 1.05971 13 3203984612688 1 0
-30.51271 -89.604866 1.6522542 29 3203984614992 1 0
-7.3004518 -31.11342 -2.0481763 11 3203984614992 1 0
-8.941427 -22.568123 -1.4137084 6 3203984617296 1 1
-10.25018 -35.715256 2.1639345 8 3203984617296 1 0
-36.95363 -108.41617 4.6665196 29 3203984619600 1 0
-9.739996 -33.918987 -1.6438515 35 3203984619600 1 0
-7.7640195 -22.767574 -1.2606685 3 3203984621904 1 1
0 0 0 1 3203984621904 1 0
-36.98194 -108.395966 9.349754 28 3203984624208 1 0
-7.855586 -33.391956 -1.3975624 33 3203984624208 1 0
-9.951676 -34.599236 9.646704 25 3203984626512 1 0
0 0 0 10 3203984626512 1 0
0 0 0 29 3203984628816 1 0
-10.370404 -36.03531 -0.8725539 16 3203984628816 1 0
-1.223114 -3.5663292 -1.7580919 4 3203984649552 1 0
0 0 0 7 3203984649552 1 0
-17.228924 -50.21192 -1.5449401 13 3203984651856 1 0
-1.7548263 -6.064507 -1.7673361 4 3203984651856 1 0
-2.9431286 -8.573382 -1.8129083 2 3203984654160 1 0
-25.548225 -88.24408 0 28 3203984654160 1 0
-20.293306 -50.85268 -0.63741916 38 3203984656464 1 0
-3.2540655 -11.233491 -1.8195181 12 3203984656464 1 0
-3.9895525 -11.610634 -1.5626955 18 3203984658768 1 0
-8.397103 -35.34768 0.21115845 16 3203984658768 1 0
-25.661703 -74.6469 -0.45876923 55 3203984661072 1 0
0 0 0 8 3203984661072 1 0
-7.861632 -19.675398 -1.9778497 1 3203984663376 1 0
-34.00242 -117.189766 2.8394058 28 3203984663376 1 0
-20.319918 -50.833435 0.637326 28 3203984665680 1 0
-8.127675 -27.996916 -2.0385633 7 3203984665680 1 0
-8.419805 -35.35176 1.0576154 4 3203984667984 1 0
-30.773209 -89.34656 1.6494619 29 3203984670288 1 0
-7.434 -31.19259 -2.0550838 11 3203984670288 1 0
-8.969701 -22.410725 -1.4058015 3 3203984672592 1 1
-7.923973 -23.017239 -1.9872459 2 3203984667984 1 0
-37.38656 -108.44521 4.6733584 29 3203984674896 1 0
-10.530883 -36.21608 2.1964922 8 3203984672592 1 0
-9.876196 -33.946167 -1.6468295 41 3203984674896 1 0
-7.7783227 -22.551523 -1.2502013 3 3203984677200 1 1
0 0 0 1 3203984677200 1 0
-37.376995 -108.31521 9.353985 28 3203984679504 1 0
-7.993461 -33.45374 -1.4013075 39 3203984679504 1 0
0 0 0 10 3203984681808 1 0
-10.077795 -34.582836 9.65188 19 3203984681808 1 0
0 0 0 29 3203984684112 1 0
-10.508441 -36.04112 -0.8735774 11 3203984684112 1 0
-1.2331793 -3.555188 -1.754711 4 3203984704296 1 0
-8.058036 -33.48688 -0.6012005 10 3203984704296 1 0
-17.384428 -50.094814 -1.5431947 13 3203984706600 1 0
-1.7738175 -6.050952 -1.7651795 4 3203984706600 1 0
-2.9794698 -8.581584 -1.8168306 2 3203984708904 1 0
-25.570147 -87.179436 0 28 3203984708904 1 0
-20.443773 -50.71476 -0.636581 46 3203984711208 1 0
-3.2943707 -11.225856 -1.820133 12 3203984711208 1 0
-4.0391746 -11.622874 -1.566231 19 3203984713512 1 0
-8.502616 -35.24427 0.21071674 16 3203984713512 1 0
-25.631813 -73.7219 -0.4536315 26 3203984715816 1 0
-7.9362264 -19.662607 -1.9793369 3 3203984718120 1 0
-4.840407 -16.47637 -1.8497802 6 3203984715816 1 0
-10.438186 -35.511673 0.8612945 5 3203984718120 1 0
-20.467285 -50.688023 0.63639474 28 3203984720424 1 0
-8.225352 -27.968374 -2.0385633 7 3203984720424 1 0
-8.010824 -23.008265 -1.9888731 2 3203984722728 1 0
-30.344217 -87.11224 1.610159 29 3203984725032 1 0
-8.508376 -35.178364 1.05331 4 3203984722728 1 0
-8.962559 -22.168259 -1.3925458 2 3203984727336 1 1
-7.544715 -31.174212 -2.0555954 11 3203984725032 1 0
-10.652723 -36.163776 2.195562 8 3203984727336 1 0
-37.79514 -108.40084 4.6771035 29 3203984729640 1 0
-10.040943 -34.068626 -1.6544607 11 3203984729640 1 0
-7.8569946 -22.524235 -1.2502013 3 3203984731944 1 1
0 0 0 1 3203984731944 1 0
-37.828423 -108.39487 9.3722105 28 3203984734248 1 0
-9.075217 -22.409384 -0.84428865 3 3203984736552 1 1
-8.126208 -33.49166 -1.4040755 33 3203984734248 1 0
-10.245487 -34.706787 9.696397 6 3203984736552 1 0
0 0 0 29 3203984738856 1 0
-10.012308 -33.89873 -0.8224916 15 3203984738856 1 0
-8.179624 -33.477978 -0.60154957 15 3203984759592 1 0
-1.2479817 -3.5577035 -1.7580919 4 3203984759592 1 0
-17.459522 -49.751 -1.5344675 13 3203984761896 1 0
-1.7970774 -6.052121 -1.7673361 4 3203984761896 1 0
-3.0027857 -8.5526705 -1.8129083 2 3203984764200 1 0
-25.630404 -86.2733 0 28 3203984764200 1 0
-20.592422 -50.57686 -0.63574284 54 3203984766504 1 0
-3.3355439 -11.221938 -1.8213629 12 3203984766504 1 0
-4.0912232 -11.642515 -1.5707767 19 3203984768808 1 0
-8.603631 -35.129154 0.2102053 16 3203984768808 1 0
-31.489956 -89.57232 -0.5518296 28 3203984771112 1 0
-4.897292 -16.45955 -1.8497802 13 3203984771112 1 0
-8.00095 -19.627758 -1.9785933 3 3203984773416 1 0
-10.646104 -35.762936 0.86827344 5 3203984773416 1 0
-8.323786 -27.947565 -2.0391212 7 3203984775720 1 0
-20.621883 -50.56917 0.6357894 28 3203984775720 1 0
-8.093724 -22.991913 -1.9898496 2 3203984778024 1 0
-8.616682 -35.098473 1.0517974 4 3203984778024 1 0
-30.597246 -86.87954 1.6077855 29 3203984780328 1 0
-9.151481 -22.414768 -1.4099876 3 3203984782632 1 1
-7.6504965 -31.144308 -2.0553396 11 3203984780328 1 0
-10.266046 -34.416653 2.0916095 7 3203984782632 1 0
-38.22044 -108.42962 4.6839423 29 3203984784936 1 0
-10.261063 -34.382603 -1.6713979 12 3203984784936 1 0
-7.918995 -22.455925 -1.2478986 3 3203984787240 1 1
0 0 0 1 3203984787240 1 0
-38.256012 -108.43496 9.386856 28 3203984789544 1 0
-8.252325 -33.51432 -1.4061923 39 3203984789544 1 0
-9.226761 -22.563507 -0.85126853 3 3203984791848 1 1
0 0 0 9 3203984791848 1 0
0 0 0 29 3203984794152 1 0
-18.06203 -60.40012 -1.4669737 14 3203984794152 1 0
-1.2597727 -3.5535455 -1.7580919 4 3203984814888 1 0
-13.642875 -55.045895 -0.98990047 20 3203984814888 1 0
-17.615774 -49.666195 -1.5336529 13 3203984817192 1 0
-1.8138988 -6.0350356 -1.7641011 4 3203984817192 1 0
-3.0353143 -8.553667 -1.8152616 2 3203984819496 1 0
0 0 0 74 3203984819496 1 0
-20.730297 -50.4297 -0.63476497 46 3203984821800 1 0
-3.3743668 -11.214453 -1.8219777 12 3203984821800 1 0
-4.1411104 -11.658556 -1.5748173 18 3203984824104 1 0
-31.86029 -89.65354 -0.552992 28 3203984826408 1 0
-4.964514 -16.48094 -1.8540641 30 3203984826408 1 0
-8.070736 -19.60778 -1.9793369 3 3203984828712 1 0
0 0 0 15 3203984828712 1 0
-20.812881 -50.542774 0.6363482 57 3203984831016 1 0
-8.418108 -27.91513 -2.0388422 7 3203984831016 1 0
-8.707649 -35.041695 0.20985658 16 3203984824104 1 0
-8.725507 -35.022133 1.050401 13 3203984833320 1 0
-30.8791 -86.72458 1.6068779 29 3203984835624 1 0
-7.7616687 -31.133245 -2.0563629 11 3203984835624 1 0
-9.152907 -22.198368 -1.3983598 2 3203984837928 1 1
-10.397821 -34.42296 2.0941675 7 3203984837928 1 0
-38.681652 -108.53329 4.694201 29 3203984840232 1 0
-8.180615 -22.986532 -1.9918023 2 3203984833320 1 0
-7.9450097 -22.28141 -1.2397342 3 3203984842536 1 1
0 0 0 1 3203984842536 1 0
-10.475307 -34.660362 -1.6866602 12 3203984840232 1 0
0 0 0 8 3203984844840 1 0
-8.388164 -33.55886 -1.409286 39 3203984844840 1 0
-9.344274 -22.623262 -0.8547585 3 3203984847144 1 1
0 0 0 29 3203984849448 1 0
0 0 0 9 3203984847144 1 0
-18.15251 -59.930225 -1.45711 14 3203984849448 1 0
-1.2715647 -3.545492 -1.7564015 2 3203984870184 1 0
-13.81427 -54.87529 -0.9877364 20 3203984870184 1 0
-1.8382068 -6.03573 -1.7662578 4 3203984872488 1 0
-17.773024 -49.533684 -1.5315584 13 3203984872488 1 0
-3.0665205 -8.54253 -1.8152616 2 3203984874792 1 0
-20.884745 -50.283653 -0.63388026 46 3203984877096 1 0
0 0 0 243 3203984874792 1 0
-3.4152026 -11.202085 -1.8219777 11 3203984877096 1 0
-4.1875 -11.654625 -1.5763324 20 3203984879400 1 0
-8.812496 -34.9206 0.20932189 15 3203984879400 1 0
-31.023132 -86.303955 -0.5330222 28 3203984881704 1 0
-5.019644 -16.447601 -1.8523506 26 3203984881704 1 0
-8.137106 -19.56739 -1.9782215 3 3203984884008 1 0
0 0 0 211 3203984884008 1 0
-20.957012 -50.374897 0.63518405 47 3203984886312 1 0
-8.55742 -28.010456 -2.0480502 7 3203984886312 1 0
-8.286429 -23.020643 -1.9973351 2 3203984888616 1 0
-8.82726 -34.893528 1.0474919 13 3203984888616 1 0
-7.8756485 -31.112843 -2.0568745 11 3203984890920 1 0
-31.112492 -86.394615 1.602829 29 3203984890920 1 0
-9.309367 -22.349657 -1.4099876 3 3203984893224 1 1
-33.18482 -108.45238 6.6050577 28 3203984893224 1 0
-39.12879 -108.55558 4.7012024 29 3203984895528 1 0
-10.4263935 -34.05713 -1.6591138 17 3203984895528 1 0
-8.004354 -22.196476 -1.236594 3 3203984897832 1 1
0 0 0 1 3203984897832 1 0
0 0 0 8 3203984900136 1 0
-8.526613 -33.6023 -1.4123799 39 3203984900136 1 0
0 0 0 10 3203984902440 1 0
0 0 0 9 3203984902440 1 0
0 0 0 29 3203984904744 1 0
0 0 0 94 3203984904744 1 0
-1.2814616 -3.5342155 -1.7530205 4 3203984925480 1 0
-17.94582 -49.471344 -1.5315584 13 3203984927784 1 0
-1.8603992 -6.032957 -1.7673361 4 3203984927784 1 0
-3.0989969 -8.539147 -1.8168306 2 3203984930088 1 0
-13.97109 -54.691113 -0.98529303 20 3203984925480 1 0
-10.966077 -35.54276 0 220 3203984930088 1 0
-21.027653 -50.13299 -0.6329024 38 3203984932392 1 0
-3.4554503 -11.1938715 -1.8225926 11 3203984932392 1 0
-8.938307 -34.905125 0.20941487 31 3203984934696 1 0
-30.024946 -82.619965 -0.5109137 28 3203984937000 1 0
-4.2389946 -11.669773 -1.580373 16 3203984934696 1 0
-5.0793743 -16.437578 -1.8532073 28 3203984937000 1 0
-8.216154 -19.564573 -1.980824 3 3203984939304 1 0
-10.963699 -35.461807 0.86371386 226 3203984939304 1 0
-21.10484 -50.23506 0.6343459 57 3203984941608 1 0
-8.661038 -27.999475 -2.0494452 7 3203984941608 1 0
-8.372189 -23.006565 -1.998637 2 3203984943912 1 0
-8.953978 -34.881866 1.0480738 36 3203984943912 1 0
-29.964952 -82.30568 1.5289006 29 3203984946216 1 0
-7.9881773 -31.100628 -2.0578978 11 3203984946216 1 0
0 0 0 12 3203984948520 1 0
-39.566322 -108.5798 4.7082043 29 3203984950824 1 0
-11.078617 -35.759766 2.1802132 24 3203984948520 1 0
-10.529833 -33.970913 -1.6566942 41 3203984950824 1 0
-8.102308 -22.224693 -1.2397342 3 3203984953128 1 1
0 0 0 1 3203984953128 1 0
-8.656811 -33.622646 -1.4144965 39 3203984955432 1 0
0 0 0 8 3203984955432 1 0
0 0 0 10 3203984957736 1 0
0 0 0 9 3203984957736 1 0
0 0 0 29 3203984960040 1 0
-10.5475 -33.95804 -0.8274234 51 3203984960040 1 0
-1.2925428 -3.5263171 -1.75133 4 3203984980776 1 0
-14.145859 -54.580067 -0.9841761 20 3203984980776 1 0
-18.04957 -49.220707 -1.5257404 13 3203984983080 1 0
-1.8814468 -6.0264263 -1.7673361 4 3203984983080 1 0
-3.1274343 -8.524595 -1.8160461 2 3203984985384 1 0
0 0 0 42 3203984985384 1 0
-21.219679 -50.099796 -0.6334146 100 3203984987688 1 0
-3.495682 -11.1855135 -1.8232076 11 3203984987688 1 0
-4.2865424 -11.673529 -1.5828985 18 3203984989992 1 0
-9.097308 -35.016956 0.21027504 16 3203984989992 1 0
0 0 0 9 3203984992296 1 0
-5.142658 -16.438726 -1.8553493 35 3203984992296 1 0
-8.2921715 -19.554106 -1.9826828 3 3203984994600 1 0
-11.101751 -35.469116 0.8648305 225 3203984994600 1 0
-21.247261 -50.083763 0.6333681 65 3203984996904 1 0
-8.767069 -27.995728 -2.0513983 7 3203984996904 1 0
-8.456575 -22.988424 -1.9996133 2 3203984999208 1 0
-9.11095 -34.98582 1.0521464 18 3203984999208 1 0
-30.267263 -82.24187 1.5296686 29 3203985001512 1 0
-8.098703 -31.08028 -2.0584095 7 3203985001512 1 0
0 0 0 12 3203985003816 1 0
-11.195009 -35.694206 2.1785853 8 3203985003816 1 0
-40.007263 -108.609795 4.7155313 29 3203985006120 1 0
-10.630404 -33.876762 -1.6539023 23 3203985006120 1 0
-8.201938 -22.256247 -1.2430836 3 3203985008424 1 1
0 0 0 1 3203985008424 1 0
-8.792303 -33.661827 -1.4174275 39 3203985010728 1 0
0 0 0 8 3203985010728 1 0
-9.723152 -22.85454 -0.86732227 3 3203985013032 1 1
0 0 0 9 3203985013032 1 0
0 0 0 29 3203985015336 1 0
-10.652777 -33.87905 -0.8263998 66 3203985015336 1 0
-1.3086226 -3.531982 -1.7564015 4 3203985036072 1 0
0 0 0 29 3203985036072 1 0
-18.185818 -49.06394 -1.5228313 13 3203985038376 1 0
-1.902384 -6.0198503 -1.7673361 4 3203985038376 1 0
-3.1582878 -8.517396 -1.8168306 2 3203985040680 1 0
-10.704056 -33.856186 0 50 3203985040680 1 0
-21.36237 -49.956482 -0.6325299 83 3203985042984 1 0
-3.53541 -11.177166 -1.8238225 10 3203985042984 1 0
-4.3362503 -11.684788 -1.586434 19 3203985045288 1 0
-9.111466 -34.583256 0.20785728 57 3203985045288 1 0
-40.200764 -108.28456 -0.6713225 28 3203985047592 1 0
-5.203616 -16.436218 -1.8570628 26 3203985047592 1 0
-8.355539 -19.51845 -1.9819393 3 3203985049896 1 0
-11.246552 -35.50737 0.8666915 223 3203985049896 1 0
-21.38695 -49.941612 0.6324833 65 3203985052200 1 0
-8.861892 -27.965857 -2.0513983 7 3203985052200 1 0
-8.541041 -22.978443 -2.0012405 2 3203985054504 1 0
-9.127905 -34.572163 1.0406265 52 3203985054504 1 0
-30.489042 -81.993515 1.526946 29 3203985056808 1 0
-8.208177 -31.072193 -2.0596886 7 3203985056808 1 0
0 0 0 12 3203985059112 1 0
-34.423744 -108.48454 6.6283135 28 3203985059112 1 0
-40.42733 -108.63326 4.72237 29 3203985061416 1 0
-10.781865 -33.963036 -1.6598582 11 3203985061416 1 0
-8.274303 -22.225182 -1.2428743 3 3203985063720 1 1
-11.305193 -35.59537 4.5856996 7 3203985063720 1 0
0 0 0 8 3203985066024 1 0
-8.920779 -33.6983 -1.4201956 40 3203985066024 1 0
0 0 0 9 3203985068328 1 0
0 0 0 29 3203985070632 1 0
-10.766012 -33.851627 -0.8265859 20 3203985070632 1 0
-9.774568 -22.767355 -0.8652283 3 3203985068328 1 1
-1.3222525 -3.5346444 -1.7597824 4 3203985091368 1 0
-9.185292 -34.496635 -0.6231207 93 3203985091368 1 0
-18.271217 -48.818798 -1.5170132 12 3203985093672 1 0
-1.9226338 -6.017457 -1.7684144 4 3203985093672 1 0
-3.1841497 -8.503573 -1.8160461 2 3203985095976 1 0
-10.857399 -33.962734 0 10 3203985095976 1 0
-21.495039 -49.82114 -0.63169175 83 3203985098280 1 0
-3.5726852 -11.169457 -1.8244374 11 3203985098280 1 0
-4.3854365 -11.700323 -1.5904746 19 3203985100584 1 0
-9.208613 -34.49542 0.20750856 68 3203985100584 1 0
-19.528963 -52.07782 -0.32325864 10 3203985102888 1 0
-8.423377 -19.497946 -1.9826828 3 3203985105192 1 0
-5.2636786 -16.437963 -1.8592048 18 3203985102888 1 0
-11.386199 -35.53843 0.8683665 146 3203985105192 1 0
-21.523745 -49.80003 0.6315986 65 3203985107496 1 0
-8.961484 -27.955053 -2.0527935 3 3203985107496 1 0
-8.573677 -22.830061 -1.9908259 2 3203985109800 1 0
-9.224869 -34.46778 1.0384157 65 3203985109800 1 0
-19.575111 -52.099445 0.9714708 24 3203985112104 1 0
-8.354154 -31.194458 -2.069666 11 3203985112104 1 0
-9.774586 -22.585934 -1.4332432 3 3203985114408 1 1
-11.263317 -35.07762 2.1455624 7 3203985114408 1 0
-19.651682 -52.252453 2.2743971 21 3203985116712 1 0
-10.956808 -34.104305 -1.668606 18 3203985116712 1 0
-8.315258 -22.098959 -1.2374314 3 3203985119016 1 1
-11.5034895 -35.78625 4.6154356 7 3203985119016 1 0
0 0 0 8 3203985121320 1 0
-9.053843 -33.72073 -1.4224752 40 3203985121320 1 0
0 0 0 10 3203985123624 1 0
0 0 0 9 3203985123624 1 0
0 0 0 29 3203985125928 1 0
-10.965501 -34.056507 -0.8325413 15 3203985125928 1 0
-1.337098 -3.5329316 -1.761473 4 3203985146664 1 0
-9.321857 -34.476555 -0.6234 93 3203985146664 1 0
-18.492508 -48.8423 -1.5199223 12 3203985148968 1 0
-1.9443637 -6.0064225 -1.7673361 4 3203985148968 1 0
-3.2190623 -8.498808 -1.817615 2 3203985151272 1 0
-21.65307 -49.674133 -0.6308536 83 3203985153576 1 0
-3.615791 -11.159732 -1.8250523 11 3203985153576 1 0
-4.438816 -11.709886 -1.5940101 20 3203985155880 1 0
-9.336988 -34.460896 0.20750856 63 3203985155880 1 0
-11.085579 -34.22967 0 10 3203985151272 1 0
-19.709873 -51.9754 -0.32307267 30 3203985158184 1 0
-5.3292766 -16.433538 -1.8609183 13 3203985158184 1 0
-8.491599 -19.45964 -1.9819393 3 3203985160488 1 0
0 0 0 3 3203985160488 1 0
-21.677477 -49.659122 0.63080704 65 3203985162792 1 0
-7.5884905 -23.379267 -1.7187995 2 3203985162792 1 0
-8.4338045 -22.213825 -1.9397291 2 3203985165096 1 0
-9.354372 -34.453575 1.0389975 65 3203985165096 1 0
-19.769913 -52.051506 0.9718896 37 3203985167400 1 0
-8.474083 -31.195185 -2.0717127 11 3203985167400 1 0
0 0 0 12 3203985169704 1 0
-11.33589 -34.877926 2.135795 7 3203985169704 1 0
-19.812756 -52.123188 2.271792 63 3203985172008 1 0
-11.058246 -34.008533 -1.6658143 76 3203985172008 1 0
-8.443459 -22.204212 -1.2449677 3 3203985174312 1 1
0 0 0 1 3203985174312 1 0
0 0 0 49 3203985176616 1 0
-9.18941 -33.758602 -1.4254061 40 3203985176616 1 0
-10.013408 -22.881674 -0.87220824 3 3203985178920 1 1
0 0 0 9 3203985178920 1 0
0 0 0 29 3203985181224 1 0
-11.174236 -34.30416 -0.8395202 15 3203985181224 1 0
-1.3481904 -3.5287137 -1.761473 4 3203985201960 1 0
-9.448074 -34.512676 -0.6245867 50 3203985201960 1 0
-18.596605 -48.652977 -1.5158496 12 3203985204264 1 0
-1.964509 -6.0039167 -1.7684144 4 3203985204264 1 0
-3.2445922 -8.484895 -1.8168306 2 3203985206568 1 0
-21.783815 -49.542667 -0.630062 83 3203985208872 1 0
-11.288634 -34.48326 0 10 3203985206568 1 0
-3.6537793 -11.155671 -1.8262821 11 3203985208872 1 0
-4.489027 -11.728975 -1.5985557 18 3203985211176 1 0
-9.468375 -34.507988 0.20797352 36 3203985211176 1 0
-19.945492 -52.09108 -0.32418856 10 3203985213480 1 0
-5.365965 -16.367195 -1.8553493 12 3203985213480 1 0
-8.5592 -19.443058 -1.9830546 1 3203985215784 1 0
0 0 0 1 3203985215784 1 0
-21.80941 -49.522663 0.6299689 65 3203985218088 1 0
-7.58465 -23.111887 -1.7009418 2 3203985218088 1 0
-8.503276 -22.178785 -1.9390781 2 3203985220392 1 0
-9.490955 -34.511585 1.0416739 21 3203985220392 1 0
-19.998869 -52.13963 0.97475183 12 3203985222696 1 0
-8.527408 -30.990244 -2.0599444 11 3203985222696 1 0
0 0 0 12 3203985225000 1 0
-11.454214 -34.851856 2.1364927 7 3203985225000 1 0
-19.989033 -52.068684 2.2722805 21 3203985227304 1 0
-11.167971 -33.964245 -1.665442 41 3203985227304 1 0
-8.48124 -22.082867 -1.2397342 3 3203985229608 1 1
0 0 0 1 3203985229608 1 0
0 0 0 8 3203985231912 1 0
-9.324112 -33.808716 -1.4288255 40 3203985231912 1 0
-9.928406 -22.482363 -0.8582484 3 3203985234216 1 1
0 0 0 9 3203985234216 1 0
0 0 0 29 3203985236520 1 0
-1.359194 -3.5206041 -1.7597824 4 3203985257256 1 0
-11.37827 -34.536087 -0.8461269 16 3203985236520 1 0
0 0 0 14 3203985257256 1 0
-18.781082 -48.624928 -1.5170132 12 3203985259560 1 0
-1.9842876 -5.9933515 -1.7673361 4 3203985259560 1 0
-3.275727 -8.477129 -1.817615 2 3203985261864 1 0
-11.48616 -34.675106 0 10 3203985261864 1 0
-21.925243 -49.39273 -0.6291307 83 3203985264168 1 0
-3.6941843 -11.14652 -1.826897 11 3203985264168 1 0
-4.5388703 -11.735307 -1.6015861 18 3203985266472 1 0
0 0 0 1 3203985266472 1 0
-20.025164 -51.75182 -0.3225147 30 3203985268776 1 0
-5.421154 -16.340618 -1.8544925 22 3203985268776 1 0
-8.626247 -19.409046 -1.9826828 3 3203985271080 1 0
-30.968943 -93.29991 2.287511 28 3203985271080 1 0
-21.95866 -49.38664 0.6292238 65 3203985273384 1 0
-7.6098614 -22.91447 -1.6883857 2 3203985273384 1 0
-8.622263 -22.252556 -1.9481909 5 3203985275688 1 0
0 0 0 3 3203985275688 1 0
-20.07574 -51.788506 0.9695161 36 3203985277992 1 0
-8.513122 -30.513706 -2.0302682 11 3203985277992 1 0
-10.00893 -22.483065 -1.4332432 3 3203985280296 1 1
-11.574551 -34.799454 2.135795 7 3203985280296 1 0
0 0 0 2 3203985282600 1 0
-42.194366 -108.74839 4.752331 29 3203985282600 1 0
-8.610789 -22.182713 -1.2470611 3 3203985284904 1 1
0 0 0 1 3203985284904 1 0
0 0 0 8 3203985287208 1 0
-9.462485 -33.836655 -1.4314308 34 3203985287208 1 0
-10.188191 -22.848164 -0.8736042 3 3203985289512 1 1
0 0 0 9 3203985289512 1 0
0 0 0 29 3203985291816 1 0
-11.549322 -34.63527 -0.84956986 5 3203985291816 1 0
-1.3720886 -3.5155988 -1.7597824 5 3203985312552 1 0
-9.28399 -23.776943 -0.7428559 3 3203985314856 1 1
-2.0074651 -5.989691 -1.7684144 5 3203985314856 1 0
-10.183493 -36.180443 -0.6560709 12 3203985312552 1 0
-3.303921 -8.457759 -1.8160461 2 3203985317160 1 0
-25.704893 -76.65706 0 28 3203985317160 1 0
-22.081587 -49.257294 -0.6284322 91 3203985319464 1 0
-3.7350135 -11.132905 -1.826897 11 3203985319464 1 0
-4.5934114 -11.748157 -1.6056267 19 3203985321768 1 0
-17.77912 -63.01895 0.3805641 22 3203985321768 1 0
-20.044226 -51.24224 -0.31979474 30 3203985324072 1 0
-5.482275 -16.32441 -1.8549209 27 3203985324072 1 0
-8.70385 -19.391832 -1.98417 3 3203985326376 1 0
-31.291592 -93.12892 2.2861154 28 3203985326376 1 0
-22.111671 -49.243793 0.6284322 65 3203985328680 1 0
-7.6810813 -22.848602 -1.6855954 2 3203985328680 1 0
-8.721212 -22.26535 -1.9520965 2 3203985330984 1 0
-32.750633 -115.81543 3.502733 44 3203985330984 1 0
-20.093233 -51.27518 0.96127856 36 3203985333288 1 0
-8.903126 -31.4656 -2.0957606 12 3203985333288 1 0
0 0 0 12 3203985335592 1 0
-11.80905 -35.07469 2.1553297 8 3203985335592 1 0
-20.273327 -51.68828 2.2620223 62 3203985337896 1 0
-11.903239 -35.336605 -1.7369138 62 3203985337896 1 0
-8.7372675 -22.266277 -1.2535508 3 3203985340200 1 1
0 0 0 1 3203985340200 1 0
-20.282324 -51.66479 4.531025 47 3203985342504 1 0
-9.608249 -33.878647 -1.4346874 34 3203985342504 1 0
-10.255451 -22.774218 -0.87220824 3 3203985344808 1 1
0 0 0 9 3203985344808 1 0
0 0 0 29 3203985347112 1 0
-12.355275 -36.604614 -0.8989808 5 3203985347112 1 0
-1.384352 -3.510788 -1.7597824 4 3203985368296 1 0
-10.291075 -36.079296 -0.6548841 12 3203985368296 1 0
-9.359249 -23.72593 -0.74227405 3 3203985370600 1 1
-2.0282738 -5.9826765 -1.7684144 4 3203985370600 1 0
-3.3374977 -8.457217 -1.8183995 2 3203985372904 1 0
-25.763237 -75.95774 0 28 3203985372904 1 0
-22.22157 -49.11529 -0.62759405 82 3203985375208 1 0
-3.7733665 -11.119965 -1.826897 11 3203985375208 1 0
-17.952454 -62.807564 0.37965745 22 3203985377512 1 0
-20.13988 -50.97255 -0.31853935 30 3203985379816 1 0
-5.5444336 -16.324404 -1.8570628 32 3203985379816 1 0
-4.642455 -11.754464 -1.6086571 19 3203985377512 1 0
-8.768154 -19.358469 -1.9837981 3 3203985382120 1 0
-31.34333 -92.241905 2.2669466 28 3203985382120 1 0
-22.24871 -49.103 0.62759405 64 3203985384424 1 0
-7.709664 -22.67888 -1.6749924 2 3203985384424 1 0
-9.035338 -22.840069 -2.005146 2 3203985386728 1 0
-32.769115 -114.405075 3.4634025 44 3203985386728 1 0
-20.166788 -50.95823 0.9566013 35 3203985389032 1 0
-9.029687 -31.508419 -2.1006215 12 3203985389032 1 0
0 0 0 12 3203985391336 1 0
-36.935806 -108.50339 6.6750574 28 3203985391336 1 0
-20.451258 -51.63533 2.2626734 62 3203985393640 1 0
0 0 0 2 3203985393640 1 0
-8.824301 -22.270603 -1.2554349 3 3203985395944 1 1
0 0 0 1 3203985395944 1 0
-20.464542 -51.627193 4.5336285 70 3203985398248 1 0
-9.74101 -33.919727 -1.4377811 35 3203985398248 1 0
0 0 0 10 3203985400552 1 0
0 0 0 9 3203985400552 1 0
0 0 0 29 3203985402856 1 0
-17.198477 -50.408417 -1.239367 10 3203985402856 1 0
-1.3973275 -3.509546 -1.761473 4 3203985423592 1 0
-9.803622 -33.94321 -0.6166982 11 3203985423592 1 0
-9.3672 -23.51633 -0.7366887 3 3203985425896 1 1
-2.0506866 -5.9831753 -1.770571 5 3203985425896 1 0
-3.3643181 -8.442361 -1.817615 2 3203985428200 1 0
-22.359882 -48.982136 -0.62684906 82 3203985430504 1 0
-25.774557 -75.16358 0 28 3203985428200 1 0
-3.809423 -11.103485 -1.8262821 11 3203985430504 1 0
-4.6909122 -11.760846 -1.6116877 19 3203985432808 1 0
-17.988546 -62.139565 0.3759843 21 3203985432808 1 0
-20.28137 -50.82599 -0.31805116 30 3203985435112 1 0
-5.60489 -16.320566 -1.8587763 25 3203985435112 1 0
-30.790354 -89.61217 2.2048805 28 3203985437416 1 0
-22.386475 -48.961193 0.6267559 64 3203985439720 1 0
-8.845577 -19.353872 -1.9864006 3 3203985437416 1 0
-7.740434 -22.51655 -1.6649475 2 3203985439720 1 0
-32.90536 -113.40874 3.4366393 44 3203985442024 1 0
-20.314116 -50.81785 0.95527494 35 3203985444328 1 0
-9.125518 -22.83854 -2.0077498 2 3203985442024 1 0
-9.4676695 -32.61183 -2.1763473 12 3203985444328 1 0
0 0 0 12 3203985446632 1 0
-37.37357 -108.556114 6.68622 28 3203985446632 1 0
-20.658833 -51.63443 2.2657673 42 3203985448936 1 0
-7.885721 -22.893684 -1.1279144 3 3203985448936 1 1
-8.976206 -22.425087 -1.2659022 3 3203985451240 1 1
0 0 0 1 3203985451240 1 0
-20.691324 -51.669876 4.543718 71 3203985453544 1 0
0 0 0 10 3203985455848 1 0
-9.878828 -33.950615 -1.4405493 29 3203985453544 1 0
0 0 0 9 3203985455848 1 0
0 0 0 29 3203985458152 1 0
-1.4088279 -3.5010378 -1.7597824 4 3203985478888 1 0
-17.34391 -50.252815 -1.2370408 10 3203985458152 1 0
-9.938079 -33.941593 -0.6173265 11 3203985478888 1 0
-9.397912 -23.344675 -0.7323833 3 3203985481192 1 1
-2.0725586 -5.975634 -1.770571 5 3203985481192 1 0
-3.3980465 -8.4373 -1.819184 2 3203985483496 1 0
-25.842907 -74.47569 0 27 3203985483496 1 0
-22.508059 -48.83496 -0.6260109 82 3203985485800 1 0
-3.8498518 -11.089533 -1.8262821 11 3203985485800 1 0
-4.7469954 -11.7768345 -1.6162332 20 3203985488104 1 0
-18.104004 -61.697613 0.37370604 20 3203985488104 1 0
-20.437252 -50.681572 -0.31760946 30 3203985490408 1 0
-5.67191 -16.32266 -1.8613467 16 3203985490408 1 0
-8.910604 -19.310862 -1.9852853 3 3203985492712 1 0
-22.538143 -48.825493 0.62605745 64 3203985495016 1 0
-7.7522907 -22.288681 -1.6501591 2 3203985495016 1 0
-31.150143 -89.60206 2.207393 28 3203985492712 1 0
-9.234704 -22.872017 -2.013608 2 3203985497320 1 0
-32.828045 -111.63604 3.3864872 44 3203985497320 1 0
-30.854717 -76.3873 1.4380084 29 3203985499624 1 0
0 0 0 36 3203985499624 1 0
0 0 0 12 3203985501928 1 0
-37.767254 -108.432465 6.686918 28 3203985501928 1 0
-20.878271 -51.645256 2.2695124 42 3203985504232 1 0
-7.9414525 -22.789803 -1.124192 3 3203985504232 1 1
-9.093825 -22.485407 -1.2711357 3 3203985506536 1 1
0 0 0 1 3203985506536 1 0
-20.88765 -51.62523 4.5463214 71 3203985508840 1 0
-10.0712 -34.156635 -1.4508075 11 3203985508840 1 0
-10.575024 -22.848036 -0.8791881 3 3203985511144 1 1
0 0 0 9 3203985511144 1 0
0 0 0 29 3203985513448 1 0
-17.489553 -50.096436 -1.2347144 10 3203985513448 1 0
-1.4224054 -3.4994571 -1.761473 4 3203985534184 1 0
-10.177043 -34.313133 -0.62472636 5 3203985534184 1 0
-2.0920434 -5.964759 -1.7694926 5 3203985536488 1 0
-9.403702 -23.126675 -0.7265652 3 3203985536488 1 1
-3.4257543 -8.421853 -1.8183995 2 3203985538792 1 0
-25.889982 -73.78566 0 27 3203985538792 1 0
-22.654333 -48.709938 -0.62540555 82 3203985541096 1 0
-4.7963676 -11.782521 -1.6192636 20 3203985543400 1 0
-3.8867457 -11.072467 -1.8256671 10 3203985541096 1 0
0 0 0 5 3203985543400 1 0
-20.583204 -50.544743 -0.317191 30 3203985545704 1 0
-5.730303 -16.310682 -1.8622035 8 3203985545704 1 0
-8.9813175 -19.291256 -1.9864006 3 3203985548008 1 0
-30.676561 -87.28096 2.152771 28 3203985548008 1 0
-22.678146 -48.694447 0.625359 64 3203985550312 1 0
-7.81719 -22.232166 -1.6479269 2 3203985550312 1 0
-9.319353 -22.859184 -2.0152352 2 3203985552616 1 0
0 0 0 30 3203985552616 1 0
-30.818184 -75.56477 1.4244654 29 3203985554920 1 0
-9.635142 -32.346214 -2.163044 20 3203985554920 1 0
0 0 0 12 3203985557224 1 0
-38.149662 -108.36202 6.690406 28 3203985557224 1 0
-21.072823 -51.630936 2.2719548 63 3203985559528 1 0
-7.9549274 -22.586096 -1.1154441 3 3203985559528 1 1
-9.017345 -22.085312 -1.2502013 3 3203985561832 1 1
0 0 0 1 3203985561832 1 0
-21.07607 -51.600277 4.5502267 47 3203985564136 1 0
-10.284498 -34.460217 -1.4651364 12 3203985564136 1 0
0 0 0 10 3203985566440 1 0
0 0 0 9 3203985566440 1 0
0 0 0 29 3203985568744 1 0
-1.4347678 -3.4983253 -1.7631634 4 3203985589480 1 0
0 0 0 43 3203985589480 1 0
-9.4586 -23.052423 -0.7251688 3 3203985591784 1 1
-17.620138 -49.944653 -1.2323881 10 3203985568744 1 0
-2.1096153 -5.95448 -1.7684144 2 3203985591784 1 0
-3.4525626 -8.410899 -1.8183995 2 3203985594088 1 0
-31.537209 -88.971954 0 28 3203985594088 1 0
-22.776464 -48.56461 -0.6244743 82 3203985596392 1 0
-3.9222355 -11.059945 -1.8256671 11 3203985596392 1 0
-4.8464503 -11.796336 -1.6233042 19 3203985598696 1 0
0 0 0 210 3203985598696 1 0
-20.716988 -50.403572 -0.31672606 30 3203985601000 1 0
-5.7779713 -16.276978 -1.86049 3 3203985601000 1 0
-9.047785 -19.26897 -1.9871442 3 3203985603304 1 0
-31.811855 -89.57298 2.2118595 28 3203985603304 1 0
-22.804426 -48.54707 0.6244277 64 3203985605608 1 0
-7.8863792 -22.195015 -1.6470898 2 3203985605608 1 0
-9.4011755 -22.842901 -2.0165372 3 3203985607912 1 0
-10.791088 -35.809563 1.0884514 50 3203985607912 1 0
-31.176828 -75.72035 1.429352 58 3203985610216 1 0
-9.736144 -32.290943 -2.161509 8 3203985610216 1 0
0 0 0 12 3203985612520 1 0
-38.627308 -108.55302 6.710173 28 3203985612520 1 0
-21.27166 -51.618507 2.27456 64 3203985614824 1 0
-8.020537 -22.528952 -1.1139551 3 3203985614824 1 1
0 0 0 8 3203985617128 1 0
0 0 0 1 3203985617128 1 0
-21.29981 -51.642036 4.560316 24 3203985619432 1 0
-10.504207 -34.76146 -1.4794654 12 3203985619432 1 0
-10.813818 -22.957129 -0.886168 3 3203985621736 1 1
0 0 0 9 3203985621736 1 0
0 0 0 29 3203985624040 1 0
-17.743574 -49.743874 -1.2289451 10 3203985624040 1 0
-1.4475801 -3.4930432 -1.7631634 4 3203985644776 1 0
0 0 0 101 3203985644776 1 0
-9.55035 -23.036207 -0.7257506 3 3203985647080 1 1
-2.1326387 -5.950365 -1.7694926 4 3203985647080 1 0
-3.484625 -8.401913 -1.819184 2 3203985649384 1 0
-31.910463 -88.99601 0 28 3203985649384 1 0
-22.9231 -48.42035 -0.6236827 75 3203985651688 1 0
-3.9582603 -11.034507 -1.8238225 12 3203985651688 1 0
-4.9011374 -11.808097 -1.6273448 18 3203985653992 1 0
-10.824668 -35.535248 0.21590097 223 3203985653992 1 0
-20.89946 -50.332516 -0.3167493 60 3203985656296 1 0
-5.8377523 -16.25986 -1.8609183 2 3203985656296 1 0
-9.113258 -19.229277 -1.9864006 3 3203985658600 1 0
-31.076385 -86.519295 2.1391854 28 3203985658600 1 0
-22.953283 -48.4149 0.6237758 64 3203985660904 1 0
-9.486773 -22.820438 -2.0175135 3 3203985663208 1 0
-7.969466 -22.178038 -1.6479269 4 3203985660904 1 0
-31.593218 -75.967896 1.4361236 29 3203985665512 1 0
0 0 0 250 3203985663208 1 0
-9.783755 -32.03872 -2.1469266 8 3203985665512 1 0
-10.723235 -22.594105 -1.4564987 3 3203985667816 1 1
0 0 0 3 3203985667816 1 0
-8.10487 -22.515738 -1.1146996 3 3203985670120 1 1
-21.483177 -51.617424 2.2778165 64 3203985670120 1 0
0 0 0 8 3203985672424 1 0
0 0 0 1 3203985672424 1 0
-21.491459 -51.597126 4.5629196 24 3203985674728 1 0
-10.413321 -34.032993 -1.4499934 52 3203985674728 1 0
0 0 0 10 3203985677032 1 0
0 0 0 9 3203985677032 1 0
0 0 0 29 3203985679336 1 0
-17.876955 -49.577084 -1.2263397 10 3203985679336 1 0
-1.4577565 -3.4848793 -1.761473 4 3203985700072 1 0
-10.971913 -35.664764 -0.6513238 90 3203985700072 1 0
-9.627023 -23.00427 -0.7257506 3 3203985702376 1 1
-2.153757 -5.946851 -1.770571 4 3203985702376 1 0
-3.5127118 -8.390208 -1.819184 2 3203985704680 1 0
-31.220062 -86.16223 0 28 3203985704680 1 0
-23.06152 -48.29253 -0.6230308 90 3203985706984 1 0
-3.9980052 -11.028578 -1.8250523 16 3203985706984 1 0
-4.9501543 -11.81345 -1.6303753 19 3203985709288 1 0
-10.964546 -35.5635 0.21629618 222 3203985709288 1 0
-5.892821 -16.239983 -1.8609183 3 3203985711592 1 0
-9.185522 -19.212523 -1.9878877 3 3203985713896 1 0
-31.25058 -86.082245 2.1309967 28 3203985713896 1 0
-23.08929 -48.274826 0.62298423 64 3203985716200 1 0
0 0 0 19 3203985716200 1 0
-9.569676 -22.798769 -2.0184898 3 3203985718504 1 0
-10.953477 -35.450665 1.0798407 220 3203985718504 1 0
-21.051352 -50.217136 -0.31647032 100 3203985711592 1 0
-31.856441 -75.86223 1.4361935 29 3203985720808 1 0
-9.882345 -31.966665 -2.1443684 8 3203985720808 1 0
0 0 0 12 3203985723112 1 0
-39.523426 -108.66348 6.733894 28 3203985723112 1 0
-8.1339 -22.352257 -1.1079991 3 3203985725416 1 1
0 0 0 8 3203985727720 1 0
0 0 0 1 3203985727720 1 0
-21.69228 -51.56925 4.5671506 24 3203985730024 1 0
-21.698092 -51.62718 2.2815616 64 3203985725416 1 0
-10.513624 -33.9352 -1.447388 52 3203985730024 1 0
-11.017041 -22.971186 -0.889658 3 3203985732328 1 1
0 0 0 9 3203985732328 1 0
0 0 0 29 3203985734632 1 0
-18.030146 -49.45348 -1.2248509 10 3203985734632 1 0
-10.567064 -33.906094 -0.61990947 60 3203985755368 1 0
-9.605228 -22.71848 -0.717838 3 3203985757672 1 1
-1.473342 -3.4861913 -1.7648538 4 3203985755368 1 0
-2.1754959 -5.9389324 -1.770571 4 3203985757672 1 0
-3.5463738 -8.384554 -1.820753 2 3203985759976 1 0
-30.303911 -82.690056 0 28 3203985759976 1 0
-23.211264 -48.154144 -0.62233233 88 3203985762280 1 0
-4.0422416 -11.025071 -1.826897 13 3203985762280 1 0
-5.0023575 -11.817297 -1.6334057 19 3203985764584 1 0
-11.118826 -35.603577 0.21678439 222 3203985764584 1 0
-21.205366 -50.074116 -0.31605187 90 3203985766888 1 0
-5.948974 -16.211023 -1.8600615 3 3203985766888 1 0
-9.248117 -19.164783 -1.9864006 3 3203985769192 1 0
-31.659979 -86.23503 2.1376035 28 3203985769192 1 0
-23.234058 -48.129826 0.6221926 64 3203985771496 1 0
0 0 0 3 3203985771496 1 0
-9.662743 -22.789795 -2.0207682 3 3203985773800 1 0
-11.106353 -35.49106 1.0822842 222 3203985773800 1 0
-30.87838 -72.79789 1.380276 28 3203985776104 1 0
-9.967535 -31.835648 -2.1379726 8 3203985776104 1 0
-11.089116 -22.945751 -1.4841729 3 3203985778408 1 1
-39.954895 -108.633224 6.7408705 28 3203985778408 1 0
-21.915842 -51.626312 2.284981 65 3203985780712 1 0
-8.2126045 -22.3192 -1.107813 3 3203985780712 1 1
0 0 0 8 3203985783016 1 0
0 0 0 1 3203985783016 1 0
-21.927723 -51.612553 4.577891 24 3203985785320 1 0
-10.626353 -33.87075 -1.4462483 23 3203985785320 1 0
-11.1145 -22.964167 -0.8909144 3 3203985787624 1 1
0 0 0 9 3203985787624 1 0
0 0 0 29 3203985789928 1 0
-18.1644 -49.276485 -1.2220592 10 3203985789928 1 0
-1.4826562 -3.4743586 -1.761473 4 3203985810664 1 0
-10.691371 -33.888073 -0.6202585 16 3203985810664 1 0
-9.684307 -22.684881 -0.717838 3 3203985812968 1 1
-2.193495 -5.924094 -1.7684144 4 3203985812968 1 0
-3.575498 -8.372176 -1.820753 2 3203985815272 1 0
-30.45778 -82.22413 0 28 3203985815272 1 0
-23.346678 -48.00859 -0.6214942 88 3203985817576 1 0
-4.083208 -11.018395 -1.8281268 12 3203985817576 1 0
-5.0572686 -11.832748 -1.6379514 19 3203985819880 1 0
-11.254059 -35.603016 0.21701686 117 3203985819880 1 0
-21.349905 -49.934364 -0.31563342 80 3203985822184 1 0
-6.010468 -16.205294 -1.861775 3 3203985822184 1 0
-9.317611 -19.139954 -1.9871442 3 3203985824488 1 0
-30.848314 -83.13732 2.0634406 28 3203985824488 1 0
-23.373207 -47.99568 0.6214942 64 3203985826792 1 0
-8.195719 -22.078403 -1.6468109 2 3203985826792 1 0
-9.7409115 -22.756495 -2.0207682 3 3203985829096 1 0
-11.24501 -35.506092 1.0839133 217 3203985829096 1 0
-10.064463 -31.763268 -2.1354144 8 3203985831400 1 0
-11.179728 -22.932842 -1.4858009 6 3203985833704 1 1
-40.395523 -108.68318 6.7524986 28 3203985833704 1 0
-22.12013 -51.61739 2.287912 66 3203985836008 1 0
-8.253865 -22.197433 -1.1031599 3 3203985836008 1 1
-31.061424 -72.537285 1.3773439 56 3203985831400 1 0
0 0 0 8 3203985838312 1 0
-22.120163 -51.57809 4.581471 24 3203985840616 1 0
-10.807835 -34.04398 -1.4552039 12 3203985840616 1 0
-11.308004 -23.163464 -0.9001278 3 3203985842920 1 1
0 0 0 9 3203985842920 1 0
0 0 0 1 3203985838312 1 0
0 0 0 29 3203985845224 1 0
-18.298826 -49.12859 -1.2199191 10 3203985845224 1 0
-1.4970374 -3.476082 -1.7648538 4 3203985865960 1 0
-10.893669 -34.134377 -0.62542444 11 3203985865960 1 0
-9.799196 -22.744371 -0.72074705 3 3203985868264 1 1
-2.213171 -5.9167714 -1.7684144 4 3203985868264 1 0
-31.04971 -82.97263 0 57 3203985870568 1 0
-23.485662 -47.887302 -0.6209354 95 3203985872872 1 0
-3.603363 -8.360221 -1.820753 2 3203985870568 1 0
-4.1185784 -11.001002 -1.8275119 8 3203985872872 1 0
-5.110968 -11.848556 -1.6424971 20 3203985875176 1 0
0 0 0 3 3203985875176 1 0
-21.495 -49.811092 -0.31530795 90 3203985877480 1 0
-6.0661573 -16.188776 -1.8622035 3 3203985877480 1 0
-9.388885 -19.12284 -1.9886312 3 3203985879784 1 0
-23.50999 -47.86645 0.6208422 63 3203985882088 1 0
-30.804605 -82.17198 2.0420384 28 3203985879784 1 0
-8.264405 -22.035738 -1.6456947 2 3203985882088 1 0
-9.819224 -22.727156 -2.0210936 3 3203985884392 1 0
0 0 0 6 3203985884392 1 0
-31.290668 -72.39512 1.3766458 56 3203985886696 1 0
-7.3958 -23.0698 -1.5526333 2 3203985886696 1 1
-11.271475 -22.923492 -1.4876612 6 3203985889000 1 1
-40.79168 -108.62043 6.7571497 28 3203985889000 1 0
-22.33497 -51.633675 2.2919827 44 3203985891304 1 0
-8.313745 -22.12813 -1.1011125 3 3203985891304 1 1
0 0 0 1 3203985893608 1 0
-9.79135 -22.626474 -1.29207 3 3203985893608 1 1
-22.351385 -51.630398 4.5928617 24 3203985895912 1 0
-11.013113 -34.2847 -1.4670904 12 3203985895912 1 0
0 0 0 9 3203985898216 1 0
-11.413599 -23.178474 -0.9022218 3 3203985898216 1 1
0 0 0 29 3203985900520 1 0
-18.444456 -49.005745 -1.2184303 10 3203985900520 1 0
-1.506271 -3.464186 -1.761473 3 3203985921256 1 0
-11.098801 -34.36255 -0.63031113 16 3203985921256 1 0
-2.2378972 -5.9198194 -1.7716492 4 3203985923560 1 0
-3.635654 -8.354785 -1.8223219 2 3203985925864 1 0
-19.67965 -52.0349 0 33 3203985925864 1 0
-23.624298 -47.747673 -0.6201903 81 3203985928168 1 0
-9.838657 -22.618366 -0.717838 3 3203985923560 1 1
-4.1555552 -10.982862 -1.826897 8 3203985928168 1 0
-5.164971 -11.859747 -1.6465377 18 3203985930472 1 0
0 0 0 1 3203985930472 1 0
-21.635193 -49.658752 -0.31481975 90 3203985932776 1 0
-6.1240387 -16.171223 -1.8626319 3 3203985932776 1 0
-9.457346 -19.09352 -1.9890031 1 3203985935080 1 0
-23.644968 -47.719585 0.6200041 63 3203985937384 1 0
-19.731504 -52.080414 1.295943 21 3203985935080 1 0
-8.39643 -22.152273 -1.6565768 5 3203985937384 1 0
-9.903279 -22.703705 -2.02207 3 3203985939688 1 0
0 0 0 6 3203985939688 1 0
-31.474403 -72.12783 1.373644 55 3203985941992 1 0
0 0 0 49 3203985941992 1 0
-11.415306 -23.01279 -1.4960333 6 3203985944296 1 1
-19.862654 -52.33466 3.2599711 23 3203985944296 1 0
-22.543861 -51.621323 2.2949135 66 3203985946600 1 0
-8.423557 -22.184889 -1.1053934 3 3203985946600 1 1
0 0 0 8 3203985948904 1 0
0 0 0 1 3203985948904 1 0
-22.55063 -51.595898 4.5967674 24 3203985951208 1 0
-11.213036 -34.493107 -1.4776742 12 3203985951208 1 0
0 0 0 32 3203985953512 1 0
0 0 0 9 3203985953512 1 0
0 0 0 29 3203985955816 1 0
-18.640995 -49.00834 -1.2201052 10 3203985955816 1 0
-11.305657 -34.589703 -0.63519776 17 3203985976552 1 0
-1.518354 -3.4589071 -1.761473 4 3203985976552 1 0
-10.028478 -22.836485 -0.72586703 3 3203985978856 1 1
-2.2557983 -5.9047747 -1.7694926 4 3203985978856 1 0
-3.6616402 -8.334861 -1.820753 2 3203985981160 1 0
-19.924 -52.13029 0 11 3203985981160 1 0
-23.762245 -47.60766 -0.6194453 88 3203985983464 1 0
-4.193867 -10.968289 -1.826897 6 3203985983464 1 0
-5.219114 -11.870705 -1.6505783 18 3203985985768 1 0
-29.999514 -91.60313 0.56022197 31 3203985985768 1 0
-21.781025 -49.520683 -0.31442454 90 3203985988072 1 0
-6.183292 -16.157175 -1.8634887 3 3203985988072 1 0
-9.555981 -19.12452 -1.995695 3 3203985990376 1 0
-19.927477 -52.048565 1.2968736 21 3203985990376 1 0
-23.788149 -47.59025 0.6193988 63 3203985992680 1 0
0 0 0 8 3203985992680 1 0
-9.98247 -22.668997 -2.02207 3 3203985994984 1 0
-35.594196 -108.473015 3.322488 44 3203985994984 1 0
-31.875933 -72.3579 1.3801363 56 3203985997288 1 0
-7.4819684 -22.790047 -1.5372834 27 3203985997288 1 1
-11.59921 -23.179926 -1.5095215 10 3203985999592 1 1
-20.052364 -52.28365 3.261134 23 3203985999592 1 0
-22.759386 -51.622772 2.2984958 67 3203986001896 1 0
-8.483768 -22.110584 -1.1031599 3 3203986001896 1 1
-9.949073 -22.557568 -1.29207 3 3203986004200 1 1
0 0 0 1 3203986004200 1 0
-22.783707 -51.637234 4.607507 73 3203986006504 1 0
-11.394565 -34.639786 -1.4856529 12 3203986006504 1 0
-23.743088 -47.37942 -1.8506505 21 3203986008808 1 0
0 0 0 9 3203986008808 1 0
0 0 0 29 3203986011112 1 0
-18.75026 -48.782467 -1.2161039 10 3203986011112 1 0
-1.5283477 -3.4505384 -1.7597824 4 3203986032296 1 0
-24.299042 -73.516556 -1.3515143 26 3203986032296 1 0
-10.125208 -22.850626 -0.72737974 3 3203986034600 1 1
-2.2767534 -5.9008555 -1.770571 4 3203986034600 1 0
-3.690849 -8.326259 -1.8215374 2 3203986036904 1 0
-20.06219 -51.974373 0 33 3203986036904 1 0
-23.89661 -47.48215 -0.61884 81 3203986039208 1 0
-4.234488 -10.965384 -1.8287418 6 3203986039208 1 0
-5.266495 -11.871468 -1.6531036 18 3203986041512 1 0
-30.383596 -91.746155 0.5617098 31 3203986041512 1 0
-6.2311025 -16.121744 -1.861775 3 3203986043816 1 0
-21.914293 -49.378716 -0.3139828 88 3203986043816 1 0
-31.533741 -81.55204 2.0345943 28 3203986046120 1 0
-23.91703 -47.453953 0.6186537 63 3203986048424 1 0
-8.603166 -22.239746 -1.6674588 5 3203986048424 1 0
-10.098058 -22.726852 -2.0302064 3 3203986050728 1 0
-9.624723 -19.103395 -1.9968103 3 3203986046120 1 0
-35.980156 -108.434074 3.3249316 44 3203986050728 1 0
-31.085793 -69.93478 1.335877 26 3203986053032 1 0
-7.5210285 -22.655243 -1.5298643 21 3203986053032 1 1
-11.593268 -22.977337 -1.498824 3 3203986055336 1 1
-42.059452 -108.58562 6.781568 28 3203986055336 1 0
-22.969435 -51.634655 2.3024037 45 3203986057640 1 0
0 0 0 8 3203986059944 1 0
-8.607574 -22.21273 -1.1096742 3 3203986057640 1 1
0 0 0 1 3203986059944 1 0
-12.229654 -36.767265 -1.5786283 6 3203986062248 1 0
-23.793707 -47.089916 -1.8424143 96 3203986064552 1 0
0 0 0 9 3203986064552 1 0
0 0 0 29 3203986066856 1 0
-22.974274 -51.605103 4.611413 49 3203986062248 1 0
-18.90469 -48.70138 -1.2156386 10 3203986066856 1 0
-1.540383 -3.4451823 -1.7597824 4 3203986087592 1 0
-24.580881 -73.50714 -1.3529105 80 3203986087592 1 0
-10.234296 -22.88084 -0.72947425 3 3203986089896 1 1
-2.2959383 -5.889283 -1.7694926 5 3203986089896 1 0
-3.7214925 -8.316904 -1.8223219 2 3203986092200 1 0
-20.083614 -51.494102 0 32 3203986092200 1 0
-24.040483 -47.355648 -0.6182812 81 3203986094504 1 0
-4.2727385 -10.950536 -1.8287418 6 3203986094504 1 0
-5.320876 -11.881983 -1.6571442 18 3203986096808 1 0
-29.945032 -89.37529 0.547831 33 3203986096808 1 0
-22.057089 -49.236214 -0.31356436 88 3203986099112 1 0
-6.290233 -16.107304 -1.8626319 3 3203986099112 1 0
-9.693152 -19.073233 -1.9971821 3 3203986101416 1 0
-43.416264 -111.127655 2.7762232 28 3203986101416 1 0
-24.060778 -47.327393 0.618095 63 3203986103720 1 0
-8.695271 -22.246746 -1.670249 7 3203986103720 1 0
-10.147961 -22.625988 -2.024348 3 3203986106024 1 0
-30.899712 -92.04687 2.8257382 31 3203986106024 1 0
-31.303526 -69.767456 1.3347601 52 3203986108328 1 0
0 0 0 4 3203986108328 1 0
-11.841848 -23.267702 -1.5204517 3 3203986110632 1 1
-20.260796 -51.77037 3.2376459 23 3203986110632 1 0
-23.18064 -51.623436 2.3054976 68 3203986112936 1 0
-8.70691 -22.23836 -1.1124661 3 3203986112936 1 1
0 0 0 8 3203986115240 1 0
0 0 0 1 3203986115240 1 0
-23.175512 -51.571865 4.615644 74 3203986117544 1 0
0 0 0 92 3203986117544 1 0
