# .PCD v.7 - Point Cloud Data file format
VERSION .7
FIELDS x y z rgb timestamp_ns device_id active
SIZE 4 4 4 4 8 1 1
TYPE F F F F F U U
COUNT 1 1 1 1 1 1 1
WIDTH 998
HEIGHT 1
VIEWPOINT 0 0 0 1 0 0 0
POINTS 998               
DATA ascii
4.856019 15.979697 -2.1258519 7 3205133986512 1 0
10.503242 52.54768 0.31144884 36 3205133986512 1 0
8.072838 26.5514 -0.16129223 31 3205133988816 1 0
5.198024 14.501565 -1.4380306 14 3205133991120 1 0
4.496225 17.884808 -1.986436 2 3205133988816 1 0
5.855252 23.276344 0.5585015 15 3205133991120 1 0
6.515832 18.169697 0.22471946 16 3205133993424 1 0
4.30508 17.103441 -1.2332945 1 3205133993424 1 0
10.678864 53.265068 1.5810124 17 3205133995728 1 0
4.4353647 14.564987 -1.2429237 99 3205133995728 1 0
8.0895195 26.550755 0.4844788 25 3205133998032 1 0
2.9282122 14.594606 -0.95399064 19 3205133998032 1 0
5.212152 14.514391 -0.8981316 24 3205134000336 1 0
18.389523 60.293663 2.568141 58 3205134002640 1 0
5.853616 23.212751 1.3941737 7 3205134000336 1 0
4.8290906 15.824874 -0.86710215 2 3205134004944 1 0
4.5018415 17.830359 2.2579951 5 3205134004944 1 0
5.4611096 17.886673 1.526723 20 3205134007248 1 0
3.0144064 14.979023 -0.6224957 2 3205134007248 1 0
5.69042 15.817299 -0.58700955 4 3205134009552 1 0
0 0 0 4 3205134002640 1 0
5.2639465 20.82329 5.7551003 7 3205134009552 1 0
6.3018994 20.61902 3.931048 10 3205134011856 1 0
5.0963116 20.147821 -0.48359415 91 3205134011856 1 0
0 0 0 8 3205134032592 1 0
3.2376587 15.956361 -0.28419498 4 3205134032592 1 0
4.5664268 14.863785 -0.45253235 1 3205134034896 1 0
1.6957161 6.6632886 -1.9247681 6 3205134034896 1 0
5.3359256 20.955317 0 31 3205134037200 1 0
7.2528524 20.042614 -0.24814133 66 3205134039504 1 0
2.9662616 9.650474 -2.0192237 1 3205134037200 1 0
3.421275 13.428316 -2.1558738 8 3205134039504 1 0
4.9031363 15.936245 -2.1223164 4 3205134041808 1 0
10.691457 52.542366 0.3116348 36 3205134041808 1 0
8.13744 26.435427 -0.16075753 16 3205134044112 1 0
0 0 0 55 3205134044112 1 0
5.250694 14.491051 -1.4387742 14 3205134046416 1 0
5.919628 23.194027 0.5570126 12 3205134046416 1 0
8.413017 23.20853 0.28739506 21 3205134048720 1 0
4.289838 16.798567 -1.2123675 2 3205134048720 1 0
4.4876814 14.557297 -1.2435746 100 3205134051024 1 0
10.86403 53.239853 1.5813614 35 3205134051024 1 0
8.255853 26.767483 0.48894662 11 3205134053328 1 0
2.9805806 14.596224 -0.95475817 26 3205134053328 1 0
5.2671804 14.511505 -0.8990618 21 3205134055632 1 0
5.931932 23.18874 1.3939412 10 3205134055632 1 0
18.599771 60.24587 2.5687923 87 3205134057936 1 0
4.4317718 17.314444 -0.83253485 1 3205134057936 1 0
4.847554 15.69385 -0.8608218 2 3205134060240 1 0
5.331781 20.818703 2.638715 30 3205134060240 1 0
5.5347714 17.909924 1.530303 13 3205134062544 1 0
3.0484219 14.886475 -0.6190763 2 3205134062544 1 0
5.671592 15.598806 -0.5796108 6 3205134064848 1 0
5.854593 22.833841 6.31622 8 3205134064848 1 0
6.372751 20.60135 3.9317656 7 3205134067152 1 0
5.160439 20.114979 -0.48322195 75 3205134067152 1 0
0 0 0 8 3205134087888 1 0
0 0 0 63 3205134087888 1 0
4.6194687 14.859947 -0.45288143 1 3205134090192 1 0
2.9845488 9.595553 -2.00981 1 3205134092496 1 0
1.715975 6.650144 -1.9226115 6 3205134090192 1 0
5.4159956 20.976078 0 34 3205134092496 1 0
7.3146553 20.003109 -0.24795507 42 3205134094800 1 0
3.4653826 13.412918 -2.155259 8 3205134094800 1 0
10.874365 52.53341 0.31179756 36 3205134097104 1 0
4.9498043 15.896877 -2.1192858 7 3205134097104 1 0
8.231737 26.422976 -0.16085052 30 3205134099408 1 0
5.308199 14.495535 -1.4410049 14 3205134101712 1 0
5.414312 20.916763 0.502763 36 3205134101712 1 0
4.7549605 18.381105 -2.0451252 8 3205134099408 1 0
8.506053 23.217196 0.2878607 5 3205134104016 1 0
4.299205 16.598392 -1.1989743 2 3205134104016 1 0
11.056464 53.249226 1.5827578 17 3205134106320 1 0
4.5399976 14.549418 -1.2442255 100 3205134106320 1 0
8.363566 26.788494 0.48985416 48 3205134108624 1 0
3.034937 14.605405 -0.9560373 45 3205134108624 1 0
5.3215075 14.504433 -0.8997595 21 3205134110928 1 0
6.0201902 23.19899 1.3958017 10 3205134110928 1 0
4.4156103 17.00501 -0.8183894 1 3205134113232 1 0
18.81981 60.215183 2.5702577 87 3205134113232 1 0
4.935688 15.783582 -0.8666834 2 3205134115536 1 0
5.6213245 17.966509 1.5368122 4 3205134117840 1 0
0 0 0 26 3205134117840 1 0
5.718186 15.556234 -0.57877326 6 3205134120144 1 0
5.3974304 20.773067 2.6353028 27 3205134115536 1 0
5.938817 22.82805 6.320361 5 3205134120144 1 0
7.465279 23.83449 4.553817 10 3205134122448 1 0
5.234521 20.108225 -0.4835011 76 3205134122448 1 0
0 0 0 8 3205134143184 1 0
4.2407193 20.176006 -0.35986862 73 3205134143184 1 0
5.397795 17.142654 -0.5230478 2 3205134145488 1 0
1.7402409 6.6438355 -1.9226115 6 3205134145488 1 0
3.0217764 9.592119 -2.011379 1 3205134147792 1 0
6.072282 23.169498 0 21 3205134147792 1 0
7.4036965 20.021503 -0.24851385 53 3205134150096 1 0
5.005919 15.875136 -2.1187809 7 3205134152400 1 0
3.5119305 13.392634 -2.1540291 7 3205134150096 1 0
11.070381 52.525154 0.31198353 36 3205134152400 1 0
8.458986 26.812838 -0.16340776 45 3205134154704 1 0
4.8239927 18.375444 -2.0464103 12 3205134154704 1 0
5.36556 14.49139 -1.4424919 12 3205134157008 1 0
5.482004 20.870184 0.5021116 39 3205134157008 1 0
7.7134633 20.823807 0.25852516 36 3205134159312 1 0
4.2670393 16.23564 -1.173862 1 3205134159312 1 0
4.5940046 14.540818 -1.2448764 76 3205134161616 1 0
11.223872 53.10794 1.5797324 60 3205134161616 1 0
8.461808 26.770208 0.49006358 33 3205134163920 1 0
3.0898414 14.610209 -0.95706064 46 3205134163920 1 0
5.382247 14.511821 -0.9013874 21 3205134166224 1 0
19.070547 60.27459 2.5756311 87 3205134168528 1 0
4.3896956 16.664864 -0.80275494 5 3205134168528 1 0
4.995575 15.781489 -0.8675208 2 3205134170832 1 0
5.3007035 20.134672 1.2125474 5 3205134166224 1 0
5.492169 20.83856 2.646027 10 3205134170832 1 0
5.6705036 17.905052 1.5332321 2 3205134173136 1 0
5.680116 15.289025 -0.5695598 6 3205134175440 1 0
6.0296307 22.852186 6.332784 23 3205134175440 1 0
4.2707424 20.139069 -0.8387328 72 3205134173136 1 0
5.6887865 17.94555 3.4324026 24 3205134177744 1 0
5.3027825 20.086195 -0.48340806 61 3205134177744 1 0
4.305095 20.150099 -0.3596592 66 3205134198480 1 0
0 0 0 8 3205134198480 1 0
5.451221 17.113153 -0.5226987 2 3205134200784 1 0
1.7623596 6.6380024 -1.9226115 6 3205134200784 1 0
3.053847 9.581958 -2.011379 1 3205134203088 1 0
6.1579704 23.179983 0 23 3205134203088 1 0
7.4765215 20.011503 -0.2487001 45 3205134205392 1 0
3.555891 13.37694 -2.153414 8 3205134205392 1 0
5.0522213 15.835473 -2.1157503 10 3205134207696 1 0
11.244202 52.471855 0.31189054 36 3205134207696 1 0
8.542504 26.761156 -0.16326828 52 3205134210000 1 0
4.8780537 18.328245 -2.0429833 23 3205134210000 1 0
5.4232225 14.495426 -1.4447227 12 3205134212304 1 0
5.560205 20.878456 0.502763 36 3205134212304 1 0
7.780386 20.786083 0.25838548 30 3205134214608 1 0
4.263942 16.001186 -1.1579574 1 3205134214608 1 0
4.6451025 14.528762 -1.245202 23 3205134216912 1 0
0 0 0 3 3205134216912 1 0
8.552816 26.737072 0.48999375 45 3205134219216 1 0
3.141024 14.6033745 -0.95731646 15 3205134219216 1 0
5.4408574 14.515538 -0.90278274 19 3205134221520 1 0
0 0 0 100 3205134223824 1 0
4.3888187 16.429466 -0.79214585 1 3205134223824 1 0
4.68256 14.615134 -0.804299 2 3205134226128 1 0
5.3590393 20.073763 1.2099893 31 3205134221520 1 0
5.557699 20.792412 2.6426148 7 3205134226128 1 0
5.8135505 18.135632 1.5547123 4 3205134228432 1 0
4.356478 20.194298 -0.8416637 52 3205134228432 1 0
6.1130238 22.84202 6.3358903 5 3205134230736 1 0
0 0 0 58 3205134233040 1 0
0 0 0 3 3205134233040 1 0
5.663626 15.081819 -0.5625799 6 3205134230736 1 0
0 0 0 8 3205134253776 1 0
4.3916693 20.192804 -0.36070633 86 3205134253776 1 0
5.5222507 17.119776 -0.52351326 2 3205134256080 1 0
1.7855788 6.627805 -1.9215332 6 3205134256080 1 0
3.085054 9.559591 -2.0090256 1 3205134258384 1 0
6.2692823 23.257856 0 27 3205134258384 1 0
7.558839 20.010487 -0.24902605 60 3205134260688 1 0
3.6012254 13.352526 -2.1515694 8 3205134260688 1 0
11.445326 52.48567 0.312216 36 3205134262992 1 0
5.105648 15.805819 -2.1142352 7 3205134262992 1 0
4.936609 18.283726 -2.0399845 22 3205134265296 1 0
8.6213665 26.677008 -0.16294281 42 3205134265296 1 0
5.4849133 14.502006 -1.447325 12 3205134267600 1 0
9.789344 25.87203 0.32203892 16 3205134269904 1 0
4.2678323 15.789436 -1.1437272 3 3205134269904 1 0
4.706454 14.54253 -1.2478056 10 3205134272208 1 0
10.96579 50.153454 1.4940898 16 3205134272208 1 0
6.275221 23.22879 0.55989724 15 3205134267600 1 0
8.6374035 26.676237 0.4894353 37 3205134274512 1 0
4.2855463 19.587528 -1.2850349 22 3205134274512 1 0
5.498988 14.514969 -0.9039455 16 3205134276816 1 0
5.5935 20.659927 1.2465006 18 3205134276816 1 0
5.6311355 17.375126 0.74412906 6 3205134279120 1 0
4.3481755 16.051455 -0.77465016 1 3205134279120 1 0
0 0 0 42 3205134281424 1 0
5.9294543 18.27838 1.568707 2 3205134283728 1 0
4.4240804 20.16732 -0.84117526 37 3205134283728 1 0
5.651016 20.849525 2.6523645 12 3205134281424 1 0
5.676086 14.957473 -0.5586711 4 3205134286032 1 0
5.8746943 18.092537 3.4682763 4 3205134288336 1 0
0 0 0 3 3205134288336 1 0
0 0 0 8 3205134309072 1 0
4.464647 20.205467 -0.361195 80 3205134309072 1 0
5.5804806 17.10509 -0.5236296 2 3205134311376 1 0
1.807644 6.6218214 -1.9215332 5 3205134311376 1 0
3.1157985 9.545489 -2.0082412 1 3205134313680 1 0
6.3512654 23.252188 0 22 3205134313680 1 0
5.137788 18.935232 5.2571325 5 3205134286032 1 0
7.640286 20.022348 -0.24949169 68 3205134315984 1 0
3.6418982 13.325101 -2.1491098 7 3205134315984 1 0
11.632748 52.493614 0.31249496 24 3205134318288 1 0
5.1564875 15.780957 -2.113225 7 3205134318288 1 0
8.704264 26.624826 -0.16280332 24 3205134320592 1 0
0 0 0 4 3205134320592 1 0
5.5413456 14.501856 -1.449184 11 3205134322896 1 0
6.3605776 23.230442 0.56045556 10 3205134322896 1 0
9.846293 25.756227 0.32101452 13 3205134325200 1 0
4.233209 15.4514885 -1.120289 1 3205134325200 1 0
11.157826 50.205288 1.4967662 16 3205134327504 1 0
4.7613053 14.541445 -1.2491074 6 3205134327504 1 0
8.762923 26.748922 0.49132013 37 3205134329808 1 0
4.3920374 19.747986 -1.2965473 24 3205134329808 1 0
5.559193 14.521952 -0.90557337 14 3205134332112 1 0
5.666039 20.644293 1.2467332 27 3205134332112 1 0
7.159831 21.832924 0.9361046 15 3205134334416 1 0
5.154335 15.709334 -0.8664741 15 3205134336720 1 0
4.3372836 15.793503 -0.7629243 3 3205134334416 1 0
5.72376 20.829672 2.6523645 37 3205134336720 1 0
0 0 0 93 3205134339024 1 0
4.496484 20.15949 -0.8415009 86 3205134339024 1 0
5.64281 14.713453 -0.5502953 4 3205134341328 1 0
6.6536007 24.184595 6.721013 6 3205134341328 1 0
5.9373736 18.067923 3.4675589 6 3205134343632 1 0
4.452356 16.173822 -0.3903555 2 3205134343632 1 0
0 0 0 8 3205134364368 1 0
4.5413055 20.200674 -0.36140442 66 3205134364368 1 0
1.8317577 6.6151915 -1.9215332 5 3205134366672 1 0
4.8979187 14.829471 -0.4545105 3 3205134366672 1 0
3.1491168 9.530418 -2.0074565 1 3205134368976 1 0
7.7223873 20.020838 -0.24981764 68 3205134371280 1 0
6.467471 23.344679 0 8 3205134368976 1 0
3.686674 13.300478 -2.147265 7 3205134371280 1 0
5.20918 15.751104 -2.1117098 7 3205134373584 1 0
11.827526 52.482872 0.31268096 36 3205134373584 1 0
8.930816 26.992441 -0.16524433 3 3205134375888 1 0
4.320217 15.570284 -1.7405412 1 3205134375888 1 0
5.612651 14.534194 -1.4543887 31 3205134378192 1 0
9.879046 25.572243 0.31915194 9 3205134380496 1 0
4.22552 15.213531 -1.1041055 2 3205134380496 1 0
7.311215 26.336615 0.6360142 9 3205134378192 1 0
4.819558 14.547442 -1.2510601 5 3205134382800 1 0
11.320673 50.111435 1.4951371 16 3205134382800 1 0
8.866982 26.752531 0.49194843 22 3205134385104 1 0
4.561729 20.180393 -1.3259677 100 3205134385104 1 0
5.6178603 14.525049 -0.9069687 13 3205134387408 1 0
5.7836304 17.434479 0.74836266 2 3205134389712 1 0
4.341002 15.597634 -0.75417644 1 3205134389712 1 0
5.2304177 15.759943 -0.8702423 4 3205134392016 1 0
5.5315657 19.865376 2.5319574 15 3205134392016 1 0
5.738237 20.628485 1.2469658 18 3205134387408 1 0
4.569928 20.167559 -0.84247786 58 3205134394320 1 0
0 0 0 26 3205134396624 1 0
6.6092916 23.711761 6.5957446 21 3205134396624 1 0
16.81402 50.5964 9.721075 35 3205134398928 1 0
5.9144907 17.813343 1.5322558 6 3205134394320 1 0
4.4472365 15.947015 -0.3852376 2 3205134398928 1 0
0 0 0 8 3205134419664 1 0
4.6029663 20.178509 -0.36126482 66 3205134419664 1 0
4.99671 14.9693985 -0.45928136 5 3205134421968 1 0
1.8505957 6.601946 -1.9193766 6 3205134421968 1 0
3.173245 9.501738 -2.0035343 1 3205134424272 1 0
7.5021095 26.747837 0 32 3205134424272 1 0
7.793812 20.014605 -0.25005046 69 3205134426576 1 0
3.7239704 13.269559 -2.1441905 7 3205134426576 1 0
5.258753 15.73044 -2.1112046 7 3205134428880 1 0
12.0076275 52.4912 0.31295994 24 3205134428880 1 0
9.055307 27.073275 -0.16591851 10 3205134431184 1 0
0 0 0 19 3205134431184 1 0
5.637034 14.45638 -1.4484403 16 3205134433488 1 0
7.4817796 26.612822 0.64327234 27 3205134433488 1 0
9.99667 25.625263 0.3202229 35 3205134435792 1 0
4.2205086 15.003628 -1.0898751 2 3205134435792 1 0
4.869039 14.535161 -1.2513856 5 3205134438096 1 0
0 0 0 16 3205134438096 1 0
5.9809885 17.845528 0.3285241 38 3205134440400 1 0
4.505813 19.628149 -1.2906631 27 3205134440400 1 0
5.6753473 14.52841 -0.90836406 9 3205134442704 1 0
5.832422 20.697493 1.2523146 18 3205134442704 1 0
14.519939 43.279392 1.8598342 9 3205134445008 1 0
4.311312 15.29059 -0.740031 1 3205134445008 1 0
5.295465 15.776132 -0.8721264 2 3205134447312 1 0
5.8837357 20.855186 2.6606514 27 3205134447312 1 0
17.609106 52.434116 4.515403 23 3205134449616 1 0
4.6452556 20.17905 -0.8436177 60 3205134449616 1 0
7.8275557 20.001822 -0.75005996 74 3205134451920 1 0
6.8180647 24.138744 6.721013 9 3205134451920 1 0
7.7179084 22.95815 4.4160614 3 3205134454224 1 0
4.4372735 15.700601 -0.37965444 2 3205134454224 1 0
4.6687593 20.126438 -0.36063653 100 3205134474960 1 0
0 0 0 8 3205134474960 1 0
5.0219975 14.863898 -0.45660502 3 3205134477264 1 0
1.875786 6.5988374 -1.9204549 6 3205134477264 1 0
3.2104235 9.497521 -2.005103 1 3205134479568 1 0
7.4388485 26.154701 0 49 3205134479568 1 0
7.8754706 20.008406 -0.25032985 69 3205134481872 1 0
3.7658007 13.233094 -2.140501 7 3205134481872 1 0
5.3146434 15.707456 -2.1106997 7 3205134484176 1 0
12.200223 52.454983 0.31300643 24 3205134484176 1 0
7.6708746 22.660452 -0.13904423 23 3205134486480 1 0
4.2833967 15.03532 -1.6839939 16 3205134486480 1 0
5.6937323 14.446986 -1.4495556 7 3205134488784 1 0
14.87559 52.186596 1.2627232 20 3205134488784 1 0
10.070148 25.540592 0.31961757 19 3205134491088 1 0
4.2221775 14.804089 -1.0764819 2 3205134491088 1 0
4.923996 14.525055 -1.2520366 5 3205134493392 1 0
4.8879466 20.960503 0.6263774 25 3205134493392 1 0
6.0374813 17.801157 0.32810524 22 3205134495696 1 0
5.7421665 14.54507 -0.91068965 3 3205134498000 1 0
5.9045453 20.668726 1.2518494 18 3205134498000 1 0
4.5882325 19.662338 -1.293989 26 3205134495696 1 0
0 0 0 38 3205134500304 1 0
0 0 0 26 3205134500304 1 0
5.3338914 15.704132 -0.8691956 2 3205134502608 1 0
6.7454076 23.586166 3.0121226 26 3205134502608 1 0
6.096686 17.941395 1.5469013 6 3205134504912 1 0
4.7109046 20.135094 -0.84247786 75 3205134504912 1 0
7.90466 19.988672 -0.7506184 63 3205134507216 1 0
17.208323 50.592525 9.743317 36 3205134509520 1 0
4.4347124 15.480974 -0.37472266 2 3205134509520 1 0
0 0 0 8 3205134530256 1 0
4.748159 20.148947 -0.36133462 78 3205134530256 1 0
5.0724506 14.842531 -0.45648867 3 3205134532560 1 0
5.0578556 17.665987 4.9237733 17 3205134507216 1 0
3.2446873 9.490016 -2.0058877 1 3205134534864 1 0
1.8976946 6.588562 -1.9193766 6 3205134532560 1 0
7.955174 20.006985 -0.2506558 68 3205134537168 1 0
7.566272 26.255524 0 35 3205134534864 1 0
3.8083966 13.208558 -2.1386564 7 3205134537168 1 0
5.368984 15.688965 -2.1106997 9 3205134539472 1 0
0 0 0 31 3205134539472 1 0
4.335307 15.020434 -1.6839939 6 3205134541776 1 0
7.7646523 22.679232 -0.13932319 49 3205134541776 1 0
7.5642114 19.000784 -1.9090712 4 3205134544080 1 0
15.073142 52.19648 1.2642121 20 3205134544080 1 0
8.7268915 21.912546 0.27458987 14 3205134546384 1 0
0 0 0 21 3205134546384 1 0
4.95065 20.904694 0.62521374 51 3205134548688 1 0
4.9789953 14.523152 -1.2533383 5 3205134548688 1 0
6.2943463 18.351614 0.3386465 22 3205134550992 1 0
4.665678 19.689234 -1.2968031 6 3205134550992 1 0
0 0 0 35 3205134553296 1 0
5.911035 17.218536 0.74168664 4 3205134555600 1 0
4.3126116 14.895441 -0.72234917 4 3205134555600 1 0
5.392498 15.700999 -0.87003297 2 3205134557904 1 0
5.964055 20.610065 1.2495239 18 3205134553296 1 0
6.8068624 23.498245 3.0038357 16 3205134557904 1 0
6.173128 17.965832 1.5508069 2 3205134560208 1 0
4.787572 20.153976 -0.84394336 67 3205134560208 1 0
7.9812493 19.984043 -0.75145596 66 3205134562512 1 0
5.1295304 17.689566 4.9351616 12 3205134562512 1 0
0 0 0 100 3205134564816 1 0
4.4246397 15.250819 -0.36951172 3 3205134564816 1 0
0 0 0 8 3205134585552 1 0
4.8205304 20.15643 -0.3617535 82 3205134585552 1 0
5.6751924 16.42799 -0.50582623 2 3205134587856 1 0
1.9173759 6.574837 -1.91722 5 3205134587856 1 0
3.2748582 9.475497 -2.005103 2 3205134590160 1 0
7.7563715 26.583559 0 58 3205134590160 1 0
8.0304165 20.002764 -0.2509352 68 3205134592464 1 0
3.848854 13.184474 -2.1368115 7 3205134592464 1 0
5.419684 15.667324 -2.1101944 9 3205134594768 1 0
5.021626 20.946102 0.12518862 46 3205134594768 1 0
7.868596 22.736517 -0.13983464 7 3205134597072 1 0
7.6286635 18.97929 -1.9094429 33 3205134599376 1 0
4.3638983 14.933446 -1.6758546 3 3205134597072 1 0
7.939533 27.155485 0.6583469 10 3205134599376 1 0
8.699532 21.634853 0.27147007 15 3205134601680 1 0
4.289606 14.664163 -1.0683901 20 3205134601680 1 0
5.03235 14.521629 -1.2546402 5 3205134603984 1 0
5.018077 20.880386 0.62498105 36 3205134603984 1 0
6.1665173 17.786503 0.3285939 33 3205134606288 1 0
7.877117 19.566158 -1.2283612 27 3205134608592 1 0
4.309088 17.919365 -1.1811678 1 3205134606288 1 0
6.007668 20.505867 1.2444077 6 3205134608592 1 0
20.847082 60.077 2.590774 29 3205134610896 1 0
4.314778 14.7200165 -0.71453196 13 3205134610896 1 0
5.4432244 15.679257 -0.8698236 2 3205134613200 1 0
7.118262 24.271776 3.1057184 17 3205134613200 1 0
0 0 0 25 3205134615504 1 0
4.8581247 20.15353 -0.84459466 76 3205134615504 1 0
8.059435 19.987127 -0.7525728 71 3205134617808 1 0
5.32856 18.150694 5.068712 19 3205134617808 1 0
0 0 0 20 3205134620112 1 0
4.4064436 15.002016 -0.3638355 3 3205134620112 1 0
0 0 0 8 3205134640296 1 0
4.9066534 20.189146 -0.362661 74 3205134640296 1 0
5.650925 16.165522 -0.49837902 4 3205134642600 1 0
1.940369 6.564071 -1.9161416 5 3205134642600 1 0
3.3173347 9.485645 -2.00981 2 3205134644904 1 0
7.869635 26.608652 0 36 3205134644904 1 0
8.1142025 19.999142 -0.25126114 68 3205134647208 1 0
5.47576 15.64361 -2.1096895 7 3205134649512 1 0
3.8937871 13.158909 -2.1349669 7 3205134647208 1 0
5.0993104 20.931442 0.12521186 38 3205134649512 1 0
0 0 0 50 3205134651816 1 0
4.327113 14.6084795 -1.6411551 3 3205134651816 1 0
7.7116647 18.984411 -1.9127889 25 3205134654120 1 0
8.002649 27.003511 0.65536916 31 3205134654120 1 0
9.075409 22.332798 0.28064322 17 3205134656424 1 0
4.338787 14.633039 -1.0672741 28 3205134656424 1 0
5.089498 14.514374 -1.2556165 7 3205134658728 1 0
5.105956 20.908464 0.6263774 24 3205134658728 1 0
7.919658 22.575514 0.41760117 22 3205134661032 1 0
4.303673 17.612621 -1.1619806 1 3205134661032 1 0
8.129364 19.981014 -1.256268 83 3205134663336 1 0
6.6397963 22.359438 1.35836 7 3205134663336 1 0
21.079052 60.034126 2.5922396 29 3205134665640 1 0
4.3664246 14.696443 -0.71415967 8 3205134665640 1 0
5.5085983 15.681814 -0.8710797 2 3205134667944 1 0
7.0307 23.651848 3.029672 47 3205134667944 1 0
0 0 0 8 3205134670248 1 0
4.940516 20.170527 -0.8460601 61 3205134670248 1 0
8.14018 19.975964 -0.75327075 69 3205134672552 1 0
5.38954 18.112524 5.0635357 19 3205134672552 1 0
0 0 0 58 3205134674856 1 0
4.444284 14.928274 -0.36243972 10 3205134674856 1 0
0 0 0 8 3205134695592 1 0
4.978363 20.19218 -0.36301005 78 3205134695592 1 0
5.1891646 14.687685 -0.45334688 1 3205134697896 1 0
3.3371453 9.44126 -2.0027497 2 3205134700200 1 0
1.9621733 6.5575867 -1.9161416 5 3205134697896 1 0
7.9547744 26.570797 0 36 3205134700200 1 0
8.185461 19.98305 -0.25140083 68 3205134702504 1 0
3.9320185 13.126907 -2.1318922 7 3205134702504 1 0
5.17698 20.945332 0.12539785 28 3205134704808 1 0
5.529384 15.628945 -2.1101944 9 3205134704808 1 0
9.201121 25.995182 -0.16026933 50 3205134707112 1 0
7.785983 18.984188 -1.9153913 25 3205134709416 1 0
4.3714943 14.578653 -1.6394416 6 3205134707112 1 0
9.1368885 22.26881 0.28022414 7 3205134711720 1 0
8.088734 26.961151 0.654997 42 3205134709416 1 0
4.3742657 14.572487 -1.0639257 102 3205134711720 1 0
5.1464367 14.519664 -1.2575693 17 3205134714024 1 0
5.611137 22.645302 0.6789731 20 3205134714024 1 0
7.9959536 22.548603 0.41760117 8 3205134716328 1 0
4.273867 17.237638 -1.1381884 1 3205134716328 1 0
8.204617 19.971819 -1.2574308 76 3205134718632 1 0
6.581013 21.889383 1.331151 3 3205134718632 1 0
7.454332 21.001833 0.9079352 3 3205134720936 1 0
5.548571 15.625333 -0.8689862 2 3205134723240 1 0
7.1923933 23.897707 3.0642827 16 3205134723240 1 0
5.2783937 17.54743 -0.85356694 5 3205134720936 1 0
7.8369226 22.059387 1.9110887 3 3205134725544 1 0
5.0121746 20.165195 -0.8465486 63 3205134725544 1 0
8.217536 19.970205 -0.7541083 69 3205134727848 1 0
5.4135203 17.968216 5.0283365 12 3205134727848 1 0
6.84791 19.257751 3.7265675 4 3205134730152 1 0
4.4919276 14.901478 -0.36216056 12 3205134730152 1 0
0 0 0 8 3205134750888 1 0
5.0507584 20.182438 -0.36314967 74 3205134750888 1 0
5.2295356 14.639399 -0.45241597 3 3205134753192 1 0
1.986121 6.554398 -1.91722 5 3205134753192 1 0
3.3712642 9.433296 -2.0035343 2 3205134755496 1 0
14.9440975 49.292473 0 29 3205134755496 1 0
8.266962 19.984102 -0.25177336 68 3205134757800 1 0
3.978677 13.116971 -2.132507 11 3205134757800 1 0
5.5767694 15.591031 -2.107669 9 3205134760104 1 0
0 0 0 19 3205134762408 1 0
5.251399 20.935045 0.12544434 28 3205134760104 1 0
4.413739 14.536828 -1.6364429 5 3205134762408 1 0
7.8605194 18.979315 -1.917622 24 3205134764712 1 0
8.092121 26.638487 0.6478319 10 3205134764712 1 0
21.468924 51.81671 0.6529716 19 3205134767016 1 0
4.4266863 14.56499 -1.0644838 107 3205134767016 1 0
5.1948996 14.49816 -1.2572439 21 3205134769320 1 0
5.7054076 22.69183 0.68095124 24 3205134769320 1 0
8.317412 23.202515 0.43023673 8 3205134771624 1 0
4.2491293 16.889977 -1.116187 1 3205134771624 1 0
8.283541 19.969479 -1.2590586 76 3205134773928 1 0
13.016234 42.763195 2.6032329 12 3205134773928 1 0
0 0 0 87 3205134776232 1 0
5.364984 17.617239 -0.8578478 18 3205134776232 1 0
0 0 0 93 3205134778536 1 0
6.0448184 19.839806 2.5465817 18 3205134778536 1 0
6.5145645 18.14166 1.573589 7 3205134780840 1 0
8.292833 19.960701 -0.75480634 66 3205134783144 1 0
5.0874696 20.175184 -0.84768844 16 3205134780840 1 0
5.511575 18.071724 5.0625005 3 3205134783144 1 0
0 0 0 8 3205134785448 1 0
4.5434594 14.890028 -0.3622536 12 3205134785448 1 0
0 0 0 8 3205134806184 1 0
5.118642 20.169455 -0.36321947 54 3205134806184 1 0
5.289126 14.651985 -0.45334688 3 3205134808488 1 0
2.0034232 6.533016 -1.9129068 5 3205134808488 1 0
3.4014692 9.418277 -2.0027497 2 3205134810792 1 0
8.175729 26.645935 0 7 3205134810792 1 0
8.344846 19.98205 -0.2520993 65 3205134813096 1 0
4.0192447 13.092195 -2.1306624 7 3205134813096 1 0
5.6293464 15.5721245 -2.107669 7 3205134815400 1 0
5.326942 20.936588 0.12556058 32 3205134815400 1 0
9.912082 27.406107 -0.16938241 11 3205134817704 1 0
4.464145 14.525588 -1.6368713 4 3205134817704 1 0
7.9342866 18.974499 -1.9198527 27 3205134820008 1 0
8.182735 26.610792 0.6478319 10 3205134820008 1 0
0 0 0 15 3205134822312 1 0
4.477616 14.553588 -1.0647628 104 3205134822312 1 0
5.251422 14.498986 -1.2588711 21 3205134824616 1 0
5.7723923 22.629496 0.6796712 24 3205134824616 1 0
4.246115 16.635426 -1.1003255 2 3205134826920 1 0
6.545649 18.063684 0.33536544 12 3205134826920 1 0
8.358788 19.955418 -1.2599889 87 3205134829224 1 0
6.682052 21.683313 1.3213837 3 3205134829224 1 0
5.4155955 17.56412 -0.8561727 3 3205134831528 1 0
7.5715337 20.874855 0.9046786 17 3205134831528 1 0
5.615282 15.474062 -0.8627059 6 3205134833832 1 0
5.8647456 19.010515 2.442749 4 3205134833832 1 0
6.427097 17.702753 1.5374631 4 3205134836136 1 0
0 0 0 1 3205134836136 1 0
8.372318 19.953506 -0.7556439 63 3205134838440 1 0
7.611283 20.94452 4.0630636 13 3205134840744 1 0
0 0 0 14 3205134838440 1 0
4.5936956 14.866236 -0.36206752 6 3205134840744 1 0
0 0 0 8 3205134861480 1 0
5.1865444 20.127321 -0.36280063 68 3205134861480 1 0
5.6484923 15.47008 -0.47929564 6 3205134863784 1 0
2.0250213 6.518287 -1.9107502 6 3205134863784 1 0
3.4331377 9.398428 -2.001181 2 3205134866088 1 0
8.3429985 26.841274 0 30 3205134866088 1 0
4.0598755 13.054819 -2.126973 6 3205134868392 1 0
5.6845684 15.547826 -2.1071641 7 3205134870696 1 0
5.4170394 20.9713 0.12588605 26 3205134870696 1 0
9.516804 26.017612 -0.16101326 6 3205134873000 1 0
8.426921 19.973625 -0.25237867 65 3205134868392 1 0
4.521555 14.524482 -1.6385849 4 3205134873000 1 0
8.01225 18.967653 -1.9220834 25 3205134875304 1 0
8.554944 27.466763 0.6694201 10 3205134875304 1 0
0 0 0 21 3205134877608 1 0
4.532562 14.544929 -1.0653208 101 3205134877608 1 0
5.4119997 20.901566 0.62835556 34 3205134879912 1 0
8.479331 23.139572 0.4301669 28 3205134882216 1 0
4.21887 16.283846 -1.0780683 2 3205134882216 1 0
8.439759 19.947325 -1.2613842 76 3205134884520 1 0
5.3091702 14.494924 -1.260173 22 3205134879912 1 0
13.355632 42.792297 2.6106746 13 3205134884520 1 0
4.5721917 14.642105 -0.71453196 1 3205134886824 1 0
5.7449164 15.656374 -0.87401044 4 3205134889128 1 0
7.6600876 20.8851 0.9063069 18 3205134886824 1 0
7.412652 23.726341 3.052096 10 3205134889128 1 0
8.108711 22.088387 1.9208524 10 3205134891432 1 0
4.3771677 16.854445 -0.7094465 1 3205134891432 1 0
8.457406 19.95667 -0.7569003 66 3205134893736 1 0
6.4524884 20.631971 5.7923703 4 3205134893736 1 0
6.6596866 18.124899 3.520652 12 3205134896040 1 0
4.6489205 14.857439 -0.3622536 2 3205134896040 1 0
0 0 0 8 3205134916776 1 0
5.251713 20.089748 -0.36245158 100 3205134916776 1 0
5.598626 15.168946 -0.47056848 4 3205134919080 1 0
2.0477622 6.5111785 -1.9107502 6 3205134919080 1 0
3.4645648 9.382708 -2.0003963 3 3205134921384 1 0
8.43304 26.800543 0 30 3205134921384 1 0
8.510699 19.977205 -0.25279775 68 3205134923688 1 0
4.1018596 13.029258 -2.1251283 7 3205134923688 1 0
5.723675 15.486947 -2.1016083 4 3205134925992 1 0
6.072182 23.173243 0.1392302 10 3205134925992 1 0
0 0 0 100 3205134928296 1 0
8.090911 18.968876 -1.9250575 24 3205134930600 1 0
0 0 0 21 3205134930600 1 0
4.573423 14.5124035 -1.6390133 3 3205134928296 1 0
21.931356 51.396633 0.6505503 19 3205134932904 1 0
5.3652716 14.491258 -1.2614748 18 3205134935208 1 0
4.584506 14.5328245 -1.0655999 100 3205134932904 1 0
5.476801 20.85161 0.62742466 40 3205134935208 1 0
7.7209945 20.844604 0.3880019 68 3205134937512 1 0
4.22191 16.064404 -1.0645093 1 3205134937512 1 0
8.521888 19.94712 -1.2632446 80 3205134939816 1 0
0 0 0 51 3205134939816 1 0
4.6317043 14.652725 -0.7158348 1 3205134942120 1 0
5.745357 15.490162 -0.86584604 6 3205134944424 1 0
7.6620884 20.667114 0.8980026 17 3205134942120 1 0
8.167734 22.011356 1.9166216 10 3205134946728 1 0
4.370814 16.591713 -0.6990254 4 3205134946728 1 0
8.538025 19.952755 -0.75787747 66 3205134949032 1 0
7.4810615 23.654896 3.046246 6 3205134944424 1 0
5.7186756 18.064007 5.0769944 5 3205134949032 1 0
6.600978 17.773228 3.4567966 10 3205134951336 1 0
4.7031693 14.848745 -0.36243972 1 3205134951336 1 0
0 0 0 8 3205134972072 1 0
5.3382072 20.133146 -0.36356854 74 3205134972072 1 0
2.0704308 6.504006 -1.9107502 5 3205134974376 1 0
3.4944162 9.363258 -1.9988275 2 3205134976680 1 0
5.5578 14.898361 -0.46277222 1 3205134974376 1 0
8.435111 26.485212 0 72 3205134976680 1 0
8.589428 19.969608 -0.25307715 59 3205134978984 1 0
4.1434317 13.003653 -2.1232836 7 3205134978984 1 0
5.7092166 15.284902 -2.0768597 3 3205134981288 1 0
6.161607 23.186876 0.13943943 21 3205134981288 1 0
7.5032682 20.07953 -0.12458418 31 3205134983592 1 0
8.1657 18.962822 -1.9272882 24 3205134985896 1 0
8.541065 26.766726 0.6537873 45 3205134985896 1 0
9.399588 21.81992 0.27659214 7 3205134988200 1 0
4.633193 14.526831 -1.6424403 3 3205134983592 1 0
4.6405354 14.5359745 -1.066995 47 3205134988200 1 0
5.552457 20.848143 0.6278901 25 3205134990504 1 0
7.7867384 20.803053 0.38772267 42 3205134992808 1 0
4.201875 15.768271 -1.0458337 3 3205134992808 1 0
8.602667 19.94721 -1.2651051 73 3205134995112 1 0
5.4205694 14.487692 -1.2627766 13 3205134990504 1 0
0 0 0 3 3205134995112 1 0
8.350854 22.291382 0.96981025 9 3205134997416 1 0
4.686522 14.652065 -0.7165793 1 3205134997416 1 0
5.75038 15.343343 -0.85872835 6 3205134999720 1 0
6.6503663 20.781984 2.6791756 7 3205134999720 1 0
8.232642 21.95736 1.9143434 9 3205135002024 1 0
4.3405113 16.25242 -0.6853478 1 3205135002024 1 0
8.616688 19.949394 -0.7588546 63 3205135004328 1 0
5.779859 18.044523 5.0769944 5 3205135004328 1 0
6.6610417 17.750805 3.4567966 24 3205135006632 1 0
4.783864 14.92796 -0.36476603 1 3205135006632 1 0
0 0 0 8 3205135027368 1 0
5.414282 20.150095 -0.3641968 60 3205135027368 1 0
2.0920818 6.497074 -1.9107502 5 3205135029672 1 0
0 0 0 56 3205135029672 1 0
3.5229514 9.344176 -1.9972585 2 3205135031976 1 0
8.50281 26.392124 0 29 3205135031976 1 0
8.666029 19.96265 -0.25335655 56 3205135034280 1 0
4.1834593 12.978373 -2.1214387 7 3205135034280 1 0
5.7397456 15.209863 -2.0692837 1 3205135036584 1 0
6.249174 23.200714 0.13964866 26 3205135036584 1 0
7.5726843 20.05773 -0.12460743 14 3205135038888 1 0
4.7471237 14.711642 -1.6651449 10 3205135038888 1 0
8.242891 18.964142 -1.9302624 24 3205135041192 1 0
8.645627 26.779362 0.65481085 17 3205135041192 1 0
9.413503 21.648281 0.27482268 9 3205135043496 1 0
5.478725 14.491376 -1.2647294 10 3205135045800 1 0
0 0 0 12 3205135043496 1 0
0 0 0 6 3205135045800 1 0
9.785505 25.870981 0.48280337 10 3205135048104 1 0
4.2249694 15.638084 -1.0381588 2 3205135048104 1 0
8.684416 19.946604 -1.2669655 80 3205135050408 1 0
5.6173096 17.363028 1.0627813 4 3205135050408 1 0
7.831122 20.684875 0.90109634 25 3205135052712 1 0
5.115189 15.80274 -0.77371955 5 3205135052712 1 0
5.7374034 15.147607 -0.84888923 4 3205135055016 1 0
6.70452 20.701988 2.6718636 36 3205135055016 1 0
8.281302 21.853807 1.9078342 9 3205135057320 1 0
4.3337216 16.001785 -0.6754152 1 3205135057320 1 0
8.69644 19.94093 -0.75969225 63 3205135059624 1 0
6.424809 19.817654 5.582209 8 3205135059624 1 0
6.7307143 17.745548 3.4603841 10 3205135061928 1 0
4.83536 14.907155 -0.364673 2 3205135061928 1 0
0 0 0 8 3205135082664 1 0
5.4912553 20.141691 -0.36440626 66 3205135082664 1 0
7.6335115 20.033894 -0.6239338 83 3205135084968 1 0
2.1134455 6.4820538 -1.9085935 5 3205135084968 1 0
3.5556428 9.327588 -1.996474 2 3205135087272 1 0
8.667329 26.57006 0 14 3205135087272 1 0
0 0 0 100 3205135089576 1 0
4.228264 12.95553 -2.120209 8 3205135089576 1 0
6.3461447 23.224138 0.13992764 26 3205135091880 1 0
5.8063273 15.218551 -2.0733242 3 3205135091880 1 0
7.655405 20.056276 -0.124770164 19 3205135094184 1 0
4.8029485 14.7018795 -1.6660017 10 3205135094184 1 0
5.839136 17.86486 0.43734702 27 3205135096488 1 0
8.660499 19.729166 -2.0113096 17 3205135096488 1 0
10.167134 23.152227 0.2943797 16 3205135098792 1 0
5.5480394 14.516208 -1.2686349 8 3205135101096 1 0
7.196724 26.276758 0.7928916 5 3205135101096 1 0
4.7662044 14.575043 -1.0722965 51 3205135098792 1 0
9.891426 25.86921 0.48343167 21 3205135103400 1 0
4.2094946 15.360983 -1.0207623 1 3205135103400 1 0
9.35068 21.267818 -1.3530113 38 3205135105704 1 0
5.694563 17.388275 1.065572 2 3205135105704 1 0
7.89666 20.63427 0.90011936 23 3205135108008 1 0
5.578754 14.571144 -0.817697 2 3205135110312 1 0
5.1743 15.791893 -0.7740918 14 3205135108008 1 0
6.7575226 20.613733 2.6635764 22 3205135110312 1 0
8.191012 21.384787 1.8694302 31 3205135112616 1 0
4.31144 15.697163 -0.663203 1 3205135112616 1 0
0 0 0 21 3205135114920 1 0
0 0 0 13 3205135114920 1 0
4.8920827 14.901264 -0.36495215 2 3205135117224 1 0
6.758561 17.629642 3.4424472 16 3205135117224 1 0
0 0 0 4 3205135137960 1 0
5.5593987 20.11469 -0.36426663 26 3205135137960 1 0
7.7133074 20.0333 -0.6247483 69 3205135140264 1 0
3.5880451 9.315171 -1.996474 2 3205135142568 1 0
8.500119 25.753492 0 14 3205135142568 1 0
2.1348052 6.4709945 -1.9075153 4 3205135140264 1 0
9.6285095 21.75487 -0.27696466 8 3205135144872 1 0
4.269461 12.929525 -2.1183643 7 3205135144872 1 0
0 0 0 45 3205135147176 1 0
6.4777484 23.387062 0.14104351 7 3205135147176 1 0
7.727518 20.037176 -0.124816656 25 3205135149480 1 0
4.8462157 14.662544 -1.6634314 11 3205135149480 1 0
8.728454 19.699196 -2.0113096 10 3205135151784 1 0
5.908215 17.867407 0.43790534 18 3205135151784 1 0
10.220778 23.058613 0.29363468 5 3205135154088 1 0
4.817564 14.56235 -1.0725756 51 3205135154088 1 0
5.60645 14.519393 -1.2705876 10 3205135156392 1 0
14.490338 52.203297 1.5767069 34 3205135156392 1 0
10.080856 26.096327 0.48831832 41 3205135158696 1 0
4.2086744 15.154163 -1.0079708 1 3205135158696 1 0
9.455711 21.308735 -1.3576624 38 3205135161000 1 0
7.9655495 20.603489 0.8999566 25 3205135163304 1 0
0 0 0 9 3205135161000 1 0
5.4644594 16.487196 -0.80908316 3 3205135163304 1 0
0 0 0 25 3205135165608 1 0
8.216115 21.234148 1.85869 15 3205135167912 1 0
4.3100715 15.486063 -0.6548987 1 3205135167912 1 0
6.8351374 20.613226 2.6665013 22 3205135165608 1 0
9.641721 21.695562 -0.8290724 13 3205135170216 1 0
9.274056 27.942602 7.8888044 4 3205135170216 1 0
4.944965 14.892226 -0.36513826 2 3205135172520 1 0
0 0 0 4 3205135193256 1 0
0 0 0 21 3205135193256 1 0
7.029873 18.153456 3.549351 10 3205135172520 1 0
7.7885375 20.029915 -0.6254465 66 3205135195560 1 0
2.1550803 6.46021 -1.9064369 5 3205135195560 1 0
9.070861 27.178238 0 11 3205135197864 1 0
8.955714 20.053606 -0.25568476 3 3205135200168 1 0
4.313847 12.918951 -2.1189792 7 3205135200168 1 0
3.614785 9.292203 -1.9941206 2 3205135197864 1 0
5.983204 15.367254 -2.099083 7 3205135202472 1 0
7.4863358 26.68115 0.16105975 25 3205135202472 1 0
7.807715 20.044703 -0.12502588 34 3205135204776 1 0
4.8903017 14.631127 -1.6617178 11 3205135204776 1 0
8.755574 19.5825 -2.002387 4 3205135207080 1 0
8.966268 26.8129 0.6578816 24 3205135207080 1 0
9.73004 21.753473 0.2774303 7 3205135209384 1 0
4.8678346 14.54983 -1.0728545 56 3205135209384 1 0
5.667 14.530107 -1.2731913 10 3205135211688 1 0
14.682641 52.211838 1.5784523 8 3205135211688 1 0
8.847578 22.675322 0.42486137 28 3205135213992 1 0
4.204755 14.9438715 -0.9949235 1 3205135213992 1 0
8.972975 20.03744 -1.2785933 5 3205135216296 1 0
6.1743436 18.428223 1.1318505 2 3205135216296 1 0
4.9057703 14.634916 -0.7189989 3 3205135218600 1 0
8.035475 20.576319 0.8999566 8 3205135218600 1 0
5.701064 14.592364 -0.8210465 4 3205135220904 1 0
7.852042 23.412949 3.0321093 13 3205135220904 1 0
8.282684 21.19115 1.8573881 15 3205135223208 1 0
4.3021183 15.255859 -0.6457803 1 3205135223208 1 0
8.830778 19.689184 -0.75354993 5 3205135225512 1 0
0 0 0 26 3205135225512 1 0
6.991659 17.872742 3.4991279 8 3205135227816 1 0
4.998491 14.882783 -0.36532435 2 3205135227816 1 0
0 0 0 4 3205135248552 1 0
4.447347 15.674815 -0.28440443 3 3205135248552 1 0
7.8642554 20.017492 -0.62591195 63 3205135250856 1 0
2.1763856 6.448998 -1.9053587 5 3205135250856 1 0
3.6457639 9.275878 -1.9933362 2 3205135253160 1 0
7.6621614 22.693382 0 26 3205135253160 1 0
9.017441 20.00399 -0.25545192 7 3205135255464 1 0
4.353857 12.888836 -2.1165195 7 3205135255464 1 0
6.030999 15.331505 -2.0970626 6 3205135257768 1 0
7.5367575 26.504807 0.16015309 17 3205135257768 1 0
7.8864255 20.03966 -0.12516537 29 3205135260072 1 0
4.942618 14.617736 -1.6621462 13 3205135260072 1 0
8.828792 19.562708 -2.0035024 19 3205135262376 1 0
6.05354 17.8947 0.4395803 4 3205135262376 1 0
0 0 0 95 3205135264680 1 0
4.924989 14.551648 -1.0742497 45 3205135264680 1 0
6.419317 22.525238 0.6816494 4 3205135266984 1 0
8.649459 21.941084 0.41166738 28 3205135269288 1 0
4.2163925 14.787067 -0.9854578 2 3205135269288 1 0
5.7249928 14.528783 -1.2748185 3 3205135266984 1 0
8.929376 19.754921 -1.262547 7 3205135271592 1 0
6.971913 17.670586 0.7739268 6 3205135273896 1 0
0 0 0 33 3205135271592 1 0
5.327657 15.711287 -0.7727889 3 3205135273896 1 0
6.79851 20.039255 2.5982544 4 3205135276200 1 0
7.617469 19.29855 -1.0873318 31 3205135276200 1 0
8.349283 21.143568 1.8557609 18 3205135278504 1 0
9.375914 20.710709 -0.79389375 40 3205135280808 1 0
5.8528166 17.235252 4.8771863 3 3205135280808 1 0
0 0 0 5 3205135278504 1 0
7.033755 17.796991 3.489083 4 3205135283112 1 0
5.047838 14.857672 -0.36513826 2 3205135283112 1 0
4.4324164 15.417043 -0.2800064 3 3205135304296 1 0
0 0 0 4 3205135304296 1 0
2.1988838 6.441362 -1.9053587 5 3205135306600 1 0
7.941457 20.0085 -0.62649375 66 3205135306600 1 0
7.736158 22.651356 0 34 3205135308904 1 0
3.6766732 9.25945 -1.9925517 1 3205135308904 1 0
0 0 0 48 3205135311208 1 0
6.0771523 15.291922 -2.0945373 6 3205135313512 1 0
7.6458426 26.53599 0.16050181 35 3205135313512 1 0
7.9637175 20.030592 -0.12528162 34 3205135315816 1 0
4.3949866 12.86234 -2.1146748 7 3205135311208 1 0
4.9923263 14.596631 -1.6617178 13 3205135315816 1 0
6.122441 17.892376 0.44004557 4 3205135318120 1 0
8.926742 19.59701 -2.0101943 8 3205135318120 1 0
9.992792 21.928871 0.2805501 10 3205135320424 1 0
7.571631 19.020226 -1.6712263 64 3205135322728 1 0
4.9822164 14.553244 -1.0756449 48 3205135320424 1 0
0 0 0 23 3205135322728 1 0
4.228096 14.634201 -0.9762479 14 3205135325032 1 0
8.973417 19.669136 -1.2590586 7 3205135327336 1 0
0 0 0 6 3205135327336 1 0
7.0749874 17.750095 0.778486 33 3205135329640 1 0
5.3798747 15.685035 -0.77241665 5 3205135329640 1 0
7.6862664 19.275553 -1.0875412 28 3205135331944 1 0
0 0 0 35 3205135331944 1 0
8.953355 22.443659 1.9726003 7 3205135334248 1 0
4.28958 14.814681 -0.6283576 4 3205135334248 1 0
8.63869 21.691538 0.4075486 42 3205135325032 1 0
0 0 0 21 3205135336552 1 0
9.281727 27.022465 7.6558676 12 3205135336552 1 0
7.443112 18.642126 3.6598423 2 3205135338856 1 0
5.104869 14.855088 -0.36551046 2 3205135338856 1 0
0 0 0 4 3205135359592 1 0
4.4314 15.213326 -0.27658573 2 3205135359592 1 0
8.021667 20.006636 -0.62730825 69 3205135361896 1 0
2.2200978 6.430006 -1.9042803 4 3205135361896 1 0
3.713353 9.257481 -1.9949051 3 3205135364200 1 0
7.8661137 22.771666 0 44 3205135364200 1 0
9.083432 19.780619 -0.2534031 8 3205135366504 1 0
6.1319723 15.274298 -2.0950425 6 3205135368808 1 0
4.439858 12.84692 -2.1146748 7 3205135366504 1 0
7.736182 26.501461 0.16045532 35 3205135368808 1 0
8.041042 20.02123 -0.12539785 40 3205135371112 1 0
5.045848 14.586633 -1.6625745 13 3205135371112 1 0
9.01672 19.612772 -2.0150273 12 3205135373416 1 0
9.332256 20.291336 0.26001522 27 3205135375720 1 0
6.285565 18.161879 0.4472106 4 3205135373416 1 0
7.645415 19.012175 -1.6728536 40 3205135378024 1 0
5.036903 14.547076 -1.0764819 32 3205135375720 1 0
8.703906 21.635279 0.40705994 13 3205135380328 1 0
7.8741846 26.915985 0.816164 12 3205135378024 1 0
4.282517 14.630846 -0.9770154 33 3205135380328 1 0
0 0 0 31 3205135382632 1 0
14.755122 42.554195 2.6230001 13 3205135382632 1 0
9.055105 22.489357 0.98772144 10 3205135384936 1 0
5.447688 15.70391 -0.7742779 5 3205135384936 1 0
7.7729063 19.296774 -1.0902627 37 3205135387240 1 0
0 0 0 3 3205135387240 1 0
8.335755 20.685404 1.8206115 9 3205135389544 1 0
4.3288918 14.757431 -0.62656647 13 3205135389544 1 0
0 0 0 40 3205135391848 1 0
6.8300867 19.661203 5.5770326 17 3205135391848 1 0
0 0 0 100 3205135394152 1 0
5.161943 14.852288 -0.36588266 1 3205135394152 1 0
4.441466 15.052002 -0.27393296 2 3205135414888 1 0
8.100314 20.000807 -0.62800646 69 3205135417192 1 0
2.2424824 6.4222336 -1.9042803 5 3205135417192 1 0
3.7410917 9.233611 -1.9925517 2 3205135419496 1 0
0 0 0 4 3205135414888 1 0
9.265689 26.524181 0 30 3205135419496 1 0
9.093133 19.621975 -0.25177336 14 3205135421800 1 0
4.483091 12.82771 -2.11406 8 3205135421800 1 0
7.839214 26.51288 0.16068779 31 3205135424104 1 0
6.183317 15.249303 -2.0945373 7 3205135424104 1 0
8.122182 20.022987 -0.12558383 40 3205135426408 1 0
5.108022 14.602901 -1.6664301 11 3205135426408 1 0
9.08092 19.574348 -2.014284 17 3205135428712 1 0
6.2345366 17.8155 0.4392081 22 3205135428712 1 0
5.0948224 14.552261 -1.0781561 29 3205135431016 1 0
7.7211294 19.011677 -1.6751318 40 3205135433320 1 0
6.654673 22.461002 0.68176574 16 3205135433320 1 0
0 0 0 20 3205135435624 1 0
4.328068 14.600783 -0.975992 41 3205135435624 1 0
9.319495 20.081339 0.25773358 22 3205135431016 1 0
0 0 0 36 3205135437928 1 0
15.01806 42.8389 2.6436975 13 3205135437928 1 0
9.157348 22.521282 0.99048954 33 3205135440232 1 0
7.841546 19.277609 -1.0906813 34 3205135442536 1 0
6.296416 17.944593 2.3350167 8 3205135442536 1 0
9.155791 22.499634 1.983015 7 3205135444840 1 0
4.381261 14.750307 -0.62689215 2 3205135444840 1 0
5.4906383 15.655074 -0.7727889 3 3205135440232 1 0
9.482254 20.380402 -0.7849595 9 3205135447144 1 0
20.522425 50.39234 9.920533 40 3205135449448 1 0
6.0081863 17.108015 4.858551 3 3205135447144 1 0
5.2161145 14.846066 -0.36616182 1 3205135449448 1 0
0 0 0 4 3205135470184 1 0
8.175964 19.995922 -0.6287046 66 3205135472488 1 0
4.47991 14.99887 -0.27323487 4 3205135470184 1 0
2.2625782 6.4110966 -1.903202 5 3205135472488 1 0
9.157264 25.934813 0 28 3205135474792 1 0
9.160701 19.594938 -0.2518199 24 3205135477096 1 0
4.524847 12.808849 -2.113445 8 3205135477096 1 0
6.2272205 15.209991 -2.092012 7 3205135479400 1 0
7.9343667 26.505438 0.16080403 35 3205135479400 1 0
3.7675042 9.210154 -1.9901983 2 3205135474792 1 0
5.1747155 14.634251 -1.6719991 11 3205135481704 1 0
9.142422 19.532509 -2.0131686 19 3205135484008 1 0
6.285797 17.76779 0.43855673 18 3205135484008 1 0
8.202119 20.02496 -0.12576981 44 3205135481704 1 0
9.299878 19.86101 0.25531223 22 3205135486312 1 0
7.796931 19.010881 -1.67741 40 3205135488616 1 0
8.077158 26.92257 0.8180258 18 3205135488616 1 0
9.585653 23.362074 0.440778 9 3205135490920 1 0
4.3783712 14.585777 -0.975992 58 3205135490920 1 0
5.147194 14.542285 -1.0787141 50 3205135486312 1 0
0 0 0 41 3205135493224 1 0
0 0 0 12 3205135493224 1 0
5.551701 15.654723 -0.77371955 3 3205135495528 1 0
7.904236 19.239035 -1.0900533 37 3205135497832 1 0
6.3576884 17.918764 2.3345292 4 3205135497832 1 0
8.375251 20.37664 1.7984803 9 3205135500136 1 0
8.787692 21.398676 0.94245493 9 3205135495528 1 0
4.4479046 14.784614 -0.6290089 1 3205135500136 1 0
0 0 0 57 3205135502440 1 0
7.284887 17.708445 3.4912355 2 3205135504744 1 0
5.265874 14.820002 -0.3659757 1 3205135504744 1 0
0 0 0 4 3205135525480 1 0
4.536012 14.9861765 -0.27330467 11 3205135525480 1 0
8.261267 19.995443 -0.6296355 69 3205135527784 1 0
2.2873096 6.406405 -1.9042803 5 3205135527784 1 0
3.7966073 9.185464 -1.9878448 2 3205135530088 1 0
9.24919 25.893677 0 24 3205135530088 1 0
9.204718 19.503557 -0.25107488 17 3205135532392 1 0
4.566164 12.7773905 -2.1109853 7 3205135532392 1 0
6.279451 15.179914 -2.0910017 6 3205135534696 1 0
8.078292 26.633348 0.16175719 10 3205135534696 1 0
8.28238 20.013544 -0.12588605 44 3205135537000 1 0
9.657573 20.567629 -0.793475 96 3205135502440 1 0
9.2130995 19.499271 -2.0131686 17 3205135539304 1 0
6.501007 18.1666 0.4489786 18 3205135539304 1 0
9.306651 19.689854 0.25354278 22 3205135541608 1 0
5.2518964 14.682779 -1.6797101 7 3205135537000 1 0
5.2037554 14.534857 -1.0795512 43 3205135541608 1 0
7.874609 19.004732 -1.6793628 42 3205135543912 1 0
8.156774 26.835878 0.81628036 3 3205135543912 1 0
8.934584 21.554031 0.40726936 34 3205135546216 1 0
0 0 0 36 3205135548520 1 0
0 0 0 3 3205135548520 1 0
4.4389777 14.596656 -0.97778285 82 3205135546216 1 0
0 0 0 32 3205135550824 1 0
7.9883327 19.247524 -1.0921468 34 3205135553128 1 0
8.92102 21.503622 0.94847965 9 3205135550824 1 0
18.089275 50.410465 6.57607 37 3205135553128 1 0
4.4855213 14.718937 -0.62689215 1 3205135555432 1 0
9.311371 19.648039 -0.75927347 15 3205135557736 1 0
0 0 0 9 3205135557736 1 0
8.969587 21.585207 4.261804 9 3205135560040 1 0
5.303667 14.759786 -0.36495215 1 3205135560040 1 0
0 0 0 4 3205135580776 1 0
4.5847797 14.95878 -0.27309525 9 3205135580776 1 0
8.341646 19.992374 -0.63045007 63 3205135583080 1 0
2.3083038 6.3947754 -1.903202 4 3205135583080 1 0
8.418909 20.276648 1.7922966 9 3205135555432 1 0
3.8254921 9.164971 -1.9862759 2 3205135585384 1 0
9.270597 19.4679 -0.25102833 35 3205135587688 1 0
8.397621 23.254164 0 51 3205135585384 1 0
4.6091166 12.757757 -2.1103704 7 3205135587688 1 0
6.3258414 15.143441 -2.0889814 6 3205135589992 1 0
8.360717 20.006958 -0.12602554 46 3205135592296 1 0
5.505437 15.225551 -1.7439684 5 3205135592296 1 0
8.262028 26.903473 0.1635705 10 3205135589992 1 0
9.276832 19.460207 -2.012425 14 3205135594600 1 0
6.5431843 18.087675 0.4475828 22 3205135594600 1 0
9.37088 19.650505 0.25344965 24 3205135596904 1 0
5.2605104 14.535632 -1.0809463 52 3205135596904 1 0
7.949028 18.999659 -1.6813154 44 3205135599208 1 0
8.184166 26.59754 0.8098805 3 3205135599208 1 0
8.997549 21.497477 0.4067807 15 3205135601512 1 0
4.481901 14.5584755 -0.9762479 90 3205135601512 1 0
15.408696 42.521606 2.6339302 13 3205135603816 1 0
9.294982 19.47057 -1.2565005 40 3205135603816 1 0
5.6175046 15.495296 -0.76776356 5 3205135606120 1 0
8.084668 19.29391 -1.0963336 40 3205135608424 1 0
8.995853 21.476757 0.9486425 12 3205135606120 1 0
0 0 0 15 3205135608424 1 0
8.93777 21.321554 1.8873303 19 3205135610728 1 0
4.529592 14.684524 -0.62607795 1 3205135610728 1 0
6.1764617 17.015106 4.850269 12 3205135613032 1 0
9.286519 19.42522 -0.75187474 43 3205135613032 1 0
7.2355447 17.24743 3.4101608 13 3205135615336 1 0
5.379483 14.813183 -0.36672014 1 3205135615336 1 0
0 0 0 4 3205135636072 1 0
4.6331754 14.939674 -0.27302545 9 3205135636072 1 0
2.3281772 6.383467 -1.9021238 4 3205135638376 1 0
3.858909 9.159465 -1.9878448 2 3205135640680 1 0
9.53591 26.134628 0 43 3205135640680 1 0
9.286619 19.336098 -0.24972452 52 3205135642984 1 0
4.647331 12.731264 -2.1085258 8 3205135642984 1 0
8.41876 19.990396 -0.63126457 54 3205135638376 1 0
6.3713994 15.111412 -2.0874662 6 3205135645288 1 0
8.434789 19.997551 -0.12614177 63 3205135647592 1 0
5.5982037 15.32301 -1.7572484 16 3205135647592 1 0
9.280912 19.303709 -1.9994128 14 3205135649896 1 0
7.638214 20.897827 0.5177444 10 3205135649896 1 0
18.135014 58.36232 0.35520092 32 3205135645288 1 0
9.453328 19.655367 0.2539153 24 3205135652200 1 0
5.310054 14.521855 -1.0812254 100 3205135652200 1 0
8.60987 27.654442 0.84292734 3 3205135654504 1 0
8.019744 18.991558 -1.6829427 44 3205135654504 1 0
22.356812 52.922764 1.0028152 26 3205135656808 1 0
9.297135 19.310114 -1.2481285 80 3205135659112 1 0
7.8118777 21.336382 1.3232441 6 3205135659112 1 0
9.101262 21.527796 0.95222473 29 3205135661416 1 0
5.7458167 15.686688 -0.7781865 3 3205135661416 1 0
8.453575 19.98808 -1.137365 99 3205135663720 1 0
0 0 0 1 3205135663720 1 0
7.877518 18.618849 1.650397 5 3205135666024 1 0
4.5337157 14.554966 -0.9770154 84 3205135656808 1 0
4.5842166 14.688498 -0.62689215 1 3205135666024 1 0
9.297064 19.282692 -0.7475472 60 3205135668328 1 0
6.698487 18.264132 5.2126155 5 3205135668328 1 0
7.3049746 17.25233 3.4159007 24 3205135670632 1 0
5.479542 14.934167 -0.37016308 1 3205135670632 1 0
0 0 0 4 3205135691368 1 0
4.681494 14.920412 -0.27295563 11 3205135691368 1 0
2.3467617 6.3684487 -1.8999672 4 3205135693672 1 0
8.489987 19.973286 -0.6316137 60 3205135693672 1 0
3.886458 9.139285 -1.9862759 2 3205135695976 1 0
7.6640344 20.78824 0 40 3205135695976 1 0
4.6859756 12.704453 -2.1066809 8 3205135698280 1 0
9.363737 19.329985 -0.25005046 58 3205135698280 1 0
6.4223537 15.089828 -2.0874662 7 3205135700584 1 0
8.51191 19.990932 -0.12628126 55 3205135702888 1 0
5.6969304 15.4308 -1.7718135 7 3205135702888 1 0
9.341343 19.26126 -1.9982975 22 3205135705192 1 0
8.288262 26.359179 0.1605948 7 3205135700584 1 0
8.216411 22.244652 0.5518017 42 3205135705192 1 0
