# .PCD v.7 - Point Cloud Data file format
VERSION .7
FIELDS x y z rgb timestamp_ns device_id active
SIZE 4 4 4 4 8 1 1
TYPE F F F F F U U
COUNT 1 1 1 1 1 1 1
WIDTH 990
HEIGHT 1
VIEWPOINT 0 0 0 1 0 0 0
POINTS 990               
DATA ascii
12.657087 -15.026338 -0.9151741 4 3201869105008 1 1
18.367752 -24.111122 -1.588501 9 3201869107312 1 0
31.569742 -37.490273 6.017908 23 3201869107312 1 0
0 0 0 8 3201869109616 1 0
12.7523 -13.727113 -0.7633429 1 3201869109616 1 1
18.004442 -26.21296 -1.110502 43 3201869111920 1 0
0 0 0 9 3201869111920 1 0
20.512854 -26.951355 6.175311 30 3201869114224 1 0
21.823717 -25.93946 -0.78880656 43 3201869114224 1 0
0 0 0 4 3201869134960 1 0
13.442737 -14.516835 -0.3453482 3 3201869134960 1 1
19.444038 -25.624313 -0.9361334 46 3201869137264 1 0
3.8445065 -4.583058 -1.6746022 2 3201869137264 1 0
5.063438 -6.674864 -1.6756262 3 3201869139568 1 0
28.298552 -33.74483 0 49 3201869139568 1 0
17.951025 -26.241365 -0.37013987 53 3201869141872 1 0
6.7569885 -8.059805 -1.6362749 4 3201869141872 1 0
7.119686 -9.39118 -1.5000665 27 3201869144176 1 0
28.455652 -30.765192 0.24356568 28 3201869144176 1 0
0 0 0 100 3201869146480 1 0
7.8029175 -9.312901 -1.308726 2 3201869146480 1 0
10.033825 -14.6814995 -1.659981 2 3201869148784 1 0
28.26099 -33.73989 1.0241364 42 3201869148784 1 0
14.338248 -17.123034 -1.561708 4 3201869151088 1 0
29.30101 -42.886646 0.6046844 17 3201869151088 1 0
11.90104 -15.716982 -1.6093893 3 3201869153392 1 0
28.396347 -30.736929 1.2178462 39 3201869153392 1 0
29.506977 -38.979855 0.85335284 55 3201869155696 1 0
12.707647 -13.759094 -1.200355 1 3201869155696 1 1
14.941552 -21.889814 -1.5434747 7 3201869158000 1 0
27.64519 -33.043736 2.5090475 23 3201869158000 1 0
31.163584 -41.19319 2.1044035 13 3201869160304 1 0
12.725041 -15.214481 -0.923922 6 3201869160304 1 1
18.281069 -24.171906 -1.5882916 14 3201869162608 1 0
31.571112 -37.758625 6.043257 36 3201869162608 1 0
0 0 0 8 3201869164912 1 0
12.723276 -13.792107 -0.76448274 3 3201869164912 1 1
17.892567 -26.245918 -1.1092457 42 3201869167216 1 0
0 0 0 9 3201869167216 1 0
20.380693 -26.97256 6.1638317 24 3201869169520 1 0
21.663816 -25.93262 -0.78629416 43 3201869169520 1 0
0 0 0 4 3201869190256 1 0
13.502973 -14.684372 -0.34821042 3 3201869190256 1 1
19.37594 -25.720911 -0.93718064 40 3201869192560 1 0
3.8309171 -4.5994377 -1.6756804 2 3201869192560 1 0
5.044729 -6.6988378 -1.6771951 2 3201869194864 1 0
21.568907 -25.90389 0 52 3201869194864 1 0
0 0 0 100 3201869197168 1 0
6.7311654 -8.086526 -1.6368899 4 3201869197168 1 0
7.1128345 -9.4510565 -1.5056223 43 3201869199472 1 0
28.441889 -30.968267 0.24437934 35 3201869199472 1 0
29.679789 -39.449047 -0.28692254 89 3201869201776 1 0
7.7547617 -9.32202 -1.3061556 3 3201869201776 1 0
28.238731 -33.956398 1.0276725 28 3201869204080 1 0
9.9818735 -14.71687 -1.659981 2 3201869204080 1 0
29.301577 -43.21526 0.6078508 26 3201869206384 1 0
14.280067 -17.176773 -1.5619869 4 3201869206384 1 0
11.847584 -15.762304 -1.6097147 3 3201869208688 1 0
28.384388 -30.94358 1.2220352 39 3201869208688 1 0
12.666732 -13.813024 -1.2011226 1 3201869210992 1 1
29.495506 -39.253998 0.8570528 56 3201869210992 1 0
14.872414 -21.956142 -1.544405 7 3201869213296 1 0
27.636976 -33.274128 2.5190475 35 3201869213296 1 0
31.256289 -41.623795 2.1206865 14 3201869215600 1 0
12.708922 -15.305932 -0.9267139 4 3201869215600 1 1
18.208855 -24.256325 -1.5895476 9 3201869217904 1 0
31.560064 -38.02103 6.0671434 36 3201869217904 1 0
0 0 0 8 3201869220208 1 0
0 0 0 75 3201869220208 1 0
17.782484 -26.28685 -1.1082684 47 3201869222512 1 0
0 0 0 9 3201869222512 1 0
20.259857 -27.014269 6.1566567 24 3201869224816 1 0
21.514166 -25.942717 -0.784247 52 3201869224816 1 0
0 0 0 4 3201869245552 1 0
13.502987 -14.792841 -0.3496066 3 3201869245552 1 1
19.307873 -25.82698 -0.93846065 46 3201869247856 1 0
3.8213966 -4.622354 -1.6789154 1 3201869247856 1 0
5.0177946 -6.714141 -1.6764106 3 3201869250160 1 0
28.290298 -34.230534 0 43 3201869250160 1 0
25.576336 -37.970272 -0.5329754 60 3201869252464 1 0
6.701482 -8.111143 -1.6368899 4 3201869252464 1 0
7.035407 -9.419838 -1.496531 42 3201869254768 1 0
28.47102 -31.228966 0.24561147 28 3201869254768 1 0
29.630722 -39.68577 -0.28785247 105 3201869257072 1 0
7.70535 -9.331979 -1.3035853 9 3201869257072 1 0
9.941208 -14.773182 -1.6622118 2 3201869259376 1 0
28.22864 -34.19845 1.0318599 28 3201869259376 1 0
29.259077 -43.494938 0.61027217 27 3201869261680 1 0
14.219555 -17.232075 -1.562266 4 3201869261680 1 0
28.375769 -31.162704 1.2265732 39 3201869263984 1 0
29.487709 -39.54459 0.86103195 56 3201869266288 1 0
12.618707 -13.8623085 -1.2013785 1 3201869266288 1 1
14.791841 -22.010506 -1.544405 7 3201869268592 1 0
27.616442 -33.498444 2.5283496 36 3201869268592 1 0
30.996054 -41.593864 2.1133592 14 3201869270896 1 0
11.796884 -15.815209 -1.6106911 3 3201869263984 1 0
18.091192 -24.284462 -1.5870355 14 3201869273200 1 0
19.760532 -23.97677 -1.4473041 14 3201869270896 1 0
31.546724 -38.289658 6.0915174 36 3201869273200 1 0
0 0 0 8 3201869275504 1 0
12.63101 -13.892863 -0.7649712 27 3201869275504 1 1
17.652603 -26.302061 -1.1061745 47 3201869277808 1 0
9.499522 -11.5371685 4.0044484 1 3201869277808 1 0
20.123117 -27.037836 6.1451774 24 3201869280112 1 0
21.383358 -25.97817 -0.78294426 52 3201869280112 1 0
0 0 0 4 3201869300296 1 0
13.59631 -14.9999 -0.35337633 3 3201869300296 1 1
19.239235 -25.922977 -0.9395079 46 3201869302600 1 0
3.8028278 -4.63266 -1.677837 2 3201869302600 1 0
4.9990997 -6.7378426 -1.6779796 3 3201869304904 1 0
28.303087 -34.489456 0 14 3201869304904 1 0
25.426685 -38.032166 -0.53260285 38 3201869307208 1 0
6.675812 -8.137396 -1.6375048 4 3201869307208 1 0
6.9885774 -9.425011 -1.4935006 43 3201869309512 1 0
28.462078 -31.437046 0.24647163 21 3201869309512 1 0
29.653051 -40.00318 -0.28941005 110 3201869311816 1 0
7.6629825 -9.346238 -1.3018718 55 3201869311816 1 0
9.883589 -14.797426 -1.6610963 2 3201869314120 1 0
28.209454 -34.41617 1.0354888 21 3201869314120 1 0
29.25144 -43.808212 0.6132523 27 3201869316424 1 0
14.170313 -17.29323 -1.5633821 4 3201869316424 1 0
11.768628 -15.89085 -1.6142712 3 3201869318728 1 0
28.373226 -31.375576 1.2311114 40 3201869318728 1 0
12.672877 -14.017971 -1.2111 1 3201869321032 1 1
14.732036 -22.084188 -1.5460329 7 3201869323336 1 0
29.475836 -39.812504 0.86466205 56 3201869321032 1 0
27.608028 -33.722412 2.5381172 36 3201869323336 1 0
19.724194 -24.099684 -1.4506543 14 3201869325640 1 0
31.638494 -42.75957 2.1670928 33 3201869325640 1 0
18.084454 -24.448658 -1.5937345 14 3201869327944 1 0
31.557018 -38.568874 6.118816 37 3201869327944 1 0
0 0 0 8 3201869330248 1 0
12.645362 -14.003905 -0.7687163 6 3201869330248 1 1
17.534554 -26.318483 -1.1043596 47 3201869332552 1 0
0 0 0 102 3201869332552 1 0
20.001167 -27.064587 6.13585 24 3201869334856 1 0
21.234646 -25.976027 -0.780711 9 3201869334856 1 0
0 0 0 4 3201869355592 1 0
0 0 0 50 3201869355592 1 0
19.16267 -26.00943 -0.94020605 46 3201869357896 1 0
0 0 0 8 3201869357896 1 0
4.9801035 -6.7616405 -1.6795485 2 3201869360200 1 0
20.129654 -24.705595 0 54 3201869360200 1 0
25.37255 -38.241222 -0.53427917 11 3201869362504 1 0
6.654677 -8.169988 -1.6393496 4 3201869362504 1 0
6.9600644 -9.455942 -1.4945107 17 3201869364808 1 0
23.331886 -25.95365 0.20283578 15 3201869364808 1 0
7.609885 -9.348533 -1.2984446 67 3201869367112 1 0
29.623194 -40.258938 -0.2905027 113 3201869367112 1 0
9.83783 -14.842224 -1.6622118 2 3201869369416 1 0
29.235292 -44.12159 0.61618584 27 3201869371720 1 0
14.126606 -17.364975 -1.5653353 4 3201869371720 1 0
11.714521 -15.935727 -1.6145966 3 3201869374024 1 0
28.363209 -31.589123 1.2355331 40 3201869374024 1 0
29.461962 -40.0911 0.86843175 47 3201869376328 1 0
12.548287 -13.979772 -1.2039367 1 3201869376328 1 1
28.216368 -34.67384 1.0402346 28 3201869369416 1 0
14.659861 -22.146534 -1.5467305 7 3201869378632 1 0
27.60606 -33.96622 2.5490472 36 3201869378632 1 0
31.64885 -43.09454 2.178328 51 3201869380936 1 0
19.708565 -24.25679 -1.4558657 14 3201869380936 1 0
17.994497 -24.509987 -1.5935252 14 3201869383240 1 0
31.551483 -38.844864 6.1446524 38 3201869383240 1 0
12.635093 -14.093789 -0.7711587 14 3201869385544 1 1
0 0 0 8 3201869385544 1 0
17.415644 -26.344624 -1.1028241 47 3201869387848 1 0
0 0 0 38 3201869387848 1 0
19.871029 -27.091988 6.1258054 24 3201869390152 1 0
20.070093 -24.732603 -0.7411637 56 3201869390152 1 0
0 0 0 4 3201869410888 1 0
28.472137 -31.866732 -0.74591583 14 3201869410888 1 0
19.083921 -26.101946 -0.9410206 51 3201869413192 1 0
9.455444 -11.688315 -4.2086105 6 3201869413192 1 0
4.9484425 -6.770276 -1.6771951 2 3201869415496 1 0
29.001314 -35.86054 0 15 3201869415496 1 0
29.435629 -44.717857 -0.6232636 60 3201869417800 1 0
6.6223817 -8.191106 -1.6387346 4 3201869417800 1 0
0 0 0 15 3201869420104 1 0
28.44413 -31.872688 0.24828495 29 3201869420104 1 0
29.601929 -40.53738 -0.2917348 105 3201869422408 1 0
7.5484166 -9.342059 -1.2937324 70 3201869422408 1 0
9.7862015 -14.881083 -1.6625835 2 3201869424712 1 0
29.512856 -36.536522 1.0929023 15 3201869424712 1 0
14.0562315 -17.406605 -1.5644982 4 3201869427016 1 0
29.214058 -44.437523 0.61911935 27 3201869427016 1 0
11.666364 -15.990761 -1.6158985 3 3201869429320 1 0
28.355501 -31.81061 1.2401876 41 3201869429320 1 0
29.43529 -40.35846 0.87192225 28 3201869431624 1 0
12.497882 -14.024851 -1.2039367 1 3201869431624 1 1
14.5867815 -22.209068 -1.5474281 7 3201869433928 1 0
27.594187 -34.20192 2.5592797 37 3201869433928 1 0
31.595373 -43.34661 2.1853297 52 3201869436232 1 0
19.649067 -24.361504 -1.4579132 14 3201869436232 1 0
17.970203 -24.661377 -1.5991775 15 3201869438536 1 0
31.5369 -39.112038 6.1690264 39 3201869438536 1 0
0 0 0 8 3201869440840 1 0
0 0 0 87 3201869440840 1 0
17.304115 -26.379772 -1.1017073 47 3201869443144 1 0
0 0 0 117 3201869443144 1 0
19.73982 -27.11476 6.115043 29 3201869445448 1 0
19.982014 -24.803818 -0.7411637 56 3201869445448 1 0
0 0 0 4 3201869466184 1 0
28.46159 -32.07961 -0.7485686 21 3201869466184 1 0
19.002277 -26.181206 -0.94148606 40 3201869468488 1 0
9.474977 -11.796259 -4.235568 9 3201869468488 1 0
4.9294853 -6.7937856 -1.678764 3 3201869470792 1 0
28.929077 -36.02663 0 24 3201869470792 1 0
29.409399 -45.017258 -0.6260109 30 3201869473096 1 0
6.593928 -8.214028 -1.6387346 4 3201869473096 1 0
6.8485155 -9.44407 -1.4849143 3 3201869475400 1 0
0 0 0 28 3201869477704 1 0
28.463625 -32.11764 0.24942409 29 3201869475400 1 0
7.5136127 -9.364976 -1.293304 61 3201869477704 1 0
9.734848 -14.914727 -1.6625835 2 3201869480008 1 0
29.501833 -36.78153 1.0971828 23 3201869480008 1 0
29.200916 -44.75213 0.62209946 27 3201869482312 1 0
14.0012665 -17.461079 -1.5650562 4 3201869482312 1 0
11.611407 -16.03071 -1.6158985 3 3201869484616 1 0
28.346853 -32.021515 1.2446094 41 3201869484616 1 0
29.442308 -40.65988 0.87625045 19 3201869486920 1 0
12.526491 -14.154266 -1.2113558 1 3201869486920 1 1
14.567488 -22.34577 -1.5534747 7 3201869489224 1 0
27.584486 -34.430042 2.5692797 25 3201869489224 1 0
31.698067 -43.80056 2.2027524 36 3201869491528 1 0
19.595839 -24.465803 -1.4601467 19 3201869491528 1 0
17.89085 -24.728867 -1.5995961 10 3201869493832 1 0
31.532642 -39.380295 6.194375 40 3201869493832 1 0
0 0 0 8 3201869496136 1 0
0 0 0 14 3201869496136 1 0
17.194988 -26.408112 -1.1004509 47 3201869498440 1 0
0 0 0 149 3201869498440 1 0
19.913013 -24.889982 -0.741722 56 3201869500744 1 0
19.61805 -27.139896 6.105716 29 3201869500744 1 0
0 0 0 4 3201869521480 1 0
28.476692 -32.311832 -0.75177985 50 3201869521480 1 0
18.873272 -26.185692 -0.93939155 34 3201869523784 1 0
9.493459 -11.89988 -4.2614474 3 3201869523784 1 0
4.909222 -6.8132772 -1.6795485 2 3201869526088 1 0
28.814438 -36.12862 0 24 3201869526088 1 0
29.429716 -45.37628 -0.6296429 38 3201869528392 1 0
6.569117 -8.23894 -1.6393496 5 3201869528392 1 0
6.810204 -9.457069 -1.4833992 3 3201869530696 1 0
28.454754 -32.32294 0.25028425 30 3201869530696 1 0
29.628267 -41.15563 -0.29473376 119 3201869533000 1 0
0 0 0 14 3201869533000 1 0
9.693998 -14.960297 -1.6640706 2 3201869535304 1 0
29.496809 -37.026165 1.1015562 38 3201869535304 1 0
29.185001 -45.05349 0.6249399 27 3201869537608 1 0
13.950744 -17.516775 -1.5658933 4 3201869537608 1 0
28.348763 -32.238445 1.2493802 41 3201869539912 1 0
11.569823 -16.08531 -1.6175257 3 3201869539912 1 0
12.532196 -14.255689 -1.2164724 1 3201869542216 1 1
29.419388 -40.91315 0.8796013 29 3201869542216 1 0
14.493306 -22.393955 -1.5534747 7 3201869544520 1 0
31.797544 -44.246212 2.2198493 38 3201869546824 1 0
27.584538 -34.665062 2.5799773 25 3201869544520 1 0
19.546936 -24.5713 -1.4625663 9 3201869546824 1 0
17.806417 -24.784815 -1.5993868 10 3201869549128 1 0
31.5032 -39.612045 6.2143617 27 3201869549128 1 0
0 0 0 8 3201869551432 1 0
0 0 0 1 3201869551432 1 0
17.08779 -26.434772 -1.0991945 47 3201869553736 1 0
9.570771 -12.041092 4.1214347 119 3201869553736 1 0
19.498112 -27.163244 6.096389 29 3201869556040 1 0
19.852757 -24.984056 -0.74255943 54 3201869556040 1 0
0 0 0 4 3201869576776 1 0
18.741928 -26.186495 -0.93718064 40 3201869579080 1 0
28.461588 -32.51141 -0.75422317 36 3201869576776 1 0
9.525624 -12.021937 -4.2937965 2 3201869579080 1 0
4.88422 -6.8264008 -1.678764 3 3201869581384 1 0
28.681526 -36.208714 0 24 3201869581384 1 0
29.429655 -45.709675 -0.6329024 22 3201869583688 1 0
6.544033 -8.26392 -1.6399645 5 3201869583688 1 0
6.771606 -9.470115 -1.4818839 3 3201869585992 1 0
28.459686 -32.547424 0.2512839 30 3201869585992 1 0
29.606432 -41.417427 -0.29589614 85 3201869588296 1 0
0 0 0 4 3201869588296 1 0
9.64799 -14.999481 -1.6648141 2 3201869590600 1 0
29.496302 -37.28186 1.1062088 23 3201869590600 1 0
29.167261 -45.360085 0.62782687 28 3201869592904 1 0
13.884259 -17.55426 -1.5650562 4 3201869592904 1 0
11.527066 -16.14048 -1.619153 3 3201869595208 1 0
28.347654 -32.45739 1.2541511 36 3201869595208 1 0
29.427273 -41.217464 0.8839993 29 3201869597512 1 0
12.434035 -14.240853 -1.2116116 1 3201869597512 1 1
14.425966 -22.45638 -1.5544049 7 3201869599816 1 0
27.580793 -34.902462 2.5906749 25 3201869599816 1 0
31.911732 -44.72484 2.238412 39 3201869602120 1 0
19.327148 -24.465097 -1.4523294 9 3201869602120 1 0
17.72892 -24.85503 -1.6000148 15 3201869604424 1 0
31.503538 -39.890396 6.241173 28 3201869604424 1 0
12.640563 -14.494404 -0.78353375 17 3201869606728 1 1
16.97791 -26.462742 -1.0979382 47 3201869609032 1 0
9.582222 -12.140456 4.1442103 118 3201869609032 1 0
0 0 0 8 3201869606728 1 0
19.379835 -27.194618 6.0884967 29 3201869611336 1 0
19.781927 -25.070745 -0.74311775 54 3201869611336 1 0
0 0 0 4 3201869632072 1 0
18.603903 -26.186703 -0.9348534 39 3201869634376 1 0
3.6890917 -4.6894727 -1.6702889 1 3201869634376 1 0
4.8670754 -6.8530726 -1.6811174 3 3201869636680 1 0
28.56185 -36.31846 0 24 3201869636680 1 0
28.450258 -32.72828 -0.7569458 59 3201869632072 1 0
29.406736 -46.02848 -0.63588256 46 3201869638984 1 0
6.5198517 -8.293069 -1.6411942 6 3201869638984 1 0
0 0 0 36 3201869641288 1 0
28.43411 -32.750088 0.25207433 38 3201869641288 1 0
7.3833437 -9.397312 -1.2873065 3 3201869643592 1 0
9.599203 -15.0402 -1.6655577 2 3201869645896 1 0
29.482918 -37.536827 1.1106753 31 3201869645896 1 0
29.14842 -45.685642 0.63090014 28 3201869648200 1 0
13.898395 -17.700613 -1.573706 4 3201869648200 1 0
11.474324 -16.187792 -1.6198039 5 3201869650504 1 0
29.587471 -41.701015 -0.29717478 113 3201869643592 1 0
28.337069 -32.678616 1.2588056 36 3201869650504 1 0
29.414627 -41.511112 0.88804823 30 3201869652808 1 0
12.566345 -14.496118 -1.2295197 1 3201869652808 1 1
14.3565855 -22.524479 -1.5555676 7 3201869655112 1 0
27.567156 -35.141907 2.6011398 25 3201869655112 1 0
31.971256 -45.148357 2.2538807 41 3201869657416 1 0
19.271723 -24.574827 -1.4547491 9 3201869657416 1 0
17.644493 -24.924824 -1.6004336 15 3201869659720 1 0
31.495333 -40.174706 6.267984 14 3201869659720 1 0
0 0 0 8 3201869662024 1 0
12.65915 -14.621211 -0.78793013 16 3201869662024 1 1
16.861269 -26.48984 -1.0965422 50 3201869664328 1 0
9.612414 -12.269086 4.1763043 131 3201869664328 1 0
19.245462 -27.2128 6.077017 29 3201869666632 1 0
0 0 0 4 3201869687368 1 0
19.711277 -25.166979 -0.74386215 58 3201869666632 1 0
28.392818 -32.905006 -0.7586212 36 3201869687368 1 0
3.6885412 -4.7241616 -1.677837 2 3201869689672 1 0
18.469017 -26.198889 -0.9328752 39 3201869689672 1 0
4.8398657 -6.8675184 -1.6803329 5 3201869691976 1 0
28.42222 -36.412613 0 24 3201869691976 1 0
29.372602 -46.34413 -0.6387695 39 3201869694280 1 0
6.489775 -8.316627 -1.6411942 5 3201869694280 1 0
28.381083 -32.92818 0.2526555 23 3201869696584 1 0
29.575642 -42.00327 -0.29856962 76 3201869698888 1 0
7.339753 -9.411232 -1.2855929 3 3201869698888 1 0
9.568766 -15.111463 -1.6696472 3 3201869701192 1 0
29.476284 -37.806065 1.115514 23 3201869701192 1 0
6.683379 -9.488936 -1.4773382 44 3201869696584 1 0
29.11166 -45.988613 0.63364744 28 3201869703496 1 0
13.832779 -17.746878 -1.5734271 4 3201869703496 1 0
11.414511 -16.22515 -1.6194785 24 3201869705800 1 0
28.330484 -32.906235 1.2636929 36 3201869705800 1 0
29.375866 -41.768566 0.8913293 20 3201869708104 1 0
12.55149 -14.582797 -1.2331014 1 3201869708104 1 1
14.272947 -22.568123 -1.5551026 7 3201869710408 1 0
32.026546 -45.564236 2.269024 42 3201869712712 1 0
27.551252 -35.377342 2.6113722 13 3201869710408 1 0
19.15601 -24.604393 -1.4525156 9 3201869712712 1 0
17.566568 -24.999336 -1.6012709 10 3201869715016 1 0
31.591444 -40.588303 6.3152695 15 3201869715016 1 0
0 0 0 8 3201869717320 1 0
12.665571 -14.731801 -0.79151237 6 3201869717320 1 1
16.745987 -26.51087 -1.0950066 46 3201869719624 1 0
0 0 0 57 3201869719624 1 0
19.12441 -27.24033 6.0684075 29 3201869721928 1 0
19.646502 -25.263186 -0.74469966 58 3201869721928 1 0
0 0 0 4 3201869742664 1 0
28.395462 -33.129555 -0.761623 29 3201869742664 1 0
18.333696 -26.191338 -0.93043166 39 3201869744968 1 0
3.6728206 -4.736394 -1.677837 2 3201869744968 1 0
4.8147163 -6.8803864 -1.6795485 2 3201869747272 1 0
28.3547 -36.576622 0 24 3201869747272 1 0
29.368967 -46.682285 -0.6420756 39 3201869749576 1 0
6.4619784 -8.338243 -1.6411942 4 3201869749576 1 0
6.6470513 -9.504737 -1.476328 46 3201869751880 1 0
28.382627 -33.153595 0.25365517 23 3201869751880 1 0
0 0 0 95 3201869754184 1 0
9.494629 -15.106434 -1.6655577 17 3201869756488 1 0
0 0 0 87 3201869754184 1 0
29.85098 -38.553074 1.1345899 24 3201869756488 1 0
29.097092 -46.309895 0.63672066 28 3201869758792 1 0
13.777832 -17.799664 -1.5739851 4 3201869758792 1 0
11.364264 -16.27011 -1.6201293 31 3201869761096 1 0
28.323227 -33.123196 1.2683473 36 3201869761096 1 0
29.413048 -42.123436 0.8967745 30 3201869763400 1 0
12.631795 -14.776871 -1.2458929 1 3201869763400 1 1
32.192398 -41.627064 3.064624 60 3201869765704 1 0
14.207001 -22.633272 -1.5562654 10 3201869765704 1 0
32.061455 -45.944775 2.2825387 65 3201869768008 1 0
19.101665 -24.707241 -1.4547491 14 3201869768008 1 0
17.469957 -25.042597 -1.6002243 15 3201869770312 1 0
0 0 0 8 3201869772616 1 0
0 0 0 1 3201869770312 1 0
12.6957035 -14.869137 -0.79656005 1 3201869772616 1 1
16.296438 -25.995543 -1.0714146 61 3201869774920 1 0
0 0 0 9 3201869774920 1 0
19.001745 -27.263706 6.05908 29 3201869777224 1 0
19.579409 -25.355652 -0.74544406 58 3201869777224 1 0
0 0 0 4 3201869797960 1 0
28.388512 -33.356388 -0.76455504 22 3201869797960 1 0
18.196531 -26.189505 -0.9281044 39 3201869800264 1 0
3.6539152 -4.7461333 -1.6767588 1 3201869800264 1 0
4.7996206 -6.910037 -1.6826863 4 3201869802568 1 0
28.59036 -37.147686 0 16 3201869802568 1 0
29.349863 -47.015236 -0.645242 24 3201869804872 1 0
6.4352436 -8.363881 -1.6418092 5 3201869804872 1 0
28.380716 -33.386562 0.25467807 23 3201869807176 1 0
6.5979943 -9.505064 -1.4727925 44 3201869807176 1 0
7.253361 -9.432864 -1.2817374 62 3201869809480 1 0
29.56801 -42.608875 -0.3014291 28 3201869809480 1 0
9.431302 -15.122587 -1.6636988 27 3201869811784 1 0
29.50419 -38.381214 1.1264943 16 3201869811784 1 0
29.07281 -46.631798 0.6397474 28 3201869814088 1 0
13.7107525 -17.84132 -1.5734271 4 3201869814088 1 0
11.323301 -16.332613 -1.6224076 35 3201869816392 1 0
28.316122 -33.349873 1.2732345 36 3201869816392 1 0
29.386576 -42.400066 0.90047437 62 3201869818696 1 0
12.799708 -15.079555 -1.2676384 1 3201869818696 1 1
0 0 0 61 3201869821000 1 0
32.168488 -41.89755 3.076252 60 3201869821000 1 0
32.03515 -46.250256 2.2921455 44 3201869823304 1 0
0 0 0 24 3201869823304 1 0
0 0 0 1 3201869825608 1 0
17.39608 -25.12313 -1.6014802 10 3201869825608 1 0
0 0 0 8 3201869827912 1 0
12.703168 -14.983479 -0.8003051 1 3201869827912 1 1
16.184483 -26.018324 -1.0700185 48 3201869830216 1 0
9.926689 -12.944509 4.370936 3 3201869830216 1 0
18.886312 -27.300741 6.052623 29 3201869832520 1 0
19.519978 -25.461926 -0.7465607 54 3201869832520 1 0
0 0 0 4 3201869853256 1 0
28.377743 -33.580524 -0.7674172 52 3201869853256 1 0
18.066412 -26.196907 -0.92612624 33 3201869855560 1 0
3.6326478 -4.7527385 -1.6746022 2 3201869855560 1 0
4.771018 -6.92029 -1.6811174 3 3201869857864 1 0
28.433802 -37.2123 0 24 3201869857864 1 0
29.366703 -47.40982 -0.6492465 24 3201869860168 1 0
6.4108076 -8.392575 -1.643039 5 3201869860168 1 0
6.5602727 -9.5215025 -1.4717824 21 3201869862472 1 0
28.359463 -33.598522 0.25553823 23 3201869862472 1 0
18.035818 -26.185125 -0.1847956 17 3201869864776 1 0
7.196258 -9.426514 -1.2774535 61 3201869864776 1 0
9.384744 -15.165577 -1.6648141 40 3201869867080 1 0
29.445244 -38.582516 1.1293789 24 3201869867080 1 0
29.065569 -46.984707 0.6431931 28 3201869869384 1 0
13.655652 -17.898588 -1.574264 4 3201869869384 1 0
11.27978 -16.391745 -1.6243603 35 3201869871688 1 0
28.312931 -33.583015 1.2783544 42 3201869871688 1 0
29.326796 -42.63089 0.90319693 10 3201869873992 1 0
15.414729 -18.289375 -1.5329343 4 3201869873992 1 0
14.054944 -22.742094 -1.556963 35 3201869876296 1 0
32.087402 -42.09533 3.082531 40 3201869876296 1 0
32.020683 -46.57587 2.3027294 45 3201869878600 1 0
18.9384 -24.852705 -1.4554936 14 3201869878600 1 0
17.303753 -25.177116 -1.6010616 10 3201869880904 1 0
0 0 0 1 3201869880904 1 0
0 0 0 8 3201869883208 1 0
0 0 0 75 3201869883208 1 0
16.076765 -26.047445 -1.0689018 56 3201869885512 1 0
18.753033 -27.311354 6.040426 28 3201869887816 1 0
9.916552 -13.025192 4.386465 9 3201869885512 1 0
19.452776 -25.558546 -0.7473982 54 3201869887816 1 0
0 0 0 4 3201869908552 1 0
28.324621 -33.75597 -0.7691625 37 3201869908552 1 0
17.9455 -26.216919 -0.92461354 38 3201869910856 1 0
3.6276774 -4.780732 -1.6799936 1 3201869910856 1 0
4.7512627 -6.943376 -1.6826863 3 3201869913160 1 0
29.62609 -39.054516 0 18 3201869913160 1 0
29.356012 -47.764202 -0.65269226 32 3201869915464 1 0
6.3862495 -8.421201 -1.6442688 6 3201869915464 1 0
0 0 0 15 3201869917768 1 0
28.321657 -33.792343 0.2562589 24 3201869917768 1 0
7.146494 -9.42939 -1.2744548 65 3201869920072 1 0
17.935274 -26.234715 -0.18470262 12 3201869920072 1 0
9.329665 -15.194849 -1.6644424 42 3201869922376 1 0
29.416645 -38.825306 1.1334733 24 3201869922376 1 0
29.070864 -47.36199 0.64696485 28 3201869924680 1 0
13.59791 -17.952509 -1.5748222 4 3201869924680 1 0
11.240482 -16.457355 -1.626964 37 3201869926984 1 0
28.308458 -33.81654 1.2834743 37 3201869926984 1 0
29.385286 -43.03687 0.90961945 10 3201869929288 1 0
15.363603 -18.358377 -1.5342134 4 3201869929288 1 0
13.971298 -22.784208 -1.5564978 59 3201869931592 1 0
32.101715 -42.420425 3.098112 61 3201869931592 1 0
41.738323 -61.16698 3.016898 29 3201869933896 1 0
19.070906 -25.208635 -1.4724308 10 3201869933896 1 0
17.227018 -25.253864 -1.6021082 10 3201869936200 1 0
0 0 0 1 3201869936200 1 0
0 0 0 8 3201869938504 1 0
21.57211 -25.807579 -1.3703699 21 3201869938504 1 0
15.989921 -26.110224 -1.069181 35 3201869940808 1 0
9.854716 -13.038152 4.379218 3 3201869940808 1 0
18.635422 -27.34413 6.0332513 28 3201869943112 1 0
19.377907 -25.645435 -0.74795645 54 3201869943112 1 0
0 0 0 4 3201869964296 1 0
21.56841 -25.88721 -0.5881461 15 3201869964296 1 0
17.824665 -26.236406 -0.9231008 44 3201869966600 1 0
3.606332 -4.787213 -1.677837 2 3201869966600 1 0
4.7225895 -6.953429 -1.6811174 3 3201869968904 1 0
0 0 0 42 3201869968904 1 0
16.215708 -26.591677 -0.36259645 9 3201869971208 1 0
6.3591924 -8.446599 -1.6448838 6 3201869971208 1 0
6.4668994 -9.527672 -1.4657215 3 3201869973512 1 0
21.54859 -25.89404 0.19579175 14 3201869973512 1 0
25.755856 -37.95794 -0.2666041 23 3201869975816 1 0
7.1063623 -9.444744 -1.2731698 47 3201869975816 1 0
9.276568 -15.227324 -1.6644424 41 3201869978120 1 0
29.403534 -39.090736 1.1382189 24 3201869978120 1 0
29.065554 -47.726215 0.6505503 29 3201869980424 1 0
13.5279665 -17.990297 -1.5739851 4 3201869980424 1 0
11.189678 -16.506392 -1.6279404 37 3201869982728 1 0
28.302698 -34.050438 1.2885942 37 3201869982728 1 0
0 0 0 65 3201869985032 1 0
13.88753 -22.826015 -1.5560328 63 3201869987336 1 0
32.090164 -42.714203 3.111368 62 3201869987336 1 0
15.299426 -18.411896 -1.5342134 4 3201869985032 1 0
41.432667 -61.176624 3.010222 29 3201869989640 1 0
18.968397 -25.255882 -1.4713141 15 3201869989640 1 0
17.134281 -25.307228 -1.6016896 15 3201869991944 1 0
0 0 0 1 3201869991944 1 0
0 0 0 8 3201869994248 1 0
15.954728 -26.258121 -1.0729501 45 3201869996552 1 0
21.474234 -25.873495 -1.3698814 32 3201869994248 1 0
9.725662 -12.961217 4.3419485 4 3201869996552 1 0
18.513403 -27.369898 6.0246415 28 3201869998856 1 0
19.312265 -25.744911 -0.748887 54 3201869998856 1 0
0 0 0 4 3201870019592 1 0
28.307512 -34.217903 -0.7751661 22 3201870019592 1 0
17.712666 -26.268759 -0.9220536 44 3201870021896 1 0
3.5941787 -4.805968 -1.6799936 2 3201870021896 1 0
4.702572 -6.9764447 -1.6826863 2 3201870024200 1 0
0 0 0 103 3201870024200 1 0
16.130486 -26.662159 -0.36278272 9 3201870026504 1 0
6.331851 -8.472049 -1.6454986 7 3201870026504 1 0
6.4288907 -9.543793 -1.4647114 3 3201870028808 1 0
25.54809 -37.939056 -0.26583692 69 3201870031112 1 0
21.375788 -25.87105 0.19504783 19 3201870028808 1 0
0 0 0 8 3201870031112 1 0
9.226812 -15.266831 -1.6651859 32 3201870033416 1 0
29.072153 -48.119846 0.65450823 29 3201870035720 1 0
29.401567 -39.377056 1.143523 24 3201870033416 1 0
13.473716 -18.050884 -1.5751011 4 3201870035720 1 0
11.133255 -16.549307 -1.6282659 35 3201870038024 1 0
28.28602 -34.277103 1.2933651 38 3201870038024 1 0
29.329025 -43.611248 0.9173683 32 3201870040328 1 0
15.246556 -18.48158 -1.5354927 4 3201870040328 1 0
13.797852 -22.861681 -1.5551026 56 3201870042632 1 0
32.07621 -43.013947 3.124856 63 3201870042632 1 0
41.100266 -61.155003 3.0019176 29 3201870044936 1 0
18.875708 -25.320246 -1.471128 15 3201870044936 1 0
17.045853 -25.371687 -1.6018989 15 3201870047240 1 0
0 0 0 1 3201870047240 1 0
0 0 0 8 3201870049544 1 0
21.383877 -25.953403 -1.3700442 16 3201870049544 1 0
15.920136 -26.414558 -1.0769985 27 3201870051848 1 0
9.672113 -12.986776 4.3388424 4 3201870051848 1 0
18.388443 -27.397156 6.0160317 28 3201870054152 1 0
19.245735 -25.849546 -0.7499106 54 3201870054152 1 0
28.316422 -34.485245 -0.778866 15 3201870074888 1 0
0 0 0 4 3201870074888 1 0
17.601088 -26.309984 -0.921239 44 3201870077192 1 0
3.569723 -4.8097773 -1.6767588 2 3201870077192 1 0
4.679354 -6.996758 -1.6834708 2 3201870079496 1 0
29.583399 -39.871624 0 111 3201870079496 1 0
18.956171 -31.590504 -0.42890406 34 3201870081800 1 0
6.303482 -8.498099 -1.6461135 7 3201870081800 1 0
6.3789897 -9.543827 -1.4611759 3 3201870084104 1 0
28.298653 -34.50247 0.25935084 16 3201870084104 1 0
29.52727 -44.189987 -0.3088916 19 3201870086408 1 0
0 0 0 4 3201870086408 1 0
9.176226 -15.306579 -1.6659294 23 3201870088712 1 0
29.391447 -39.658703 1.1486408 24 3201870088712 1 0
18.93871 -31.600975 0.42890406 24 3201870091016 1 0
13.411683 -18.101988 -1.5753802 4 3201870091016 1 0
11.078881 -16.595343 -1.6289167 33 3201870093320 1 0
28.28329 -34.522636 1.2988342 38 3201870093320 1 0
29.316795 -43.927532 0.92183614 32 3201870095624 1 0
15.168495 -18.51991 -1.5342134 4 3201870095624 1 0
13.709093 -22.8964 -1.5541723 38 3201870097928 1 0
32.062412 -43.312733 3.1383443 64 3201870097928 1 0
40.843517 -61.235516 2.998824 29 3201870100232 1 0
18.760695 -25.350924 -1.4690807 14 3201870100232 1 0
16.957186 -25.431034 -1.6018989 15 3201870102536 1 0
0 0 0 1 3201870102536 1 0
0 0 0 8 3201870104840 1 0
21.860413 -26.720493 -1.406518 11 3201870104840 1 0
15.812192 -26.442062 -1.0758817 22 3201870107144 1 0
9.611022 -12.998432 4.3315954 4 3201870107144 1 0
18.265532 -27.417805 6.0067043 28 3201870109448 1 0
19.189795 -25.960752 -0.7512133 54 3201870109448 1 0
0 0 0 4 3201870130184 1 0
20.120749 -24.670475 -0.5556846 45 3201870130184 1 0
17.493643 -26.338358 -0.92019176 44 3201870132488 1 0
3.5605745 -4.8309164 -1.6799936 2 3201870132488 1 0
4.6560245 -7.012305 -1.6834708 3 3201870134792 1 0
29.580936 -40.14705 0 114 3201870134792 1 0
6.282113 -8.52864 -1.6479583 5 3201870137096 1 0
18.830154 -31.619238 -0.42843843 65 3201870137096 1 0
0 0 0 36 3201870139400 1 0
20.093958 -24.666912 0.18491185 45 3201870139400 1 0
29.40328 -44.325394 -0.3091473 29 3201870141704 1 0
6.983493 -9.486615 -1.2688859 1 3201870141704 1 0
9.124747 -15.337321 -1.6659294 16 3201870144008 1 0
29.38366 -39.92793 1.1535726 25 3201870144008 1 0
18.811756 -31.630186 0.42843843 78 3201870146312 1 0
13.357751 -18.156685 -1.5762173 4 3201870146312 1 0
0 0 0 104 3201870148616 1 0
29.316078 -44.2498 0.9265134 33 3201870150920 1 0
29.620142 -36.404285 1.3658588 14 3201870148616 1 0
15.118376 -18.586582 -1.5354927 4 3201870150920 1 0
13.633462 -22.94616 -1.5544049 21 3201870153224 1 0
32.078632 -43.64315 3.1543908 64 3201870153224 1 0
40.520584 -61.200584 2.990357 29 3201870155528 1 0
18.577488 -25.282476 -1.4614495 14 3201870155528 1 0
16.866125 -25.481936 -1.6014802 15 3201870157832 1 0
0 0 0 1 3201870157832 1 0
0 0 0 8 3201870160136 1 0
20.095764 -24.735182 -1.2983994 14 3201870160136 1 0
15.823719 -26.667849 -1.0828615 36 3201870162440 1 0
18.145468 -27.440817 5.9980946 28 3201870164744 1 0
9.550532 -13.009404 4.3243484 4 3201870162440 1 0
19.114958 -26.045673 -0.7517716 58 3201870164744 1 0
0 0 0 7 3201870185480 1 0
0 0 0 4 3201870185480 1 0
17.372992 -26.355865 -0.91867906 44 3201870187784 1 0
4.633677 -7.03179 -1.6842552 4 3201870190088 1 0
3.5482388 -4.849533 -1.6821502 1 3201870187784 1 0
29.551605 -40.401802 0 111 3201870190088 1 0
18.701357 -31.653782 -0.42801934 58 3201870192392 1 0
6.2499714 -8.547325 -1.6473434 6 3201870192392 1 0
6.309236 -9.580582 -1.4601657 43 3201870194696 1 0
29.47492 -44.771877 -0.31154183 29 3201870197000 1 0
0 0 0 1 3201870194696 1 0
6.931564 -9.485247 -1.2654587 1 3201870197000 1 0
9.06913 -15.36565 -1.6655577 8 3201870199304 1 0
18.670744 -31.643988 0.42773995 73 3201870201608 1 0
13.2942915 -18.203203 -1.5762173 4 3201870201608 1 0
29.369131 -40.201393 1.1585044 25 3201870199304 1 0
0 0 0 13 3201870203912 1 0
29.61098 -36.653633 1.3713278 35 3201870203912 1 0
29.306456 -44.57242 0.9311208 33 3201870206216 1 0
15.050897 -18.636137 -1.5352368 4 3201870206216 1 0
13.547198 -22.98329 -1.5537072 14 3201870208520 1 0
31.977877 -43.82583 3.159507 21 3201870208520 1 0
40.15527 -61.111187 2.9791217 29 3201870210824 1 0
18.477348 -25.33103 -1.460519 14 3201870210824 1 0
16.814356 -25.597412 -1.6050391 15 3201870213128 1 0
0 0 0 1 3201870213128 1 0
0 0 0 8 3201870215432 1 0
21.672977 -26.86761 -1.4063551 16 3201870215432 1 0
15.612915 -26.52311 -1.0747648 40 3201870217736 1 0
9.486858 -13.017683 4.3160663 4 3201870217736 1 0
18.023663 -27.46451 5.9894853 28 3201870220040 1 0
19.030989 -26.121935 -0.7520508 58 3201870220040 1 0
0 0 0 4 3201870240776 1 0
28.651482 -35.635254 -0.79813343 7 3201870240776 1 0
17.248055 -26.366158 -0.91693366 44 3201870243080 1 0
3.517707 -4.8431897 -1.6756804 1 3201870243080 1 0
4.61125 -7.051204 -1.6850398 3 3201870245384 1 0
29.534958 -40.676258 0 107 3201870245384 1 0
18.56648 -31.67746 -0.42746058 46 3201870247688 1 0
6.2224193 -8.5722885 -1.6479583 6 3201870247688 1 0
19.956326 -24.850254 0.18523732 9 3201870249992 1 0
6.254047 -9.569332 -1.455115 41 3201870249992 1 0
29.43441 -45.051964 -0.31277394 29 3201870252296 1 0
0 0 0 57 3201870252296 1 0
9.0275135 -15.417834 -1.6677884 5 3201870254600 1 0
29.348354 -40.468765 1.1632501 17 3201870254600 1 0
18.533905 -31.664093 0.42713463 66 3201870256904 1 0
13.228327 -18.246267 -1.5759382 4 3201870256904 1 0
10.947838 -16.772612 -1.6351005 24 3201870259208 1 0
29.582924 -36.88153 1.3759823 21 3201870259208 1 0
29.279636 -44.872063 0.93523955 22 3201870261512 1 0
15.000736 -18.707245 -1.5367718 4 3201870261512 1 0
0 0 0 38 3201870263816 1 0
39.87185 -61.143852 2.973911 29 3201870266120 1 0
36.273037 -50.07856 3.601131 28 3201870263816 1 0
18.438026 -25.463335 -1.4644275 34 3201870266120 1 0
16.700907 -25.619139 -1.6027364 15 3201870268424 1 0
22.674784 -31.323984 4.7480297 7 3201870268424 1 0
0 0 0 8 3201870270728 1 0
15.467825 -26.487694 -1.0711354 56 3201870273032 1 0
21.59655 -26.964937 -1.4074949 16 3201870270728 1 0
9.436831 -13.044457 4.313996 4 3201870273032 1 0
17.910503 -27.500877 5.983745 28 3201870275336 1 0
18.958439 -26.214128 -0.7527952 49 3201870275336 1 0
0 0 0 4 3201870296072 1 0
28.838808 -36.12575 -0.8068597 15 3201870296072 1 0
17.13632 -26.39602 -0.9158864 49 3201870298376 1 0
4.5802026 -7.057387 -1.6826863 3 3201870300680 1 0
29.596275 -41.061417 0 81 3201870300680 1 0
3.5030327 -4.858564 -1.6767588 1 3201870298376 1 0
18.429657 -31.697126 -0.42685524 54 3201870302984 1 0
6.1924586 -8.593957 -1.6479583 6 3201870302984 1 0
6.211969 -9.577787 -1.4530947 37 3201870305288 1 0
29.59971 -37.12319 0.27594966 19 3201870305288 1 0
29.472816 -45.456493 -0.31486624 30 3201870307592 1 0
6.8628516 -9.530179 -1.2650304 33 3201870307592 1 0
8.985642 -15.469915 -1.670019 3 3201870309896 1 0
29.363451 -40.788406 1.1694846 25 3201870309896 1 0
18.40117 -31.690548 0.42662242 61 3201870312200 1 0
13.176209 -18.308525 -1.5773333 4 3201870312200 1 0
10.882722 -16.800686 -1.634124 37 3201870314504 1 0
29.573563 -37.134697 1.3815676 29 3201870314504 1 0
29.253256 -45.175415 0.93942815 34 3201870316808 1 0
14.940317 -18.76574 -1.5372834 4 3201870316808 1 0
13.466562 -23.215473 -1.5630094 73 3201870319112 1 0
36.230885 -50.389675 3.6143866 28 3201870319112 1 0
38.029636 -58.766125 2.8517892 29 3201870321416 1 0
18.386343 -25.579453 -1.4674056 19 3201870321416 1 0
16.600529 -25.660511 -1.6016896 15 3201870323720 1 0
0 0 0 1 3201870323720 1 0
0 0 0 8 3201870326024 1 0
21.509754 -27.049543 -1.4079834 11 3201870326024 1 0
15.455423 -26.679888 -1.0767193 40 3201870328328 1 0
9.564776 -13.318969 4.393712 3 3201870328328 1 0
17.780222 -27.510351 5.9722657 28 3201870330632 1 0
18.82484 -26.221674 -0.75112027 40 3201870330632 1 0
0 0 0 4 3201870351368 1 0
0 0 0 50 3201870351368 1 0
17.028917 -26.43215 -0.91507185 44 3201870353672 1 0
3.4927773 -4.880159 -1.6799936 1 3201870353672 1 0
4.566159 -7.08982 -1.6866087 4 3201870355976 1 0
29.5319 -41.27508 0 113 3201870355976 1 0
6.162422 -8.6155205 -1.6479583 6 3201870358280 1 0
18.298918 -31.726616 -0.4263896 54 3201870358280 1 0
6.1699085 -9.586067 -1.4510745 37 3201870360584 1 0
29.608978 -37.401913 0.27725154 29 3201870360584 1 0
29.456812 -45.781105 -0.3164006 30 3201870362888 1 0
6.8110414 -9.528193 -1.2616032 38 3201870362888 1 0
8.949482 -15.532245 -1.673365 2 3201870365192 1 0
18.270475 -31.719927 0.42615676 71 3201870367496 1 0
29.32087 -41.03056 1.1734859 25 3201870365192 1 0
13.112221 -18.354406 -1.5773333 4 3201870367496 1 0
10.821855 -16.835218 -1.6337986 37 3201870369800 1 0
29.577671 -37.407066 1.3878512 21 3201870369800 1 0
29.216463 -45.465668 0.9433375 34 3201870372104 1 0
14.86977 -18.811514 -1.5367718 4 3201870372104 1 0
0 0 0 36 3201870374408 1 0
36.24268 -50.77911 3.6332238 28 3201870374408 1 0
36.25636 -56.45702 2.7335753 29 3201870376712 1 0
18.204111 -25.513372 -1.4599606 43 3201870376712 1 0
16.478487 -25.667881 -1.5985495 20 3201870379016 1 0
22.978897 -32.215225 4.858687 7 3201870379016 1 0
0 0 0 8 3201870381320 1 0
21.415203 -27.12446 -1.4079834 11 3201870381320 1 0
15.220786 -26.487585 -1.0668079 39 3201870383624 1 0
9.5114975 -13.342836 4.3906064 3 3201870383624 1 0
17.664965 -27.542437 5.9658084 28 3201870385928 1 0
18.686779 -26.222094 -0.74925923 45 3201870385928 1 0
0 0 0 4 3201870406664 1 0
28.603216 -36.3482 -0.8073483 39 3201870406664 1 0
16.921473 -26.46785 -0.9142573 48 3201870408968 1 0
3.4712594 -4.886041 -1.677837 1 3201870408968 1 0
4.541383 -7.1057153 -1.6866087 3 3201870411272 1 0
29.538195 -41.589893 0 115 3201870411272 1 0
18.170183 -31.759052 -0.42597052 50 3201870413576 1 0
6.1364093 -9.607546 -1.4510745 19 3201870415880 1 0
6.134599 -8.640202 -1.6485732 6 3201870413576 1 0
29.58947 -37.646557 0.27829766 19 3201870415880 1 0
6.759329 -9.525963 -1.2581761 39 3201870418184 1 0
29.393694 -46.035362 -0.31744674 30 3201870418184 1 0
8.907067 -15.584136 -1.6755956 2 3201870420488 1 0
29.330168 -41.347927 1.1796273 26 3201870420488 1 0
18.143766 -31.755728 0.42578426 66 3201870422792 1 0
13.052688 -18.406574 -1.5778915 4 3201870422792 1 0
29.55555 -37.64846 1.3929712 29 3201870425096 1 0
10.75659 -16.862808 -1.6328223 30 3201870425096 1 0
29.188751 -45.773075 0.94759583 34 3201870427400 1 0
14.875484 -18.95437 -1.5441909 4 3201870427400 1 0
13.327915 -23.350536 -1.5658001 7 3201870429704 1 0
36.185246 -51.074745 3.6453166 28 3201870429704 1 0
44.180305 -69.326935 3.3492322 29 3201870432008 1 0
18.131107 -25.599586 -1.4612634 24 3201870432008 1 0
23.382502 -33.024292 4.9683695 8 3201870434312 1 0
16.403812 -25.748827 -1.6000148 40 3201870434312 1 0
0 0 0 8 3201870436616 1 0
15.278686 -26.804502 -1.0774173 40 3201870438920 1 0
21.300667 -27.173885 -1.4066808 11 3201870436616 1 0
9.571989 -13.527347 4.4402995 4 3201870438920 1 0
17.5497 -27.574053 5.959351 28 3201870441224 1 0
18.553564 -26.228397 -0.7475843 45 3201870441224 1 0
0 0 0 4 3201870461960 1 0
28.582039 -36.583344 -0.8103501 32 3201870461960 1 0
16.443624 -25.91892 -0.8933121 41 3201870464264 1 0
3.4564383 -4.9012513 -1.6789154 2 3201870464264 1 0
4.516655 -7.121459 -1.6866087 3 3201870466568 1 0
29.522514 -41.875397 0 115 3201870466568 1 0
18.190203 -32.051476 -0.42904377 11 3201870468872 1 0
0 0 0 15 3201870471176 1 0
6.1114216 -8.671121 -1.6504179 6 3201870468872 1 0
29.63616 -37.9758 0.2799715 29 3201870471176 1 0
29.433605 -46.450844 -0.31960875 30 3201870473480 1 0
6.7286735 -9.552506 -1.2586045 14 3201870473480 1 0
8.878833 -15.659786 -1.6804287 2 3201870475784 1 0
29.309494 -41.62207 1.1845591 26 3201870475784 1 0
18.135014 -31.99541 0.42815903 19 3201870478088 1 0
12.993891 -18.45789 -1.5784495 4 3201870478088 1 0
10.70291 -16.906366 -1.6334732 16 3201870480392 1 0
29.558886 -37.91997 1.3992547 22 3201870480392 1 0
29.175097 -46.09921 0.95227313 35 3201870482696 1 0
14.812928 -19.00836 -1.5444467 4 3201870482696 1 0
13.287379 -23.46545 -1.5704513 7 3201870485000 1 0
36.12763 -51.364704 3.657177 28 3201870485000 1 0
37.76513 -59.70872 2.8783305 29 3201870487304 1 0
18.082762 -25.716843 -1.4644275 14 3201870487304 1 0
16.322489 -25.814634 -1.6006429 30 3201870489608 1 0
23.126133 -32.899055 4.9376583 7 3201870489608 1 0
0 0 0 8 3201870491912 1 0
21.205803 -27.242914 -1.406518 11 3201870491912 1 0
15.093306 -26.6891 -1.0707165 30 3201870494216 1 0
9.641586 -13.724105 4.494134 3 3201870494216 1 0
17.431135 -27.593317 5.9507413 28 3201870496520 1 0
0 0 0 4 3201870517256 1 0
18.427992 -26.238628 -0.7460954 40 3201870496520 1 0
28.617483 -36.880146 -0.81481797 56 3201870517256 1 0
16.363787 -25.983576 -0.8936612 51 3201870519560 1 0
3.44234 -4.9158664 -1.6799936 1 3201870519560 1 0
4.4887314 -7.129824 -1.6850398 5 3201870521864 1 0
29.51134 -42.156998 0 115 3201870521864 1 0
18.26956 -32.443104 -0.43346736 11 3201870524168 1 0
6.080178 -8.688234 -1.649803 6 3201870524168 1 0
6.051853 -9.618865 -1.4465288 3 3201870526472 1 0
29.638823 -38.242287 0.28120363 30 3201870526472 1 0
29.35012 -46.66438 -0.32039917 30 3201870528776 1 0
0 0 0 4 3201870528776 1 0
8.847649 -15.727711 -1.6845183 2 3201870531080 1 0
29.30239 -41.910393 1.1899562 26 3201870531080 1 0
18.215393 -32.390972 0.43262923 14 3201870533384 1 0
12.929383 -18.498264 -1.5781704 4 3201870533384 1 0
10.652166 -16.952513 -1.6344495 9 3201870535688 1 0
29.602087 -38.240818 1.4074 15 3201870535688 1 0
29.167955 -46.43467 0.95715976 35 3201870537992 1 0
13.203871 -23.503382 -1.5699861 7 3201870540296 1 0
14.755895 -19.067812 -1.5452142 4 3201870537992 1 0
36.136253 -51.74876 3.6757815 28 3201870540296 1 0
41.072495 -65.42865 3.147324 29 3201870542600 1 0
18.02048 -25.814144 -1.4664749 9 3201870542600 1 0
16.234537 -25.870037 -1.6006429 20 3201870544904 1 0
23.043568 -33.019897 4.9439955 24 3201870544904 1 0
0 0 0 8 3201870547208 1 0
15.0939245 -26.904392 -1.0772777 54 3201870549512 1 0
21.09321 -27.289783 -1.4052153 16 3201870547208 1 0
9.510633 -13.636555 4.4547935 1 3201870549512 1 0
17.315619 -27.61952 5.943567 28 3201870551816 1 0
18.287695 -26.229427 -0.7440483 40 3201870551816 1 0
0 0 0 4 3201870572552 1 0
28.547152 -37.05585 -0.8164934 32 3201870572552 1 0
16.23061 -25.972725 -0.89133394 46 3201870574856 1 0
3.4185638 -4.9183636 -1.6767588 2 3201870574856 1 0
4.4658947 -7.148776 -1.6858243 4 3201870577160 1 0
0 0 0 42 3201870577160 1 0
21.243673 -38.034454 -0.5071787 5 3201870579464 1 0
6.0475583 -8.706159 -1.649188 7 3201870579464 1 0
6.009835 -9.626468 -1.4445084 3 3201870581768 1 0
29.666142 -38.55474 0.28273797 30 3201870581768 1 0
29.426361 -47.149986 -0.32302615 30 3201870584072 1 0
6.642736 -9.568925 -1.2547491 1 3201870584072 1 0
8.784933 -15.744587 -1.6830312 2 3201870586376 1 0
29.294994 -42.212826 1.1956323 27 3201870586376 1 0
29.016932 -52.022686 0.6934826 10 3201870588680 1 0
12.876105 -18.559677 -1.5795656 4 3201870588680 1 0
10.614018 -17.023422 -1.6377041 3 3201870590984 1 0
0 0 0 13 3201870590984 1 0
29.153776 -46.77379 0.96204644 36 3201870593288 1 0
14.689246 -19.119204 -1.5452142 4 3201870593288 1 0
13.178115 -23.650488 -1.5767303 7 3201870595592 1 0
36.05321 -52.01571 3.6857815 28 3201870595592 1 0
40.81216 -65.52074 3.1448817 29 3201870597896 1 0
17.930262 -25.87689 -1.4664749 9 3201870597896 1 0
16.118797 -25.885859 -1.5981307 35 3201870600200 1 0
23.027637 -33.243732 4.9654446 16 3201870600200 1 0
20.983223 -27.344221 -1.4042383 16 3201870602504 1 0
0 0 0 8 3201870602504 1 0
0 0 0 9 3201870604808 1 0
14.966875 -26.897532 -1.0749044 45 3201870604808 1 0
17.194159 -27.639698 5.934957 28 3201870607112 1 0
18.159616 -26.240492 -0.74255943 40 3201870607112 1 0
0 0 0 4 3201870627296 1 0
28.526087 -37.32407 -0.81998384 24 3201870627296 1 0
16.116022 -26.011063 -0.89051944 46 3201870629600 1 0
3.40184 -4.934625 -1.677837 2 3201870629600 1 0
4.440478 -7.1692057 -1.6866087 3 3201870631904 1 0
0 0 0 11 3201870631904 1 0
21.002563 -37.94427 -0.50489706 45 3201870634208 1 0
6.0208116 -8.739079 -1.6510328 7 3201870634208 1 0
5.960297 -9.62923 -1.441478 3 3201870636512 1 0
29.656227 -38.849594 0.2840631 30 3201870636512 1 0
29.40506 -47.521137 -0.32479298 30 3201870638816 1 0
6.5969234 -9.581258 -1.2530354 2 3201870638816 1 0
8.735976 -15.799115 -1.6852618 2 3201870641120 1 0
28.973696 -52.417263 0.6972543 31 3201870643424 1 0
29.261929 -42.51276 1.2009363 27 3201870641120 1 0
12.870343 -18.70431 -1.5876573 4 3201870643424 1 0
10.556961 -17.077616 -1.6390059 3 3201870645728 1 0
29.500368 -38.69207 1.4160109 22 3201870645728 1 0
29.123238 -47.126938 0.9670029 36 3201870648032 1 0
14.620565 -19.181816 -1.5457258 4 3201870648032 1 0
13.087206 -23.700914 -1.5767303 7 3201870650336 1 0
0 0 0 3 3201870650336 1 0
40.461575 -65.517136 3.1372287 29 3201870652640 1 0
17.830769 -25.945547 -1.4664749 14 3201870652640 1 0
22.924551 -33.367905 4.9708066 16 3201870654944 1 0
16.033972 -25.971352 -1.5995961 30 3201870654944 1 0
0 0 0 8 3201870657248 1 0
19.829813 -26.047636 -1.3337333 15 3201870657248 1 0
14.633778 -26.538227 -1.0582924 42 3201870659552 1 0
0 0 0 9 3201870659552 1 0
17.067245 -27.672022 5.927782 28 3201870661856 1 0
18.011204 -26.240788 -0.74060535 35 3201870661856 1 0
0 0 0 4 3201870682592 1 0
15.960215 -25.961569 -0.8869122 51 3201870684896 1 0
3.3824189 -4.9432907 -1.6767588 2 3201870684896 1 0
4.4133716 -7.18132 -1.6858243 3 3201870687200 1 0
17.940187 -26.22716 0 78 3201870687200 1 0
17.120586 -31.187344 -0.41418973 26 3201870689504 1 0
19.837776 -26.14478 -0.5728578 28 3201870682592 1 0
5.988039 -8.756781 -1.6504179 7 3201870689504 1 0
0 0 0 29 3201870691808 1 0
19.815582 -26.147106 0.19067727 19 3201870691808 1 0
29.383408 -47.858692 -0.32639706 30 3201870694112 1 0
6.5611944 -9.600944 -1.2526071 2 3201870694112 1 0
8.688435 -15.843481 -1.686749 2 3201870696416 1 0
29.255468 -42.822662 1.2067987 27 3201870696416 1 0
12.804975 -18.749123 -1.5876573 4 3201870698720 1 0
28.880915 -52.682926 0.69944286 10 3201870698720 1 0
10.511875 -17.138151 -1.6412841 3 3201870701024 1 0
29.490608 -38.960587 1.4220617 22 3201870701024 1 0
29.129984 -47.50789 0.9727273 37 3201870703328 1 0
13.006313 -23.749956 -1.5769628 7 3201870705632 1 0
14.558336 -19.2391 -1.5462375 4 3201870703328 1 0
0 0 0 3 3201870705632 1 0
40.136578 -65.50122 3.1297386 58 3201870707936 1 0
17.753603 -26.027435 -1.4675916 14 3201870707936 1 0
15.932785 -26.010132 -1.5985495 35 3201870710240 1 0
22.810173 -33.451 4.9712944 8 3201870710240 1 0
19.72913 -26.103943 -1.3330821 20 3201870712544 1 0
0 0 0 8 3201870712544 1 0
14.730944 -26.936375 -1.0721126 39 3201870714848 1 0
0 0 0 9 3201870714848 1 0
16.952063 -27.701221 5.9213247 28 3201870717152 1 0
17.88122 -26.247316 -0.73902345 43 3201870717152 1 0
0 0 0 4 3201870737888 1 0
29.27789 -38.867184 -0.8493737 25 3201870737888 1 0
3.3695073 -4.961416 -1.6789154 2 3201870740192 1 0
15.86552 -26.01018 -0.8866795 46 3201870740192 1 0
4.392466 -7.203316 -1.6873932 3 3201870742496 1 0
0 0 0 11 3201870742496 1 0
16.884157 -31.011185 -0.41106993 36 3201870744800 1 0
5.9620667 -8.78404 -1.6516477 7 3201870744800 1 0
5.88082 -9.650104 -1.4384476 51 3201870747104 1 0
0 0 0 81 3201870747104 1 0
16.211363 -26.610233 -0.18109924 49 3201870749408 1 0
6.512363 -9.6005125 -1.2496084 15 3201870749408 1 0
8.631866 -15.869838 -1.6863772 2 3201870751712 1 0
29.24235 -43.121834 1.2123818 27 3201870751712 1 0
18.363037 -33.771877 0.4475298 5 3201870754016 1 0
12.735928 -18.786451 -1.5870993 4 3201870754016 1 0
10.459206 -17.18435 -1.6422606 3 3201870756320 1 0
29.488823 -39.237377 1.4284616 22 3201870756320 1 0
29.139635 -47.89097 0.9785215 37 3201870758624 1 0
14.504342 -19.30481 -1.5475166 4 3201870758624 1 0
0 0 0 3 3201870760928 1 0
12.942216 -23.825851 -1.5790558 7 3201870760928 1 0
39.81742 -65.480644 3.1222484 58 3201870763232 1 0
17.67593 -26.104378 -1.4685223 9 3201870763232 1 0
15.775698 -25.951567 -1.5916411 39 3201870765536 1 0
22.680614 -33.505424 4.9678817 8 3201870765536 1 0
19.64996 -26.18358 -1.3337333 15 3201870767840 1 0
0 0 0 8 3201870767840 1 0
14.439425 -26.61719 -1.0574547 42 3201870770144 1 0
0 0 0 9 3201870770144 1 0
16.837866 -27.724752 5.91415 27 3201870772448 1 0
17.774439 -26.281134 -0.73827904 48 3201870772448 1 0
0 0 0 4 3201870793184 1 0
29.347687 -39.229862 -0.8551679 17 3201870793184 1 0
15.793486 -26.086706 -0.887494 41 3201870795488 1 0
3.3551533 -4.9757805 -1.6799936 2 3201870795488 1 0
25.640234 -38.03707 0 15 3201870797792 1 0
4.3664193 -7.2145505 -1.6866087 3 3201870797792 1 0
16.676004 -30.873816 -0.4085089 58 3201870800096 1 0
5.9349213 -8.80717 -1.6522627 7 3201870800096 1 0
5.8341303 -9.645955 -1.4349121 52 3201870802400 1 0
29.594585 -39.607918 0.28736427 101 3201870802400 1 0
0 0 0 19 3201870804704 1 0
6.489027 -9.635486 -1.2513219 27 3201870804704 1 0
8.582282 -15.905759 -1.6871207 2 3201870807008 1 0
29.231302 -43.41887 1.217965 28 3201870807008 1 0
18.29859 -33.92504 0.44874048 5 3201870809312 1 0
12.683741 -18.84578 -1.5884944 4 3201870809312 1 0
10.413528 -17.240019 -1.6442133 3 3201870811616 1 0
29.482998 -39.50649 1.4346287 23 3201870811616 1 0
29.144974 -48.26655 0.9841761 37 3201870813920 1 0
14.441365 -19.356945 -1.5477724 4 3201870813920 1 0
12.8614 -23.869574 -1.5790558 7 3201870816224 1 0
