# .PCD v.7 - Point Cloud Data file format
VERSION .7
FIELDS x y z rgb timestamp_ns device_id active
SIZE 4 4 4 4 8 1 1
TYPE F F F F F U U
COUNT 1 1 1 1 1 1 1
WIDTH 980
HEIGHT 1
VIEWPOINT 0 0 0 1 0 0 0
POINTS 980               
DATA ascii
5.5822463 -17.925283 -1.7525533 5 3205373754304 1 0
10.373515 -33.328568 0.40636694 67 3205373756608 1 0
9.223432 -21.846888 -1.6582509 7 3205373756608 1 0
7.1764827 -19.631891 -1.7063757 4 3205373758912 1 0
15.3945465 -32.016098 1.0338776 21 3205373758912 1 0
12.052315 -32.985775 0.6129983 97 3205373761216 1 0
10.903109 -22.684109 -1.6130091 45 3205373761216 1 0
8.470322 -27.257895 -1.6623108 34 3205373763520 1 0
21.62263 -51.28154 3.2411342 46 3205373763520 1 0
18.934402 -51.870388 2.2496471 60 3205373765824 1 0
11.374974 -26.989092 -1.3642925 43 3205373765824 1 0
9.946899 -27.26224 -1.5208828 31 3205373768128 1 0
15.346004 -36.42659 4.853325 7 3205373768128 1 0
15.053744 -41.278545 3.5868714 37 3205373770432 1 0
11.964269 -24.930864 -1.1266147 3 3205373770432 1 1
8.511376 -27.44917 -1.00357 36 3205373772736 1 0
0 0 0 9 3205373772736 1 0
10.568023 -29.005865 5.628595 30 3205373775040 1 0
11.366174 -27.014309 -0.6819822 69 3205373775040 1 0
0 0 0 4 3205373795776 1 0
9.860084 -27.191217 -0.8417637 50 3205373798080 1 0
11.977 -25.065254 -0.48489767 63 3205373795776 1 1
2.3368537 -5.5777674 -1.6929333 3 3205373798080 1 0
2.9190907 -8.05365 -1.7132807 4 3205373800384 1 0
13.847426 -33.06551 0 35 3205373800384 1 0
4.14982 -9.913173 -1.6719397 10 3205373802688 1 0
10.279461 -33.38281 -0.4066463 32 3205373802688 1 0
3.6681142 -10.129371 -1.3712729 0 3205373804992 1 0
15.305561 -32.07917 0.20657866 42 3205373804992 1 0
15.65866 -43.2605 -0.2673945 7 3205373807296 1 0
5.9467278 -14.217272 -1.6600043 43 3205373807296 1 0
5.524315 -17.968224 -1.754784 4 3205373809600 1 0
13.603859 -32.53702 0.82063055 10 3205373809600 1 0
10.249464 -33.354374 0.40622723 54 3205373811904 1 0
9.149027 -21.891127 -1.659088 7 3205373811904 1 0
7.124597 -19.71014 -1.7109321 4 3205373814208 1 0
15.265207 -32.04254 1.0329467 56 3205373814208 1 0
11.9294195 -33.017662 0.6127889 97 3205373816512 1 0
10.841977 -22.766459 -1.6160791 35 3205373816512 1 0
8.385228 -27.330141 -1.664869 50 3205373818816 1 0
21.421343 -51.31835 3.238576 46 3205373818816 1 0
18.721176 -51.862755 2.2463906 40 3205373821120 1 0
9.845226 -27.286383 -1.5202549 31 3205373823424 1 0
11.484316 -27.52383 -1.3892332 31 3205373821120 1 0
15.2140465 -36.4776 4.852837 7 3205373823424 1 0
14.904904 -41.32828 3.586546 37 3205373825728 1 0
11.83913 -24.897629 -1.1231953 3 3205373825728 1 1
8.41 -27.467855 -1.0031512 40 3205373828032 1 0
10.458138 -29.024752 5.6250076 25 3205373830336 1 0
0 0 0 9 3205373828032 1 0
11.291564 -27.106237 -0.68328494 62 3205373830336 1 0
0 0 0 4 3205373851072 1 0
14.70346 -31.049288 -0.5996647 63 3205373851072 1 0
9.7664585 -27.229233 -0.8418801 50 3205373853376 1 0
2.8922842 -8.067483 -1.7140651 3 3205373855680 1 0
2.3247497 -5.60368 -1.6983248 4 3205373853376 1 0
13.912726 -33.54964 0 15 3205373855680 1 0
12.581105 -41.37035 -0.503407 35 3205373857984 1 0
4.1106505 -9.916644 -1.670095 12 3205373857984 1 0
3.6166773 -10.097286 -1.3652121 1 3205373860288 1 0
15.502164 -43.29983 -0.26730153 7 3205373862592 1 0
15.178102 -32.099854 0.20636943 15 3205373860288 1 0
5.9001074 -14.245292 -1.660861 32 3205373862592 1 0
5.466189 -18.002642 -1.7562711 4 3205373864896 1 0
13.739537 -33.186558 0.8357981 5 3205373864896 1 0
12.577942 -41.446556 0.50424516 31 3205373867200 1 0
7.059779 -19.746151 -1.7119085 4 3205373869504 1 0
9.074082 -21.926615 -1.659367 7 3205373867200 1 0
15.137901 -32.06309 1.0318995 48 3205373869504 1 0
11.807364 -33.04027 0.6124399 97 3205373871808 1 0
10.779479 -22.840265 -1.6186374 27 3205373871808 1 0
8.303673 -27.405106 -1.6676596 46 3205373874112 1 0
18.533308 -51.908966 2.2455764 60 3205373876416 1 0
21.229874 -51.363293 3.2367156 46 3205373874112 1 0
11.392747 -27.57483 -1.3897916 49 3205373876416 1 0
9.745891 -27.309296 -1.5196269 31 3205373878720 1 0
15.082076 -36.519474 4.8513746 7 3205373878720 1 0
14.753854 -41.361282 3.5849187 37 3205373881024 1 0
8.303655 -27.462606 -1.0018947 48 3205373883328 1 0
11.827112 -25.09788 -1.1303598 3 3205373881024 1 1
0 0 0 9 3205373883328 1 0
10.352797 -29.049961 5.622855 25 3205373885632 1 0
13.840944 -33.55571 -0.8446381 21 3205373885632 1 0
0 0 0 4 3205373906368 1 0
9.674223 -27.270624 -0.8421128 50 3205373908672 1 0
15.074125 -32.121414 -0.619351 22 3205373906368 1 0
2.2993612 -5.597492 -1.6940116 4 3205373908672 1 0
2.866845 -8.084881 -1.7156341 3 3205373910976 1 0
16.602325 -40.432068 0 63 3205373910976 1 0
12.463983 -41.50185 -0.504478 70 3205373913280 1 0
4.0777273 -9.9345 -1.67071 9 3205373913280 1 0
3.5817032 -10.109745 -1.3652121 1 3205373915584 1 0
15.043133 -32.101494 0.20604396 21 3205373915584 1 0
15.413921 -43.526566 -0.26837093 7 3205373917888 1 0
5.8569016 -14.280306 -1.6625745 20 3205373917888 1 0
5.4155407 -18.059525 -1.7599889 4 3205373920192 1 0
0 0 0 8 3205373920192 1 0
12.434154 -41.485744 0.5041986 70 3205373922496 1 0
9.003146 -21.968775 -1.660204 7 3205373922496 1 0
6.994618 -19.777784 -1.7125595 4 3205373924800 1 0
11.688793 -33.065437 0.6121606 97 3205373927104 1 0
10.711331 -22.898748 -1.6201724 17 3205373927104 1 0
15.014199 -32.08589 1.0309685 39 3205373924800 1 0
8.228273 -27.494535 -1.6713805 34 3205373929408 1 0
21.039066 -51.398598 3.23439 46 3205373929408 1 0
18.34817 -51.949265 2.2445993 60 3205373931712 1 0
11.294093 -27.602432 -1.3892332 54 3205373931712 1 0
0 0 0 8 3205373934016 1 0
14.609322 -41.39987 3.5839424 25 3205373936320 1 0
0 0 0 105 3205373936320 1 0
8.210541 -27.49059 -1.0018947 52 3205373938624 1 0
14.950184 -36.55222 4.8489375 7 3205373934016 1 0
0 0 0 9 3205373938624 1 0
10.249269 -29.069958 5.619985 35 3205373940928 1 0
0 0 0 4 3205373961664 1 0
11.058137 -27.068436 -0.6804003 31 3205373940928 1 0
12.688316 -27.272293 -0.5250382 24 3205373961664 1 0
11.613361 -33.086174 -1.0204959 33 3205373963968 1 0
2.2807052 -5.6051197 -1.6940116 3 3205373963968 1 0
2.8410816 -8.098127 -1.7164185 3 3205373966272 1 0
16.45643 -40.46144 0 70 3205373966272 1 0
0 0 0 100 3205373968576 1 0
4.0368843 -9.929837 -1.6676353 11 3205373968576 1 0
3.5449448 -10.114284 -1.3642019 1 3205373970880 1 0
12.65989 -27.254713 0.17465962 17 3205373970880 1 0
9.772883 -27.897219 -0.17180017 3 3205373973184 1 0
5.809971 -14.303757 -1.663003 12 3205373973184 1 0
5.3574386 -18.089308 -1.7611042 2 3205373975488 1 0
12.286609 -41.508823 0.5039658 70 3205373977792 1 0
16.400185 -40.39384 1.014459 48 3205373975488 1 0
8.931007 -22.006813 -1.6607621 7 3205373977792 1 0
6.9214244 -19.786625 -1.7112576 4 3205373980096 1 0
14.89052 -32.108223 1.0300376 65 3205373980096 1 0
11.570787 -33.094208 0.6119512 100 3205373982400 1 0
10.637372 -22.946398 -1.6209399 10 3205373982400 1 0
8.137577 -27.538172 -1.6723108 27 3205373984704 1 0
20.844522 -51.43041 3.2318318 69 3205373984704 1 0
18.158253 -51.986317 2.2434597 60 3205373987008 1 0
10.967033 -27.071215 -1.3605701 30 3205373987008 1 0
10.357898 -29.668783 -1.6469079 10 3205373989312 1 0
14.826973 -36.615223 4.8504 7 3205373989312 1 0
14.464117 -41.450825 3.5839424 37 3205373991616 1 0
0 0 0 5 3205373991616 1 0
8.123905 -27.553827 -1.0031512 40 3205373993920 1 0
0 0 0 9 3205373993920 1 0
10.138691 -29.083706 5.61568 25 3205373996224 1 0
10.954904 -27.088812 -0.67993504 62 3205373996224 1 0
0 0 0 4 3205374016960 1 0
14.812687 -32.145958 -0.6178152 44 3205374016960 1 0
11.483085 -33.10199 -1.0196815 60 3205374019264 1 0
2.260187 -5.613425 -1.6940116 2 3205374019264 1 0
2.8140693 -8.115857 -1.7179874 3 3205374021568 1 0
16.302635 -40.506405 0 63 3205374021568 1 0
11.8224745 -40.390453 -0.4899499 61 3205374023872 1 0
3.9992042 -9.940812 -1.6670204 12 3205374023872 1 0
0 0 0 18 3205374026176 1 0
14.790971 -32.14802 0.205672 52 3205374026176 1 0
15.898568 -45.916645 -0.2824125 8 3205374028480 1 0
5.7684097 -14.350575 -1.6660017 5 3205374028480 1 0
5.2963605 -18.123882 -1.7625914 2 3205374030784 1 0
16.241861 -40.423286 1.0137146 48 3205374030784 1 0
12.135383 -41.54912 0.5039192 70 3205374033088 1 0
8.906434 -22.175951 -1.6710861 7 3205374033088 1 0
6.8890924 -19.924498 -1.7210213 4 3205374035392 1 0
14.761256 -32.132656 1.0291067 61 3205374035392 1 0
11.443744 -33.112965 0.61153233 100 3205374037696 1 0
8.039712 -27.571062 -1.6725434 31 3205374040000 1 0
10.559699 -22.995424 -1.6217073 7 3205374037696 1 0
20.647734 -51.47531 3.2299714 46 3205374040000 1 0
17.962624 -52.02464 2.2423198 60 3205374042304 1 0
10.858011 -27.08069 -1.359081 30 3205374042304 1 0
10.26471 -29.743412 -1.6490014 10 3205374044608 1 0
14.68701 -36.645927 4.847475 7 3205374044608 1 0
14.279617 -41.396683 3.5748296 24 3205374046912 1 0
11.548653 -25.187656 -1.1288943 15 3205374046912 1 1
8.024551 -27.578762 -1.0030116 40 3205374049216 1 0
10.031356 -29.108416 5.613528 35 3205374051520 1 0
0 0 0 9 3205374049216 1 0
10.855532 -27.120173 -0.67974895 62 3205374051520 1 0
0 0 0 4 3205374072256 1 0
14.67547 -32.142895 -0.61676806 44 3205374072256 1 0
9.394408 -27.389414 -0.8426946 41 3205374074560 1 0
2.2448573 -5.6320143 -1.6972464 2 3205374074560 1 0
2.7831786 -8.11821 -1.7164185 4 3205374076864 1 0
13.065416 -32.79306 0 92 3205374076864 1 0
3.9703295 -9.969399 -1.6694801 21 3205374079168 1 0
11.665871 -40.37768 -0.48929802 38 3205374079168 1 0
3.4766304 -10.150553 -1.365717 39 3205374081472 1 0
14.66539 -32.17034 0.20548601 46 3205374081472 1 0
15.740783 -45.97943 -0.282459 8 3205374083776 1 0
5.7285743 -14.39649 -1.6690004 4 3205374083776 1 0
5.260659 -18.237926 -1.7718858 4 3205374086080 1 0
16.087358 -40.446293 1.0128771 48 3205374086080 1 0
8.784745 -22.095667 -1.6627153 7 3205374088384 1 0
11.9847355 -41.572014 0.50368637 70 3205374088384 1 0
6.819501 -19.948423 -1.7210213 4 3205374090688 1 0
14.637407 -32.158516 1.0282922 61 3205374090688 1 0
11.322915 -33.13757 0.6112531 95 3205374092992 1 0
10.472754 -23.01761 -1.620684 5 3205374092992 1 0
7.9456315 -27.606632 -1.6730084 11 3205374095296 1 0
20.456135 -51.51738 3.228111 46 3205374095296 1 0
10.756045 -27.099857 -1.3581505 35 3205374097600 1 0
17.773169 -52.06433 2.2413428 59 3205374097600 1 0
0 0 0 51 3205374099904 1 0
14.557538 -36.69328 4.8469877 7 3205374099904 1 0
14.12602 -41.41986 3.5725513 24 3205374102208 1 0
12.17313 -26.796139 -1.1990737 49 3205374102208 1 0
7.9194074 -27.575867 -1.0018947 52 3205374104512 1 0
0 0 0 9 3205374104512 1 0
9.927149 -29.135803 5.612093 30 3205374106816 1 0
10.760798 -27.1579 -0.67974895 65 3205374106816 1 0
0 0 0 4 3205374127552 1 0
14.068676 -31.100754 -0.59582514 66 3205374127552 1 0
2.2265978 -5.6433992 -1.6983248 1 3205374129856 1 0
9.276916 -27.357668 -0.8407164 50 3205374129856 1 0
2.7560828 -8.13159 -1.717203 4 3205374132160 1 0
11.532533 -40.44508 -0.48962396 33 3205374134464 1 0
0 0 0 3 3205374132160 1 0
3.9239092 -9.953781 -1.6645608 20 3205374134464 1 0
14.54148 -32.19582 0.2053233 46 3205374136768 1 0
0 0 0 100 3205374139072 1 0
5.684116 -14.4312 -1.6707139 3 3205374139072 1 0
5.1980553 -18.26001 -1.7722574 4 3205374141376 1 0
3.438632 -10.155109 -1.364707 35 3205374136768 1 0
15.935822 -40.476154 1.0122257 55 3205374141376 1 0
11.853779 -41.663605 0.5042917 12 3205374143680 1 0
6.7536554 -19.983437 -1.7219977 4 3205374145984 1 0
8.752862 -22.241302 -1.6713651 7 3205374143680 1 0
14.511914 -32.180252 1.0273613 56 3205374145984 1 0
11.200775 -33.157948 0.61090404 95 3205374148288 1 0
10.3923435 -23.054028 -1.620684 7 3205374148288 1 0
7.8164854 -27.51896 -1.6660318 7 3205374150592 1 0
20.264496 -51.55874 3.2262506 46 3205374150592 1 0
17.584932 -52.10712 2.2405288 39 3205374152896 1 0
10.649695 -27.107487 -1.3566614 39 3205374152896 1 0
9.251196 -27.426022 -1.5169053 31 3205374155200 1 0
14.423561 -36.72909 4.8450375 7 3205374155200 1 0
13.987721 -41.48781 3.5741785 37 3205374157504 1 0
12.0828 -26.845757 -1.1993994 20 3205374157504 1 0
0 0 0 9 3205374159808 1 0
9.820361 -29.155361 5.609223 35 3205374162112 1 0
7.840542 -27.66488 -1.0041283 40 3205374159808 1 0
10.670315 -27.206465 -0.68002814 69 3205374162112 1 0
13.915867 -31.051134 -0.5939403 46 3205374183296 1 0
0 0 0 4 3205374183296 1 0
9.1737385 -27.367138 -0.8400183 50 3205374185600 1 0
2.2040827 -5.643961 -1.6961682 1 3205374185600 1 0
2.7289276 -8.14488 -1.7179874 4 3205374187904 1 0
10.779467 -27.614668 0 37 3205374187904 1 0
9.440194 -33.55084 -0.4057616 61 3205374190208 1 0
3.88483 -9.956371 -1.6627162 16 3205374190208 1 0
3.400644 -10.159525 -1.3636968 33 3205374192512 1 0
11.109587 -33.206264 -0.20350997 26 3205374194816 1 0
5.6380405 -14.4620695 -1.6719991 4 3205374194816 1 0
5.134284 -18.278044 -1.7722574 2 3205374197120 1 0
15.787176 -40.512905 1.0117605 48 3205374197120 1 0
13.695328 -48.782597 0.58987695 77 3205374199424 1 0
8.679517 -22.282875 -1.6722022 7 3205374199424 1 0
14.417571 -32.220825 0.20516056 41 3205374192512 1 0
6.6863856 -20.014452 -1.7226486 4 3205374201728 1 0
14.38808 -32.20516 1.0265467 61 3205374201728 1 0
11.077364 -33.174084 0.6104852 90 3205374204032 1 0
10.310179 -23.086517 -1.6204282 12 3205374204032 1 0
7.725767 -27.565304 -1.6671946 7 3205374206336 1 0
20.072817 -51.59939 3.22439 46 3205374206336 1 0
11.0754 -33.200348 1.4258946 66 3205374208640 1 0
10.552112 -27.137047 -1.3562891 43 3205374208640 1 0
9.149088 -27.4392 -1.5158587 36 3205374210944 1 0
11.05711 -33.177666 2.8549166 21 3205374213248 1 0
14.292388 -36.771812 4.844063 7 3205374210944 1 0
12.213629 -27.391506 -1.2218697 39 3205374213248 1 0
7.8784995 -28.173313 -1.0215781 28 3205374215552 1 0
0 0 0 9 3205374215552 1 0
10.57094 -27.232363 -0.67974895 65 3205374217856 1 0
9.714801 -29.178263 5.6070704 30 3205374217856 1 0
0 0 0 4 3205374238592 1 0
13.787919 -31.055656 -0.5931026 41 3205374238592 1 0
9.083183 -27.414175 -0.8404837 55 3205374240896 1 0
0 0 0 7 3205374240896 1 0
2.7029462 -8.161803 -1.7195565 4 3205374243200 1 0
9.331581 -33.614418 -0.4061341 69 3205374245504 1 0
15.713866 -40.67411 0 7 3205374243200 1 0
3.850052 -9.9698715 -1.6627162 20 3205374245504 1 0
3.36516 -10.171333 -1.3636968 27 3205374247808 1 0
14.295285 -32.249016 0.20502107 41 3205374247808 1 0
10.988584 -33.22965 -0.20341697 90 3205374250112 1 0
5.070451 -18.295853 -1.7722574 2 3205374252416 1 0
5.586093 -14.477952 -1.6715708 3 3205374250112 1 0
15.642786 -40.560303 1.0115744 34 3205374252416 1 0
13.520691 -48.814686 0.5896907 60 3205374254720 1 0
8.601683 -22.313036 -1.6722022 7 3205374254720 1 0
14.264248 -32.229595 1.0257323 61 3205374257024 1 0
6.621482 -20.052813 -1.7239505 4 3205374257024 1 0
10.957737 -33.201153 0.61027575 95 3205374259328 1 0
7.641206 -27.634441 -1.6697527 11 3205374261632 1 0
10.224684 -23.111416 -1.6196607 22 3205374259328 1 0
19.875362 -51.624424 3.2215993 69 3205374261632 1 0
10.94943 -33.20844 1.424592 72 3205374263936 1 0
10.506114 -27.300505 -1.3626174 17 3205374263936 1 0
9.047 -27.452 -1.5148119 31 3205374266240 1 0
14.161093 -36.814068 4.8430877 7 3205374266240 1 0
10.934995 -33.19713 2.8532894 43 3205374268544 1 0
7.79074 -28.23918 -1.022974 41 3205374270848 1 0
11.8611765 -26.852682 -1.19598 49 3205374268544 1 0
0 0 0 9 3205374270848 1 0
9.610431 -29.20452 5.6056356 35 3205374273152 1 0
10.4958935 -27.321358 -0.6810517 62 3205374273152 1 0
0 0 0 4 3205374293888 1 0
13.716463 -31.187798 -0.5947082 15 3205374293888 1 0
8.971259 -27.396318 -0.838971 50 3205374296192 1 0
2.1728837 -5.680797 -1.702638 4 3205374296192 1 0
2.6744397 -8.171188 -1.7195565 5 3205374298496 1 0
15.543222 -40.653988 0 13 3205374298496 1 0
0 0 0 100 3205374300800 1 0
3.8124053 -9.975865 -1.6614863 23 3205374300800 1 0
3.3271685 -10.175475 -1.3626866 12 3205374303104 1 0
14.172979 -32.276745 0.20488158 35 3205374303104 1 0
10.865068 -33.24499 -0.2032775 80 3205374305408 1 0
5.5397773 -14.508509 -1.6728559 3 3205374305408 1 0
5.0076056 -18.317284 -1.7726293 2 3205374307712 1 0
13.347051 -48.85001 0.58955103 43 3205374310016 1 0
15.48685 -40.5773 1.0106438 61 3205374307712 1 0
8.530854 -22.361567 -1.6735973 7 3205374310016 1 0
6.5539174 -20.083384 -1.7246014 4 3205374312320 1 0
10.839295 -33.231598 0.61013615 95 3205374314624 1 0
14.140421 -32.253555 1.0249177 56 3205374312320 1 0
10.140743 -23.139652 -1.6191491 22 3205374314624 1 0
7.621405 -27.942177 -1.6867293 12 3205374316928 1 0
19.682243 -51.6599 3.2195065 68 3205374316928 1 0
10.826015 -33.22366 1.423615 72 3205374319232 1 0
10.564333 -27.740288 -1.3827189 49 3205374319232 1 0
8.948646 -27.475817 -1.5143932 31 3205374321536 1 0
14.032501 -36.863274 4.8430877 7 3205374321536 1 0
10.812879 -33.21614 2.8516622 43 3205374323840 1 0
11.756156 -26.86829 -1.1948401 49 3205374323840 1 0
7.69002 -28.258488 -1.0226948 53 3205374326144 1 0
0 0 0 9 3205374326144 1 0
10.430302 -27.436325 -0.6830058 31 3205374328448 1 0
9.504778 -29.226662 5.603483 35 3205374328448 1 0
0 0 0 4 3205374349184 1 0
13.677795 -31.396816 -0.5977798 35 3205374349184 1 0
8.889114 -27.46931 -0.84025097 50 3205374351488 1 0
2.14895 -5.67754 -1.699403 4 3205374351488 1 0
2.6446936 -8.176743 -1.7187719 4 3205374353792 1 0
14.644178 -54.2173 -0.6538098 8 3205374356096 1 0
15.45925 -40.861385 0 7 3205374353792 1 0
3.776162 -9.985415 -1.6608714 16 3205374356096 1 0
0 0 0 22 3205374358400 1 0
14.049058 -32.300343 0.20471884 35 3205374358400 1 0
10.748956 -33.282715 -0.2032775 38 3205374360704 1 0
5.4961276 -14.546359 -1.6749978 3 3205374360704 1 0
4.9498568 -18.357723 -1.7748599 2 3205374363008 1 0
15.336637 -40.608665 1.0100856 55 3205374363008 1 0
14.603267 -54.19105 0.6533907 19 3205374365312 1 0
8.4555645 -22.398674 -1.6741554 7 3205374365312 1 0
6.4849973 -20.109934 -1.7249268 4 3205374367616 1 0
14.015008 -32.27338 1.0239868 56 3205374367616 1 0
10.720776 -33.261616 0.6099965 100 3205374369920 1 0
10.078982 -23.218851 -1.6222191 42 3205374369920 1 0
7.484403 -27.822077 -1.6778921 11 3205374372224 1 0
19.49898 -51.720818 3.2190413 68 3205374372224 1 0
10.451939 -27.735867 -1.3806715 31 3205374374528 1 0
10.706302 -33.249832 1.4231266 66 3205374374528 1 0
8.857577 -27.522095 -1.5152307 13 3205374376832 1 0
13.871551 -36.82658 4.831876 7 3205374376832 1 0
10.696866 -33.25368 2.8516622 43 3205374379136 1 0
11.649582 -26.879827 -1.1935375 49 3205374379136 1 0
7.5913324 -28.285158 -1.0226948 53 3205374381440 1 0
9.400292 -29.252169 5.6020484 35 3205374383744 1 0
0 0 0 9 3205374381440 1 0
0 0 0 4 3205374404480 1 0
13.606145 -31.532501 -0.59945524 47 3205374404480 1 0
8.800681 -27.522959 -0.8409492 46 3205374406784 1 0
2.1264582 -5.6777763 -1.6972464 4 3205374406784 1 0
2.6174486 -8.189622 -1.7195565 4 3205374409088 1 0
15.596198 -41.66035 0 7 3205374409088 1 0
12.384466 -32.922165 -0.8184903 51 3205374383744 1 0
14.45293 -54.256176 -0.6536701 16 3205374411392 1 0
3.738731 -9.991051 -1.6596415 17 3205374411392 1 0
3.2635882 -10.221041 -1.365717 2 3205374413696 1 0
13.930834 -32.334087 0.20462586 41 3205374413696 1 0
10.630275 -33.308216 -0.20320775 100 3205374416000 1 0
5.4458475 -14.565258 -1.6749978 3 3205374416000 1 0
4.883477 -18.36313 -1.7737446 2 3205374418304 1 0
15.273564 -40.867313 1.0152035 6 3205374418304 1 0
14.420887 -54.256424 0.65357697 19 3205374420608 1 0
8.384054 -22.44258 -1.6752715 7 3205374420608 1 0
6.419564 -20.14347 -1.7259032 4 3205374422912 1 0
13.891507 -32.291912 1.0230559 65 3205374422912 1 0
10.604358 -33.29052 0.6098569 100 3205374425216 1 0
10.010433 -23.278906 -1.6240098 45 3205374425216 1 0
7.4414973 -28.044338 -1.6897525 12 3205374427520 1 0
19.309525 -51.75349 3.2169483 45 3205374427520 1 0
10.590412 -33.278538 1.4228009 72 3205374429824 1 0
10.165996 -27.258455 -1.3551724 65 3205374429824 1 0
8.904312 -27.993645 -1.5395145 31 3205374432128 1 0
13.747522 -36.877296 4.832363 7 3205374432128 1 0
10.577832 -33.27082 2.8500347 35 3205374434432 1 0
11.548767 -26.8972 -1.1925604 53 3205374434432 1 0
7.495435 -28.310722 -1.0226948 74 3205374436736 1 0
0 0 0 9 3205374436736 1 0
9.297747 -29.272537 5.599896 30 3205374439040 1 0
12.268881 -32.952614 -0.81821114 20 3205374439040 1 0
0 0 0 4 3205374459776 1 0
13.523517 -31.62893 -0.6004326 52 3205374459776 1 0
10.531255 -33.316372 -1.0168887 26 3205374462080 1 0
2.106238 -5.6812005 -1.6961682 4 3205374462080 1 0
2.5913386 -8.202035 -1.7203408 4 3205374464384 1 0
10.313243 -27.83055 0 4 3205374464384 1 0
14.272763 -54.307983 -0.6537167 16 3205374466688 1 0
3.7039878 -9.999768 -1.6590266 9 3205374466688 1 0
3.2293785 -10.2319 -1.365717 8 3205374468992 1 0
13.811599 -32.35476 0.20446312 56 3205374468992 1 0
10.50772 -33.309334 -0.20299852 95 3205374471296 1 0
4.8268075 -18.398695 -1.7756035 2 3205374473600 1 0
0 0 0 8 3205374473600 1 0
14.231022 -54.277588 0.65325105 19 3205374475904 1 0
8.309826 -22.474424 -1.6755505 7 3205374475904 1 0
6.352755 -20.16882 -1.7262287 4 3205374478208 1 0
5.401128 -14.594623 -1.676283 3 3205374471296 1 0
13.776196 -32.32389 1.0225904 65 3205374478208 1 0
9.944173 -23.342005 -1.6260564 50 3205374480512 1 0
7.3514724 -28.08871 -1.6909152 12 3205374482816 1 0
10.486918 -33.310932 0.60957766 95 3205374480512 1 0
10.474936 -33.306686 1.4224752 72 3205374485120 1 0
10.069214 -27.281578 -1.354614 65 3205374485120 1 0
19.12158 -51.784916 3.2148552 45 3205374482816 1 0
8.810185 -28.0276 -1.5397239 45 3205374487424 1 0
13.624683 -36.93132 4.8333383 7 3205374487424 1 0
10.459515 -33.291492 2.848733 42 3205374489728 1 0
11.4491415 -26.918043 -1.1917464 53 3205374489728 1 0
7.3945875 -28.320704 -1.0221364 45 3205374492032 1 0
0 0 0 9 3205374492032 1 0
9.195071 -29.296703 5.598461 30 3205374494336 1 0
0 0 0 4 3205374515072 1 0
10.104374 -27.425951 -0.6801212 27 3205374494336 1 0
13.442659 -31.745916 -0.60175896 52 3205374515072 1 0
10.411319 -33.34148 -1.0165396 33 3205374517376 1 0
2.0890467 -5.6957507 -1.6983248 5 3205374517376 1 0
2.5650296 -8.218518 -1.7219098 4 3205374519680 1 0
10.218787 -27.87389 0 4 3205374519680 1 0
14.080096 -54.34586 -0.65357697 16 3205374521984 1 0
3.6690595 -10.012637 -1.6590266 8 3205374521984 1 0
3.1936426 -10.243111 -1.365717 3 3205374524288 1 0
13.712593 -32.43593 0.20467235 15 3205374524288 1 0
10.386624 -33.330536 -0.20290554 95 3205374526592 1 0
5.35015 -14.613387 -1.676283 3 3205374526592 1 0
4.7665434 -18.430855 -1.7770905 4 3205374528896 1 0
14.043472 -54.33468 0.65334415 19 3205374531200 1 0
17.473803 -47.74941 1.1831633 52 3205374528896 1 0
8.238178 -22.52203 -1.6769457 7 3205374531200 1 0
6.2917895 -20.221327 -1.7288324 4 3205374533504 1 0
13.666389 -32.379147 1.0228232 17 3205374533504 1 0
10.365828 -33.332058 0.6092984 95 3205374535808 1 0
9.885909 -23.431742 -1.6298939 52 3205374535808 1 0
7.26136 -28.145134 -1.6927757 12 3205374538112 1 0
18.931108 -51.825092 3.2132275 45 3205374538112 1 0
10.355052 -33.3316 1.4219867 72 3205374540416 1 0
9.956106 -27.267767 -1.3521944 59 3205374540416 1 0
8.707559 -28.042921 -1.5388864 31 3205374542720 1 0
13.4847975 -36.94882 4.829438 7 3205374542720 1 0
10.337334 -33.30876 2.8471057 42 3205374545024 1 0
11.356662 -26.961529 -1.1919092 28 3205374545024 1 0
7.2926955 -28.334728 -1.0217177 41 3205374547328 1 0
9.083428 -29.298553 5.592721 30 3205374549632 1 0
10.041442 -27.551226 -0.68235445 27 3205374549632 1 0
0 0 0 4 3205374570368 1 0
13.382801 -31.914358 -0.6040627 36 3205374570368 1 0
0 0 0 9 3205374547328 1 0
8.494212 -27.53959 -0.83873826 37 3205374572672 1 0
2.0678384 -5.699387 -1.6972464 4 3205374572672 1 0
2.536326 -8.227423 -1.7219098 4 3205374574976 1 0
10.1105175 -27.879307 0 4 3205374574976 1 0
0 0 0 35 3205374577280 1 0
3.6300457 -10.0142355 -1.6571819 7 3205374577280 1 0
3.1567004 -10.250404 -1.3652121 7 3205374579584 1 0
13.84489 -33.07025 0.20836873 63 3205374579584 1 0
10.284336 -33.412464 -0.2031845 23 3205374581888 1 0
5.3058786 -14.65067 -1.678425 3 3205374581888 1 0
4.7021785 -18.447382 -1.7770905 2 3205374584192 1 0
17.293407 -47.77251 1.1822327 43 3205374584192 1 0
13.852736 -54.379494 0.6532976 19 3205374586496 1 0
8.198884 -22.659464 -1.6850374 7 3205374586496 1 0
13.783025 -32.976322 1.0401611 8 3205374588800 1 0
6.2211657 -20.243166 -1.7288324 4 3205374588800 1 0
10.276423 -33.45597 0.61090404 39 3205374591104 1 0
9.816367 -23.495573 -1.6319406 50 3205374591104 1 0
18.747377 -51.883347 3.2127624 45 3205374593408 1 0
7.1699595 -28.197401 -1.6944036 12 3205374593408 1 0
10.242157 -33.379005 1.4224752 59 3205374595712 1 0
9.854077 -27.283564 -1.3512639 68 3205374595712 1 0
8.587364 -28.000586 -1.5349089 36 3205374598016 1 0
13.348999 -36.976994 4.827001 7 3205374598016 1 0
10.247874 -33.432312 2.8545911 14 3205374600320 1 0
11.477881 -27.517418 -1.2147052 34 3205374600320 1 0
7.198659 -28.379387 -1.0224156 57 3205374602624 1 0
0 0 0 9 3205374602624 1 0
8.979949 -29.326319 5.592004 30 3205374604928 1 0
0 0 0 4 3205374625664 1 0
9.904523 -27.473251 -0.67956287 38 3205374604928 1 0
13.910881 -33.501118 -0.6331733 17 3205374625664 1 0
8.397829 -27.569136 -0.83873826 41 3205374627968 1 0
2.505187 -8.228758 -1.7203408 4 3205374630272 1 0
2.0478897 -5.7065854 -1.6972464 4 3205374627968 1 0
0 0 0 28 3205374632576 1 0
10.008681 -27.90328 0 4 3205374630272 1 0
3.5908468 -10.015762 -1.6553372 8 3205374632576 1 0
3.1252198 -10.276637 -1.3672323 9 3205374634880 1 0
0 0 0 3 3205374634880 1 0
12.6021805 -41.4624 -0.2518651 100 3205374637184 1 0
5.2555137 -14.673037 -1.6788534 3 3205374637184 1 0
4.639861 -18.475473 -1.7782059 2 3205374639488 1 0
17.117718 -47.814507 1.1817675 52 3205374639488 1 0
8.119927 -22.692116 -1.6853164 7 3205374641792 1 0
13.658114 -54.420452 0.65320444 19 3205374641792 1 0
6.1516023 -20.272745 -1.7294832 4 3205374644096 1 0
13.890644 -33.56812 1.0572664 9 3205374644096 1 0
10.178278 -33.56119 0.6121606 41 3205374646400 1 0
9.746485 -23.563532 -1.634243 45 3205374646400 1 0
7.085931 -28.288622 -1.6983571 12 3205374648704 1 0
18.542223 -51.893414 3.209274 68 3205374648704 1 0
9.751219 -27.303524 -1.3505193 76 3205374651008 1 0
10.124066 -33.419186 1.422638 33 3205374651008 1 0
8.34359 -27.557064 -1.5089502 36 3205374653312 1 0
13.216613 -37.024517 4.827001 7 3205374653312 1 0
12.540133 -41.44015 3.5344727 36 3205374655616 1 0
11.379152 -27.558392 -1.2147052 42 3205374655616 1 0
7.1073194 -28.447727 -1.0239513 41 3205374657920 1 0
0 0 0 9 3205374657920 1 0
8.86977 -29.343388 5.5891337 30 3205374660224 1 0
9.78945 -27.463526 -0.67844623 38 3205374660224 1 0
0 0 0 4 3205374680960 1 0
16.63985 -40.491604 -0.76413614 15 3205374680960 1 0
8.295776 -27.59584 -0.8386219 46 3205374683264 1 0
2.0282898 -5.7176685 -1.6983248 5 3205374683264 1 0
2.4762588 -8.241605 -1.7211254 4 3205374685568 1 0
17.004961 -47.95845 0 9 3205374685568 1 0
13.493983 -54.465504 -0.65325105 16 3205374687872 1 0
3.5530117 -10.025054 -1.6547223 31 3205374687872 1 0
3.085551 -10.280332 -1.3662221 8 3205374690176 1 0
16.577549 -40.40685 0.25384113 7 3205374690176 1 0
12.450488 -41.504025 -0.25184184 96 3205374692480 1 0
5.2062154 -14.7032585 -1.6801385 3 3205374692480 1 0
4.5719647 -18.488289 -1.7778342 2 3205374694784 1 0
16.932436 -47.84226 1.18093 43 3205374694784 1 0
13.464213 -54.48111 0.65334415 19 3205374697088 1 0
6.104747 -20.382643 -1.7369688 4 3205374699392 1 0
8.043181 -22.736362 -1.6864325 7 3205374697088 1 0
0 0 0 40 3205374699392 1 0
12.422363 -41.49798 0.75610805 88 3205374701696 1 0
9.682774 -23.65018 -1.6378247 36 3205374701696 1 0
18.353018 -51.952164 3.208809 68 3205374704000 1 0
12.406474 -41.488823 1.7642535 46 3205374706304 1 0
9.773003 -27.6774 -1.3672706 30 3205374706304 1 0
6.986172 -28.32165 -1.6988221 12 3205374704000 1 0
8.242652 -27.579086 -1.5085316 40 3205374708608 1 0
13.073486 -37.04162 4.823101 7 3205374708608 1 0
12.385239 -41.461742 3.53252 36 3205374710912 1 0
11.029661 -26.984718 -1.1876756 74 3205374710912 1 0
7.0116353 -28.496162 -1.0247889 41 3205374713216 1 0
0 0 0 9 3205374713216 1 0
8.763115 -29.3672 5.587699 35 3205374715520 1 0
9.706347 -27.539652 -0.6794698 34 3205374715520 1 0
0 0 0 4 3205374736256 1 0
13.893871 -34.148067 -0.64350516 17 3205374736256 1 0
8.195048 -27.609238 -0.83815646 46 3205374738560 1 0
2.012186 -5.7356033 -1.7015597 5 3205374738560 1 0
2.4520574 -8.265203 -1.7242632 4 3205374740864 1 0
9.772507 -27.86821 0 4 3205374740864 1 0
13.304022 -54.5081 -0.65320444 16 3205374743168 1 0
3.5156002 -10.029859 -1.6534925 34 3205374743168 1 0
3.0499465 -10.290951 -1.3662221 9 3205374745472 1 0
16.408976 -40.39358 0.25339943 7 3205374745472 1 0
12.301367 -41.52761 -0.2517256 89 3205374747776 1 0
5.1593385 -14.732414 -1.6814237 3 3205374747776 1 0
4.514807 -18.531025 -1.7804365 2 3205374750080 1 0
16.78592 -47.953182 1.1822327 8 3205374750080 1 0
13.272947 -54.51156 0.6531579 19 3205374752384 1 0
7.96888 -22.775192 -1.6872696 7 3205374752384 1 0
6.039271 -20.418768 -1.7382706 4 3205374754688 1 0
16.36947 -40.36029 1.2675327 55 3205374754688 1 0
12.272215 -41.513435 0.7556194 96 3205374756992 1 0
9.619707 -23.7276 -1.6408947 26 3205374756992 1 0
6.8836713 -28.32208 -1.6974269 4 3205374759296 1 0
18.168756 -51.99574 3.2076461 68 3205374759296 1 0
12.259238 -41.51173 1.7634394 83 3205374761600 1 0
9.732566 -27.86523 -1.3749017 43 3205374761600 1 0
12.948652 -37.089645 4.823589 7 3205374763904 1 0
12.23759 -41.480625 3.5305672 36 3205374766208 1 0
8.146481 -27.599318 -1.5081129 39 3205374763904 1 0
10.928957 -26.999792 -1.1866987 78 3205374766208 1 0
6.9187937 -28.5353 -1.0253472 41 3205374768512 1 0
0 0 0 9 3205374768512 1 0
8.661533 -29.389118 5.5862637 35 3205374770816 1 0
11.541853 -33.10415 -0.8157918 61 3205374770816 1 0
0 0 0 4 3205374791552 1 0
13.768597 -34.16428 -0.64294666 11 3205374791552 1 0
8.121448 -27.69765 -0.8400183 41 3205374793856 1 0
1.9956812 -5.749522 -1.7037163 5 3205374793856 1 0
18.438356 -53.14428 0 11 3205374796160 1 0
2.4213262 -8.261997 -1.7219098 4 3205374796160 1 0
13.126935 -54.56747 -0.6533907 16 3205374798464 1 0
3.013574 -10.293391 -1.3652121 8 3205374800768 1 0
3.4810257 -10.037726 -1.6528776 35 3205374798464 1 0
22.649036 -56.289196 0.35264367 15 3205374800768 1 0
12.162465 -41.564335 -0.25170237 89 3205374803072 1 0
5.1091537 -14.745685 -1.6809952 3 3205374803072 1 0
4.4542613 -18.549768 -1.7808083 2 3205374805376 1 0
18.381752 -53.07584 1.3070163 32 3205374805376 1 0
13.089308 -54.543606 0.6530182 19 3205374807680 1 0
7.9181123 -22.873137 -1.692571 7 3205374807680 1 0
5.972645 -20.44251 -1.7385961 4 3205374809984 1 0
16.226599 -40.39209 1.2668346 55 3205374809984 1 0
12.132242 -41.546227 0.75547975 100 3205374812288 1 0
9.552872 -23.789005 -1.6429412 15 3205374812288 1 0
4.6641493 -19.471241 -1.1660362 2 3205374814592 1 1
17.98449 -52.021736 3.205553 45 3205374814592 1 0
12.118155 -41.540646 1.7629509 83 3205374816896 1 0
9.636193 -27.886023 -1.3743433 43 3205374816896 1 0
8.052677 -27.618511 -1.5076942 43 3205374819200 1 0
12.822995 -37.124874 4.8226137 7 3205374819200 1 0
12.099968 -41.520977 3.5305672 36 3205374821504 1 0
10.827464 -27.006208 -1.185396 68 3205374821504 1 0
6.8306327 -28.585304 -1.0263244 41 3205374823808 1 0
0 0 0 9 3205374823808 1 0
8.561828 -29.410122 5.584829 35 3205374826112 1 0
0 0 0 4 3205374846296 1 0
11.426796 -33.12712 -0.8154196 100 3205374826112 1 0
13.081649 -32.789413 -0.61620957 22 3205374846296 1 0
8.065642 -27.867994 -0.84432364 42 3205374848600 1 0
1.9730569 -5.7491813 -1.7015597 5 3205374848600 1 0
9.570501 -27.900171 0 4 3205374850904 1 0
2.395621 -8.281737 -1.7242632 5 3205374850904 1 0
12.93611 -54.617134 -0.65343726 16 3205374853208 1 0
3.444465 -10.046153 -1.6522627 35 3205374853208 1 0
2.9806297 -10.315371 -1.3667272 5 3205374855512 1 0
0 0 0 36 3205374855512 1 0
12.012463 -41.595444 -0.2516326 75 3205374857816 1 0
5.06098 -14.7749 -1.6822804 3 3205374857816 1 0
4.3895893 -18.569271 -1.7811801 2 3205374860120 1 0
18.181097 -53.102642 1.3060857 32 3205374860120 1 0
12.897895 -54.597404 0.65311134 19 3205374862424 1 0
7.838348 -22.904812 -1.6928501 7 3205374862424 1 0
5.9033737 -20.475069 -1.7395724 4 3205374864728 1 0
16.074287 -40.427128 1.2661364 55 3205374864728 1 0
9.481483 -23.85621 -1.6452438 7 3205374867032 1 0
0 0 0 12 3205374869336 1 0
17.78738 -52.051483 3.20346 45 3205374869336 1 0
11.9664345 -41.57213 1.7624624 83 3205374871640 1 0
9.487483 -27.776567 -1.3672706 61 3205374871640 1 0
7.956017 -27.654823 -1.5081129 43 3205374873944 1 0
12.686235 -37.159245 4.8211513 7 3205374873944 1 0
11.982208 -41.58142 0.75534016 88 3205374867032 1 0
11.946623 -41.548763 3.5292654 36 3205374876248 1 0
10.72615 -27.033709 -1.1849076 68 3205374876248 1 0
0 0 0 9 3205374878552 1 0
6.736133 -28.64468 -1.0275807 41 3205374878552 1 0
8.452644 -29.429405 5.5826764 35 3205374880856 1 0
11.299731 -33.14533 -0.8148613 70 3205374880856 1 0
0 0 0 113 3205374901592 1 0
0 0 0 4 3205374901592 1 0
7.9606285 -27.869066 -0.84350914 41 3205374903896 1 0
1.9505012 -5.7487383 -1.699403 5 3205374903896 1 0
2.365621 -8.286278 -1.7234788 4 3205374906200 1 0
9.475623 -27.940985 0 4 3205374906200 1 0
12.741748 -54.646378 -0.65325105 16 3205374908504 1 0
3.4081075 -10.054372 -1.6516477 33 3205374908504 1 0
2.9413397 -10.314265 -1.3652121 2 3205374910808 1 0
0 0 0 7 3205374910808 1 0
0 0 0 19 3205374913112 1 0
5.013202 -14.803777 -1.6835656 3 3205374913112 1 0
4.326549 -18.592237 -1.7819237 2 3205374915416 1 0
17.803308 -52.59761 1.2921278 31 3205374915416 1 0
12.708142 -54.64599 0.6531579 19 3205374917720 1 0
7.7609053 -22.939592 -1.6934081 13 3205374917720 1 0
5.8329573 -20.499386 -1.7398978 4 3205374920024 1 0
15.922823 -40.456947 1.2653219 48 3205374920024 1 0
9.399613 -23.892878 -1.6454996 7 3205374922328 1 0
0 0 0 12 3205374924632 1 0
17.599188 -52.09434 3.2022972 45 3205374924632 1 0
11.912475 -41.888428 0.760157 24 3205374922328 1 0
11.828893 -41.640556 1.7636023 55 3205374926936 1 0
9.265192 -27.43852 -1.3490304 100 3205374926936 1 0
7.8550715 -27.667055 -1.5072756 8 3205374929240 1 0
12.553909 -37.195778 4.820176 7 3205374929240 1 0
13.821402 -48.70857 4.133315 36 3205374931544 1 0
10.622953 -27.048664 -1.1839305 68 3205374931544 1 0
6.642414 -28.695282 -1.028558 41 3205374933848 1 0
0 0 0 9 3205374933848 1 0
8.348792 -29.454945 5.581959 39 3205374936152 1 0
11.182687 -33.180782 -0.8147682 80 3205374936152 1 0
0 0 0 4 3205374956888 1 0
0 0 0 21 3205374956888 1 0
1.9340972 -5.7664676 -1.702638 5 3205374959192 1 0
2.3366823 -8.294485 -1.7234788 3 3205374961496 1 0
0 0 0 48 3205374961496 1 0
11.25095 -39.91508 -1.2069081 26 3205374959192 1 0
12.5491295 -54.682724 -0.6531579 16 3205374963800 1 0
3.3729906 -10.066207 -1.6516477 11 3205374963800 1 0
2.9106925 -10.343568 -1.3677374 2 3205374966104 1 0
10.781887 -27.63036 0.17238136 4 3205374966104 1 0
13.721978 -48.79025 -0.29457104 95 3205374968408 1 0
4.9640217 -14.828729 -1.6844224 3 3205374968408 1 0
4.282074 -18.696516 -1.7904745 2 3205374970712 1 0
17.615793 -52.648056 1.2918487 31 3205374970712 1 0
12.512853 -54.67052 0.6529251 19 3205374973016 1 0
7.6909084 -22.996817 -1.6956403 23 3205374973016 1 0
5.760288 -20.515783 -1.7395724 4 3205374975320 1 0
15.769895 -40.48248 1.264391 42 3205374975320 1 0
13.687414 -48.776215 0.88427854 100 3205374977624 1 0
9.3161545 -23.925543 -1.6454996 5 3205374977624 1 0
4.3696527 -19.130043 -1.1427805 2 3205374979928 1 1
17.412178 -52.140305 3.2013671 45 3205374979928 1 0
13.672602 -48.77797 2.0638592 36 3205374982232 1 0
9.156707 -27.432793 -1.347169 85 3205374982232 1 0
7.732586 -27.601992 -1.5022513 13 3205374984536 1 0
12.422738 -37.235607 4.819689 7 3205374984536 1 0
13.651293 -48.756516 4.133315 54 3205374986840 1 0
10.522679 -27.07068 -1.1832793 68 3205374986840 1 0
6.548424 -28.745577 -1.0295352 41 3205374989144 1 0
0 0 0 9 3205374989144 1 0
8.243805 -29.47633 5.580524 29 3205374991448 1 0
0 0 0 4 3205375012184 1 0
9.213903 -27.657719 -0.6783532 38 3205374991448 1 0
13.008857 -33.62584 -0.6293338 11 3205375012184 1 0
11.126841 -40.007957 -1.2085371 52 3205375014488 1 0
1.9127865 -5.7695136 -1.7015597 5 3205375014488 1 0
2.310987 -8.313894 -1.7258321 5 3205375016792 1 0
11.008291 -33.219536 0 73 3205375016792 1 0
3.334324 -10.066591 -1.649803 8 3205375019096 1 0
12.36025 -54.729828 -0.65320444 16 3205375019096 1 0
2.8738086 -10.349758 -1.3672323 2 3205375021400 1 0
13.551221 -48.82965 -0.29452455 76 3205375023704 1 0
4.917767 -14.86089 -1.6861359 3 3205375023704 1 0
15.697082 -40.641212 0.25321347 7 3205375021400 1 0
4.2184772 -18.715052 -1.7908463 2 3205375026008 1 0
10.9857 -33.212826 0.8140238 85 3205375026008 1 0
12.324726 -54.713238 0.6529251 19 3205375028312 1 0
7.6180224 -23.042078 -1.6970356 28 3205375028312 1 0
15.619338 -40.506523 1.26346 48 3205375030616 1 0
5.6930275 -20.54696 -1.7405488 4 3205375030616 1 0
13.517063 -48.811245 0.8840691 79 3205375032920 1 0
9.228408 -23.942413 -1.6444763 7 3205375032920 1 0
4.32614 -19.242266 -1.1485945 2 3205375035224 1 1
10.968029 -33.220974 2.0374238 78 3205375035224 1 0
13.50083 -48.80506 2.063045 96 3205375037528 1 0
7.768466 -28.097858 -1.5277913 27 3205375039832 1 0
9.058081 -27.448687 -1.3464246 85 3205375037528 1 0
0 0 0 21 3205375039832 1 0
10.64455 -27.662037 -1.2075408 29 3205375042136 1 0
6.453596 -28.779306 -1.029954 41 3205375044440 1 0
0 0 0 9 3205375044440 1 0
13.477137 -48.771854 4.1307116 54 3205375042136 1 0
8.141987 -29.49645 5.579089 29 3205375046744 1 0
9.086546 -27.586168 -0.67584074 27 3205375046744 1 0
0 0 0 4 3205375067480 1 0
12.888694 -33.646385 -0.6289149 11 3205375067480 1 0
0 0 0 85 3205375069784 1 0
1.8960016 -5.7831593 -1.7037163 5 3205375069784 1 0
2.2843213 -8.325328 -1.7266166 4 3205375072088 1 0
10.891359 -33.23701 0 68 3205375072088 1 0
12.177497 -54.770782 -0.65320444 16 3205375074392 1 0
3.2982433 -10.070152 -1.6485732 7 3205375074392 1 0
2.8444145 -10.378448 -1.3697577 7 3205375076696 1 0
15.509608 -40.558994 0.25237653 7 3205375076696 1 0
0 0 0 19 3205375079000 1 0
4.8691554 -14.881073 -1.6865643 3 3205375079000 1 0
4.1555753 -18.729118 -1.7908463 2 3205375081304 1 0
12.139569 -54.750523 0.6528785 19 3205375083608 1 0
7.5304775 -23.037256 -1.6948032 36 3205375083608 1 0
5.6236634 -20.566053 -1.7405488 4 3205375085912 1 0
15.475439 -40.54032 1.2628783 48 3205375085912 1 0
0 0 0 43 3205375088216 1 0
10.869079 -33.234344 0.81365156 80 3205375081304 1 0
9.153084 -23.988401 -1.6454996 18 3205375088216 1 0
10.842995 -33.219994 2.0350983 64 3205375090520 1 0
4.2980027 -19.424469 -1.1585944 2 3205375090520 1 1
13.340267 -48.869907 2.0638592 48 3205375092824 1 0
8.961092 -27.467896 -1.3458662 85 3205375092824 1 0
7.714847 -28.278282 -1.536165 49 3205375095128 1 0
10.824956 -33.19746 4.2873635 68 3205375095128 1 0
13.329592 -48.886772 4.13657 18 3205375097432 1 0
10.551565 -27.701916 -1.2077036 38 3205375097432 1 0
6.362945 -28.836329 -1.0312103 41 3205375099736 1 0
0 0 0 9 3205375099736 1 0
8.034704 -29.501385 5.5747843 29 3205375102040 1 0
9.021718 -27.708387 -0.678074 38 3205375102040 1 0
0 0 0 4 3205375122776 1 0
12.765497 -33.676212 -0.6286357 11 3205375122776 1 0
9.113703 -33.657154 -1.0147942 59 3205375125080 1 0
1.8733865 -5.782427 -1.7015597 6 3205375125080 1 0
2.2541006 -8.329497 -1.7258321 3 3205375127384 1 0
9.042248 -27.9245 0 36 3205375127384 1 0
11.984186 -54.809307 -0.6531579 16 3205375129688 1 0
3.2616348 -10.077915 -1.6479583 8 3205375129688 1 0
15.566341 -41.140827 0.25565445 8 3205375131992 1 0
2.806832 -10.384564 -1.3692526 11 3205375131992 1 0
14.639848 -54.196568 -0.32628083 20 3205375134296 1 0
4.8203096 -14.909507 -1.6878495 3 3205375134296 1 0
4.0936 -18.763144 -1.7927052 2 3205375136600 1 0
11.947295 -54.800987 0.6529716 29 3205375138904 1 0
10.745403 -33.253525 0.81318635 80 3205375136600 1 0
7.452522 -23.075172 -1.6956403 47 3205375138904 1 0
5.5558324 -20.605127 -1.742176 4 3205375141208 1 0
0 0 0 6 3205375141208 1 0
14.600597 -54.182713 0.97949886 25 3205375143512 1 0
4.184621 -19.23676 -1.1465015 2 3205375145816 1 1
9.060673 -24.002125 -1.6442205 21 3205375143512 1 0
10.720875 -33.247017 2.0344007 57 3205375145816 1 0
14.562754 -54.10805 2.2828643 43 3205375148120 1 0
8.85928 -27.488308 -1.3453078 76 3205375148120 1 0
7.607395 -28.28256 -1.5349089 40 3205375150424 1 0
0 0 0 8 3205375152728 1 0
10.703674 -33.22842 4.2863884 68 3205375150424 1 0
10.229525 -27.148647 -1.1819766 72 3205375152728 1 0
6.265242 -28.886349 -1.0321875 41 3205375155032 1 0
0 0 0 9 3205375155032 1 0
7.929475 -29.533916 5.575502 29 3205375157336 1 0
0 0 0 4 3205375178072 1 0
8.94273 -27.8054 -0.6796559 62 3205375157336 1 0
12.634963 -33.70405 -0.62828666 11 3205375178072 1 0
0 0 0 9 3205375180376 1 0
1.8533962 -5.7929096 -1.702638 5 3205375180376 1 0
10.644715 -33.287426 0 68 3205375182680 1 0
11.781896 -54.840878 -0.6530182 16 3205375184984 1 0
2.2256992 -8.345251 -1.7274011 4 3205375182680 1 0
3.2224889 -10.082202 -1.6467284 7 3205375184984 1 0
15.566649 -41.598003 0.25814196 8 3205375187288 1 0
2.7721186 -10.406204 -1.3707678 23 3205375187288 1 0
14.448227 -54.26866 -0.32639706 20 3205375189592 1 0
4.771013 -14.942055 -1.689563 3 3205375189592 1 0
4.0264564 -18.78174 -1.793077 2 3205375191896 1 0
10.62004 -33.276985 0.8128141 75 3205375191896 1 0
11.736584 -54.785145 0.6522732 29 3205375194200 1 0
7.369073 -23.101957 -1.6956403 49 3205375194200 1 0
5.4835215 -20.63274 -1.742827 4 3205375196504 1 0
17.804148 -47.661617 1.4807082 16 3205375196504 1 0
14.403406 -54.227192 0.97935927 25 3205375198808 1 0
8.985383 -24.064503 -1.646267 39 3205375198808 1 0
4.117156 -19.259478 -1.1469666 2 3205375201112 1 1
10.594095 -33.262486 2.0330052 64 3205375201112 1 0
14.362523 -54.136734 2.2818873 65 3205375203416 1 0
8.910966 -27.99201 -1.3683873 48 3205375203416 1 0
7.5020585 -28.294153 -1.5340716 40 3205375205720 1 0
0 0 0 8 3205375208024 1 0
10.128333 -27.173765 -1.1814882 76 3205375208024 1 0
6.1689367 -28.939768 -1.0333043 41 3205375210328 1 0
0 0 0 9 3205375210328 1 0
7.8203716 -29.546711 5.572632 24 3205375212632 1 0
10.579902 -33.25137 4.2844386 62 3205375205720 1 0
10.581315 -33.306103 -0.81318635 35 3205375212632 1 0
0 0 0 4 3205375233368 1 0
12.773638 -48.546352 -1.4609267 10 3205375235672 1 0
12.515846 -33.744198 -0.6282168 16 3205375233368 1 0
1.8320029 -5.795671 -1.7015597 6 3205375235672 1 0
2.1945603 -8.345383 -1.7258321 4 3205375237976 1 0
10.52243 -33.30531 0 63 3205375237976 1 0
11.590394 -54.881668 -0.6530182 16 3205375240280 1 0
3.1860857 -10.08962 -1.6461135 8 3205375240280 1 0
2.7357771 -10.415817 -1.3707678 20 3205375242584 1 0
14.256675 -54.311028 -0.32635057 20 3205375244888 1 0
4.723612 -14.973788 -1.6912766 3 3205375244888 1 0
3.9608712 -18.795681 -1.793077 2 3205375247192 1 0
12.272918 -33.14837 0.20543952 5 3205375242584 1 0
10.499007 -33.298595 0.8124419 70 3205375247192 1 0
11.544452 -54.821865 0.6522266 39 3205375249496 1 0
7.287188 -23.123734 -1.6953614 44 3205375249496 1 0
5.4155083 -20.667181 -1.7441288 4 3205375251800 1 0
17.621037 -47.67847 1.4793118 65 3205375251800 1 0
14.213017 -54.27327 0.9792894 25 3205375254104 1 0
8.917927 -24.140656 -1.649337 47 3205375254104 1 0
4.0548296 -19.297178 -1.1483619 2 3205375256408 1 1
10.476725 -33.295456 2.0327728 57 3205375256408 1 0
8.816797 -28.03438 -1.3689456 43 3205375258712 1 0
7.4042583 -28.324032 -1.5342809 45 3205375261016 1 0
14.170429 -54.17494 2.2813988 64 3205375258712 1 0
10.459006 -33.27295 4.282489 68 3205375261016 1 0
0 0 0 8 3205375263320 1 0
10.023738 -27.182705 -1.1803483 68 3205375263320 1 0
6.0719795 -28.980688 -1.0340023 41 3205375265624 1 0
0 0 0 9 3205375265624 1 0
7.7181807 -29.577639 5.5733495 29 3205375267928 1 0
10.462596 -33.335205 -0.8130002 55 3205375267928 1 0
0 0 0 4 3205375288664 1 0
12.393847 -33.776417 -0.6280074 16 3205375288664 1 0
7.3385887 -28.291327 -0.8506072 9 3205375290968 1 0
1.8140574 -5.8093843 -1.7037163 6 3205375290968 1 0
10.403726 -33.3342 0 39 3205375293272 1 0
2.1683688 -8.364383 -1.7281855 5 3205375293272 1 0
3.156732 -10.119546 -1.649188 26 3205375295576 1 0
11.397938 -54.917877 -0.6529716 16 3205375295576 1 0
2.7013917 -10.432986 -1.371778 12 3205375297880 1 0
17.519644 -47.83156 0.2960589 11 3205375297880 1 0
0 0 0 14 3205375300184 1 0
4.6736813 -14.99778 -1.6921334 3 3205375300184 1 0
3.892815 -18.797693 -1.7919617 2 3205375302488 1 0
10.380331 -33.327408 0.8122558 80 3205375302488 1 0
11.353828 -54.865746 0.6522732 78 3205375304792 1 0
7.2064266 -23.14903 -1.6953614 36 3205375304792 1 0
5.3453274 -20.69368 -1.7447797 4 3205375307096 1 0
14.021482 -54.314804 0.9791498 25 3205375309400 1 0
17.440771 -47.702137 1.4781482 32 3205375307096 1 0
8.854158 -24.227877 -1.6531745 55 3205375309400 1 0
10.356882 -33.320385 2.0320752 64 3205375311704 1 0
3.9906752 -19.326859 -1.1492921 6 3205375311704 1 1
13.97924 -54.216335 2.281073 64 3205375314008 1 0
8.714144 -28.049723 -1.3682011 43 3205375314008 1 0
7.299363 -28.326496 -1.5330248 40 3205375316312 1 0
10.340444 -33.30167 4.2815137 62 3205375316312 1 0
0 0 0 8 3205375318616 1 0
9.923313 -27.20251 -1.179697 64 3205375318616 1 0
5.979648 -29.044777 -1.0355378 41 3205375320920 1 0
0 0 0 9 3205375320920 1 0
7.6158686 -29.60821 5.5740666 29 3205375323224 1 0
10.3438015 -33.363884 -0.8128141 50 3205375323224 1 0
0 0 0 4 3205375343960 1 0
12.288152 -33.85331 -0.6286357 16 3205375343960 1 0
0 0 0 37 3205375346264 1 0
1.7937677 -5.8156815 -1.7037163 6 3205375346264 1 0
2.1401296 -8.375701 -1.72897 4 3205375348568 1 0
10.284947 -33.362667 0 34 3205375348568 1 0
11.208567 -54.969086 -0.65311134 16 3205375350872 1 0
3.1144059 -10.10784 -1.6454986 29 3205375350872 1 0
2.6639762 -10.438508 -1.3712729 8 3205375353176 1 0
17.352573 -47.89242 0.2960589 11 3205375353176 1 0
7.239101 -28.382877 -0.17024258 11 3205375355480 1 0
4.6248107 -15.025405 -1.6934185 3 3205375355480 1 0
3.8351154 -18.850195 -1.7956795 2 3205375357784 1 0
10.2604065 -33.35197 0.8119767 80 3205375357784 1 0
11.163038 -54.908966 0.6523197 58 3205375360088 1 0
7.1302686 -23.1893 -1.6964774 28 3205375360088 1 0
5.2760115 -20.723803 -1.7457561 4 3205375362392 1 0
17.267353 -47.743927 1.4775664 48 3205375362392 1 0
13.8337755 -54.37117 0.9792894 25 3205375364696 1 0
8.787176 -24.307438 -1.6565002 55 3205375364696 1 0
3.9430337 -19.438509 -1.1551061 34 3205375367000 1 1
10.239337 -33.352516 2.0318425 49 3205375367000 1 0
8.606802 -28.04941 -1.3667122 43 3205375369304 1 0
13.787936 -54.257053 2.2807474 64 3205375369304 1 0
7.2024074 -28.359547 -1.5334436 40 3205375371608 1 0
0 0 0 8 3205375373912 1 0
9.825584 -27.229465 -1.1793714 68 3205375373912 1 0
10.222972 -33.333767 4.2810264 68 3205375371608 1 0
5.8758492 -29.053719 -1.035119 45 3205375376216 1 0
7.508602 -29.619356 5.571197 29 3205375378520 1 0
10.223764 -33.388317 -0.812535 25 3205375378520 1 0
0 0 0 4 3205375399256 1 0
12.142878 -33.820713 -0.62723947 11 3205375399256 1 0
0 0 0 9 3205375401560 1 0
0 0 0 9 3205375376216 1 0
1.7723762 -5.8182096 -1.702638 6 3205375401560 1 0
2.1119595 -8.386893 -1.7297544 4 3205375403864 1 0
8.541281 -28.052513 0 24 3205375403864 1 0
5.837261 -29.143145 -0.34601957 8 3205375406168 1 0
3.0793247 -10.118583 -1.6454986 24 3205375406168 1 0
2.625891 -10.43997 -1.3702627 9 3205375408472 1 0
17.178589 -47.92961 0.2959194 11 3205375408472 1 0
13.673537 -54.39478 -0.3259786 10 3205375410776 1 0
4.5751944 -15.048902 -1.6942753 3 3205375410776 1 0
3.7677739 -18.851585 -1.7945641 2 3205375413080 1 0
12.595107 -41.448875 1.0080384 20 3205375413080 1 0
10.971749 -54.935272 0.65218 39 3205375415384 1 0
7.057419 -23.236597 -1.6981516 15 3205375415384 1 0
5.2291045 -20.83846 -1.7538925 4 3205375417688 1 0
17.093945 -47.77656 1.4767519 48 3205375417688 1 0
13.648435 -54.422115 0.97935927 12 3205375419992 1 0
8.718653 -24.378738 -1.6593144 52 3205375419992 1 0
0 0 0 36 3205375422296 1 0
10.132235 -33.410248 2.033238 42 3205375422296 1 0
13.599891 -54.292133 2.2802591 64 3205375424600 1 0
8.3546095 -27.562382 -1.3415854 76 3205375424600 1 0
7.1116676 -28.407145 -1.5346996 40 3205375426904 1 0
0 0 0 3 3205375426904 1 0
0 0 0 8 3205375429208 1 0
9.730367 -27.255148 -1.1790457 68 3205375429208 1 0
0 0 0 9 3205375431512 1 0
5.7648907 -29.010729 -1.0328856 28 3205375431512 1 0
7.4074454 -29.64076 5.5704794 29 3205375433816 1 0
11.660074 -38.54404 -0.9370393 18 3205375433816 1 0
0 0 0 4 3205375454552 1 0
