# .PCD v.7 - Point Cloud Data file format
VERSION .7
FIELDS x y z rgb timestamp_ns device_id active
SIZE 4 4 4 4 8 1 1
TYPE F F F F F U U
COUNT 1 1 1 1 1 1 1
WIDTH 968
HEIGHT 1
VIEWPOINT 0 0 0 1 0 0 0
POINTS 968               
DATA ascii
-10.357044 18.482481 -0.24665128 34 3206320525800 1 0
-9.396841 13.487606 -2.5574098 9 3206320525800 1 0
-9.565627 15.274567 -2.2940412 19 3206320528104 1 0
-25.382427 32.892406 0.24147339 6 3206320528104 1 0
0 0 0 22 3206320530408 1 0
-8.760218 15.648901 -1.6741085 53 3206320532712 1 0
-10.796546 15.506266 -2.0352724 57 3206320530408 1 0
-13.263971 19.055952 0.5402632 4 3206320532712 1 0
-10.365823 18.523409 0.24711691 15 3206320535016 1 0
0 0 0 1 3206320535016 1 0
-9.551168 15.271222 -1.4704188 32 3206320537320 1 0
-25.365185 32.90963 1.2092353 5 3206320537320 1 0
-20.386127 32.605625 0.6712195 6 3206320539624 1 0
-15.909769 20.648071 -1.670571 2 3206320539624 1 0
-9.049035 16.18692 -1.0799905 1 3206320541928 1 0
0 0 0 9 3206320541928 1 0
-36.11521 57.80016 2.776725 29 3206320544232 1 0
-13.248463 19.063223 -1.0813833 2 3206320544232 1 0
-10.026464 16.051931 -0.99187106 7 3206320546536 1 0
-13.265416 19.093542 2.8546674 6 3206320546536 1 0
-11.596726 18.571863 1.7874148 8 3206320548840 1 0
-16.073168 20.885254 -1.0736952 3 3206320548840 1 0
-12.519919 22.42626 -0.89691705 7 3206320551144 1 0
-12.005164 17.290333 5.6401844 24 3206320551144 1 0
-12.280824 19.680166 4.229518 18 3206320553448 1 0
-13.282341 19.135715 -0.54203117 7 3206320553448 1 0
-2.1871285 3.5151365 -1.9305202 4 3206320574184 1 0
0 0 0 50 3206320574184 1 0
-11.304054 18.17427 -0.62288654 2 3206320576488 1 0
-4.2016 6.0722203 -2.0671039 4 3206320576488 1 0
-6.109622 9.826345 -2.314184 1 3206320578792 1 0
0 0 0 34 3206320578792 1 0
-9.79427 17.623964 -0.2347308 19 3206320581096 1 0
-9.335626 13.501227 -2.5537205 8 3206320581096 1 0
-9.488325 15.271342 -2.2884853 4 3206320583400 1 0
-25.143917 32.82351 0.24031101 6 3206320583400 1 0
-11.045873 17.784544 -0.121678226 34 3206320585704 1 0
-10.7050495 15.49229 -2.028418 55 3206320585704 1 0
-8.733166 15.732376 -1.6796852 52 3206320588008 1 0
0 0 0 12 3206320588008 1 0
-10.355491 18.661951 0.24846728 35 3206320590312 1 0
0 0 0 1 3206320590312 1 0
-9.464496 15.254759 -1.4655368 32 3206320592616 1 0
-25.219591 32.965977 1.2079554 5 3206320592616 1 0
-19.650282 31.6834 0.65076536 12 3206320594920 1 0
-15.973108 20.886292 -1.6851532 2 3206320594920 1 0
-8.966888 16.177805 -1.0771998 1 3206320597224 1 0
0 0 0 3 3206320597224 1 0
-19.59106 31.61049 1.515125 7 3206320599528 1 0
0 0 0 81 3206320599528 1 0
-9.942319 16.047825 -0.9893589 5 3206320601832 1 0
-14.227359 20.639141 3.0779321 6 3206320601832 1 0
-11.534606 18.624578 1.7883911 14 3206320604136 1 0
-16.085964 21.061779 -1.0797199 3 3206320604136 1 0
-9.974752 18.023357 -0.71934843 11 3206320606440 1 0
-11.908329 17.286839 5.6246557 15 3206320606440 1 0
0 0 0 14 3206320608744 1 0
-12.1725445 19.668694 4.217321 28 3206320608744 1 0
-2.1736155 3.5235085 -1.9305202 3 3206320629480 1 0
-24.979666 32.826138 -0.7200165 13 3206320629480 1 0
-19.48872 31.6022 -1.0805387 22 3206320631784 1 0
-4.1783423 6.088248 -2.0671039 4 3206320631784 1 0
-6.0885997 9.8762665 -2.3204598 1 3206320634088 1 0
-9.733086 17.671526 -0.2348705 30 3206320636392 1 0
-9.284307 13.53657 -2.5537205 8 3206320636392 1 0
-9.368068 15.205765 -2.273333 3 3206320638696 1 0
-24.925219 32.794163 0.23940435 6 3206320638696 1 0
0 0 0 3 3206320634088 1 0
-10.599396 15.463618 -2.019422 59 3206320641000 1 0
-10.911677 17.717041 -0.1209343 12 3206320641000 1 0
-8.704788 15.820867 -1.6856337 31 3206320643304 1 0
0 0 0 1 3206320643304 1 0
-10.245182 18.626932 0.24748942 22 3206320645608 1 0
-10.702389 15.623619 -1.3242569 1 3206320645608 1 0
-9.380471 15.245751 -1.461306 30 3206320647912 1 0
-24.985464 32.91316 1.2026026 5 3206320647912 1 0
-13.146083 21.372831 0.4379856 6 3206320650216 1 0
-15.88347 20.929491 -1.6838741 2 3206320650216 1 0
-8.999363 16.378807 -1.0883625 2 3206320652520 1 0
-12.462669 18.21036 1.2851049 3 3206320652520 1 0
-19.464146 31.665342 1.5143108 7 3206320654824 1 0
-12.589447 18.401348 -1.0385747 23 3206320654824 1 0
-9.87716 16.073948 -0.9887309 5 3206320657128 1 0
-13.2192335 19.327904 2.8751416 6 3206320657128 1 0
-11.2996 18.394802 1.7623545 5 3206320659432 1 0
-15.984825 21.088512 -1.0780916 3 3206320659432 1 0
-9.866846 17.982405 -0.71627724 22 3206320661736 1 0
-11.878098 17.37787 5.6401844 31 3206320661736 1 0
-12.115644 19.736124 4.222343 15 3206320664040 1 0
-12.539337 18.351004 -0.5171861 18 3206320664040 1 0
-2.1594102 3.5279822 -1.9288298 4 3206320684776 1 0
-24.792604 32.8174 -0.7179222 20 3206320684776 1 0
-19.380836 31.673162 -1.0806552 7 3206320687080 1 0
-4.1593223 6.105919 -2.0681822 4 3206320687080 1 0
-6.042095 9.877208 -2.315753 1 3206320689384 1 0
-12.491367 18.34259 0 24 3206320689384 1 0
-9.677866 17.715502 -0.23501019 21 3206320691688 1 0
-9.237591 13.568492 -2.5537205 9 3206320691688 1 0
-9.288913 15.19382 -2.2667673 3 3206320693992 1 0
-24.79805 32.860367 0.23926486 6 3206320693992 1 0
-10.800995 17.672321 -0.120376356 22 3206320696296 1 0
-10.512921 15.450435 -2.0129962 59 3206320696296 1 0
-8.679513 15.902839 -1.6912103 26 3206320698600 1 0
-12.464889 18.324324 0.5156973 6 3206320698600 1 0
-10.635919 15.64 -1.3225827 1 3206320700904 1 0
-9.304042 15.236487 -1.4574004 34 3206320703208 1 0
-10.0708885 18.4579 0.24478869 24 3206320700904 1 0
-24.770771 32.85999 1.197599 5 3206320703208 1 0
-20.063501 32.866066 0.67212707 13 3206320705512 1 0
-16.118176 21.3876 -1.7163645 2 3206320705512 1 0
-8.938788 16.398302 -1.0876648 2 3206320707816 1 0
-12.518383 18.4237 1.2971978 3 3206320707816 1 0
-89.48656 146.67445 7.000024 29 3206320710120 1 0
-12.498901 18.40021 -1.0361551 10 3206320710120 1 0
-9.840443 16.133894 -0.9904056 5 3206320712424 1 0
-14.216751 20.93503 3.1071808 7 3206320712424 1 0
-11.290694 18.517105 1.7704909 8 3206320714728 1 0
-15.982417 21.230577 -1.0826508 3 3206320714728 1 0
-12.594587 23.13372 -0.9198111 29 3206320717032 1 0
-11.836101 17.4392 5.6474314 24 3206320717032 1 0
-12.204575 20.027693 4.2761536 24 3206320719336 1 0
-12.452273 18.352232 -0.51606953 40 3206320719336 1 0
-2.1483161 3.5347488 -1.9288298 3 3206320740072 1 0
-24.598154 32.77358 -0.71526945 20 3206320740072 1 0
-10.922251 17.977198 -0.6121812 2 3206320742376 1 0
-4.1356688 6.112665 -2.0660255 4 3206320742376 1 0
-6.0126395 9.8997555 -2.3165374 1 3206320744680 1 0
-12.414951 18.355778 0 20 3206320744680 1 0
-10.076604 18.586828 -0.24613906 24 3206320746984 1 0
-9.185173 13.58495 -2.5512607 9 3206320746984 1 0
-9.254217 15.247478 -2.2703028 3 3206320749288 1 0
-24.591055 32.80584 0.23828846 6 3206320749288 1 0
-10.68747 17.615005 -0.11974867 26 3206320751592 1 0
-10.42479 15.428508 -2.0057135 57 3206320751592 1 0
-8.659666 15.990693 -1.6975305 24 3206320753896 1 0
-12.382473 18.331879 0.51476675 21 3206320753896 1 0
-9.987178 18.448767 0.24422993 26 3206320756200 1 0
-10.508416 15.562517 -1.3130958 1 3206320756200 1 0
-24.5778 32.829926 1.1935264 5 3206320758504 1 0
0 0 0 57 3206320758504 1 0
-10.979915 18.121964 0.3698514 6 3206320760808 1 0
0 0 0 18 3206320760808 1 0
0 0 0 26 3206320763112 1 0
0 0 0 12 3206320763112 1 0
-87.9716 145.29416 6.919912 29 3206320765416 1 0
-12.445544 18.45562 -1.0368996 5 3206320765416 1 0
-9.814433 16.215134 -0.99333644 7 3206320767720 1 0
0 0 0 14 3206320767720 1 0
-11.204501 18.518148 1.7669109 14 3206320770024 1 0
-15.990959 21.39404 -1.088187 3 3206320770024 1 0
-12.476784 23.106647 -0.9170192 25 3206320772328 1 0
-11.635599 17.27161 5.5801387 14 3206320772328 1 0
-12.147244 20.090113 4.2804585 9 3206320774632 1 0
-12.381837 18.385366 -0.51579034 6 3206320774632 1 0
-2.1372178 3.545704 -1.9305202 3 3206320795368 1 0
-24.4277 32.796158 -0.7138034 20 3206320795368 1 0
0 0 0 16 3206320797672 1 0
-4.115473 6.1309204 -2.0671039 5 3206320797672 1 0
-5.978627 9.924912 -2.317322 1 3206320799976 1 0
0 0 0 7 3206320799976 1 0
-9.999757 18.605585 -0.24590623 24 3206320802280 1 0
-9.131511 13.611561 -2.550031 8 3206320802280 1 0
-9.166415 15.226367 -2.2622216 3 3206320804584 1 0
-10.624121 17.653286 -0.11974867 26 3206320806888 1 0
-24.37945 32.76917 0.2373818 6 3206320804584 1 0
-10.331646 15.409703 -1.998431 60 3206320806888 1 0
-8.643846 16.09877 -1.7057096 31 3206320809192 1 0
-12.316804 18.376064 0.51476675 12 3206320809192 1 0
-9.913809 18.470142 0.24404366 21 3206320811496 1 0
-11.53239 17.2109 -1.4487025 1 3206320811496 1 0
0 0 0 9 3206320813800 1 0
-24.403902 32.83992 1.1907338 5 3206320813800 1 0
-10.862228 18.071533 0.36803636 36 3206320816104 1 0
-16.13031 21.712551 -1.7335051 8 3206320816104 1 0
-12.388529 23.103703 -1.5267307 60 3206320818408 1 0
-12.269161 18.326878 1.2844073 12 3206320818408 1 0
0 0 0 46 3206320820712 1 0
0 0 0 14 3206320820712 1 0
-12.886535 19.260582 2.8454053 11 3206320823016 1 0
-9.751603 16.239021 -0.99270844 7 3206320823016 1 0
-11.133906 18.54673 1.7659345 8 3206320825320 1 0
-16.030813 21.603556 -1.0960028 3 3206320825320 1 0
-9.820757 18.339325 -0.7264679 11 3206320827624 1 0
-11.749701 17.571941 5.663996 13 3206320827624 1 0
-12.600231 21.002468 4.465567 13 3206320829928 1 0
-12.373946 18.511051 -0.51811665 4 3206320829928 1 0
-2.1217256 3.5465498 -1.9271393 3 3206320850664 1 0
-25.3534 34.27566 -0.7441706 14 3206320850664 1 0
-10.866255 18.16968 -0.6161375 31 3206320852968 1 0
-4.0971665 6.147799 -2.0681822 4 3206320852968 1 0
-5.9534435 9.9583235 -2.3204598 1 3206320855272 1 0
-12.324204 18.498594 0 2 3206320855272 1 0
-9.09011 13.648744 -2.5512607 9 3206320857576 1 0
-10.014339 18.783785 -0.24781539 22 3206320857576 1 0
-9.147545 15.311712 -2.2703028 4 3206320859880 1 0
-24.24497 32.819073 0.23714933 6 3206320859880 1 0
-10.549879 17.66515 -0.11958594 26 3206320862184 1 0
-10.246313 15.394966 -1.9920051 56 3206320862184 1 0
-8.622703 16.19137 -1.7124015 39 3206320864488 1 0
-12.30957 18.50111 0.51709306 2 3206320864488 1 0
-10.1494665 19.065285 0.2514474 20 3206320866792 1 0
-11.3961525 17.13393 -1.4389366 1 3206320866792 1 0
0 0 0 95 3206320869096 1 0
-24.2127 32.817318 1.1868938 5 3206320869096 1 0
-16.060108 21.774448 -1.7340168 11 3206320871400 1 0
-10.844939 18.184435 0.36957216 17 3206320871400 1 0
-9.473686 17.815536 -1.1751059 14 3206320873704 1 0
0 0 0 6 3206320873704 1 0
-82.75653 138.8598 6.585787 29 3206320876008 1 0
-12.519792 18.84826 -1.054023 57 3206320876008 1 0
-12.107655 18.23384 2.6874628 7 3206320878312 1 0
-11.099427 18.637022 1.7708164 8 3206320880616 1 0
-9.6621475 16.218054 -0.9893589 7 3206320878312 1 0
-15.902842 21.58882 -1.0924206 3 3206320880616 1 0
-9.816138 18.486761 -0.73093504 34 3206320882920 1 0
-11.555327 17.413588 5.5998087 27 3206320882920 1 0
-12.06707 20.275873 4.301983 21 3206320885224 1 0
-17.859184 26.922264 -0.7517716 4 3206320885224 1 0
-2.1105623 3.5574203 -1.9288298 3 3206320905960 1 0
-24.049051 32.76278 -0.7094054 20 3206320905960 1 0
-10.824195 18.250574 -0.61753386 20 3206320908264 1 0
-4.074651 6.162745 -2.0681822 5 3206320908264 1 0
-5.931052 10.003608 -2.325951 1 3206320910568 1 0
-21.641474 32.742207 0 5 3206320910568 1 0
-9.92528 18.781246 -0.24730317 27 3206320912872 1 0
-9.04468 13.688367 -2.5524905 8 3206320912872 1 0
-10.4611435 17.65599 -2.612237 18 3206320915176 1 0
-24.02378 32.768303 0.23614968 6 3206320915176 1 0
-10.481629 17.696434 -0.11953944 28 3206320917480 1 0
-8.608631 16.30702 -1.7213242 34 3206320919784 1 0
-21.57471 32.682518 0.9112637 5 3206320919784 1 0
-10.084227 19.10892 0.2515405 30 3206320922088 1 0
0 0 0 1 3206320922088 1 0
-9.060841 15.312911 -1.4525186 16 3206320924392 1 0
-24.042204 32.83347 1.1843338 5 3206320924392 1 0
-10.722397 18.126972 0.3676175 34 3206320926696 1 0
-15.91796 21.745153 -1.7271094 5 3206320926696 1 0
-10.14436 15.362353 -1.983009 52 3206320917480 1 0
-12.275527 23.285892 -1.5330096 64 3206320929000 1 0
-12.427517 18.849705 1.3148721 16 3206320929000 1 0
-82.11376 138.91133 6.574226 29 3206320931304 1 0
-12.480721 18.936398 -1.0564426 52 3206320931304 1 0
-9.569511 16.19406 -0.9858001 10 3206320933608 1 0
-12.057629 18.300251 2.690875 7 3206320933608 1 0
-15.891703 21.735804 -1.0969797 3 3206320935912 1 0
-12.277134 23.32182 -0.9203695 32 3206320938216 1 0
-11.05106 18.70743 1.7737455 17 3206320935912 1 0
-11.480454 17.435291 5.5935974 13 3206320938216 1 0
-12.0329 20.383041 4.3156147 9 3206320940520 1 0
-17.857876 27.12923 -0.7557729 4 3206320940520 1 0
-2.0999706 3.56789 -1.9305202 3 3206320961256 1 0
-23.88037 32.772186 -0.7077998 13 3206320961256 1 0
-10.888161 18.505348 -0.6248647 14 3206320963560 1 0
-4.0510006 6.1737103 -2.0671039 4 3206320963560 1 0
-5.886154 10.007346 -2.3220286 1 3206320965864 1 0
-21.50511 32.784103 0 5 3206320965864 1 0
-9.748273 18.60321 -0.24450931 26 3206320968168 1 0
-9.001178 13.726465 -2.5537205 9 3206320968168 1 0
-10.397438 17.68898 -2.611732 16 3206320970472 1 0
-23.871593 32.800217 0.23577772 6 3206320970472 1 0
-10.944633 18.626112 -0.12556058 25 3206320972776 1 0
-10.057975 15.347775 -1.9765831 16 3206320972776 1 0
-8.58675 16.404013 -1.728388 31 3206320975080 1 0
-21.381605 32.637207 0.90791386 5 3206320975080 1 0
-9.956267 19.027056 0.2500039 39 3206320977384 1 0
0 0 0 1 3206320977384 1 0
-8.997243 15.327255 -1.4508913 4 3206320979688 1 0
-23.828709 32.78136 1.1794466 5 3206320979688 1 0
-10.642864 18.136696 0.36705902 34 3206320981992 1 0
0 0 0 54 3206320981992 1 0
-9.201122 17.602617 -1.156734 52 3206320984296 1 0
-12.320103 18.829481 1.3104535 6 3206320984296 1 0
-81.563675 139.08679 6.5690155 29 3206320986600 1 0
-12.519531 19.140354 -1.0653766 44 3206320986600 1 0
-9.415957 16.061954 -0.9757516 52 3206320988904 1 0
-12.573805 19.229433 2.8210316 97 3206320988904 1 0
-11.124776 18.983223 1.7962021 9 3206320991208 1 0
-15.886162 21.88818 -1.1018647 3 3206320991208 1 0
-12.212298 23.396427 -0.9216259 14 3206320993512 1 0
-12.607985 21.528511 4.5487943 16 3206320995816 1 0
-13.5056 20.667576 6.6154146 15 3206320993512 1 0
-2.0875037 3.5751987 -1.9305202 3 3206321016552 1 0
-17.872421 27.358795 -0.7604255 4 3206320995816 1 0
-23.709572 32.777573 -0.70612437 20 3206321016552 1 0
-10.787218 18.481087 -0.62277013 31 3206321018856 1 0
-4.0294256 6.1878133 -2.0671039 4 3206321018856 1 0
-5.845256 10.017668 -2.3196752 1 3206321021160 1 0
-21.318527 32.748344 0 5 3206321021160 1 0
-9.686964 18.644222 -0.24460244 30 3206321023464 1 0
-8.948897 13.751176 -2.5524905 9 3206321023464 1 0
-10.279663 17.629187 -2.59759 9 3206321025768 1 0
-23.642174 32.72447 0.23463859 6 3206321025768 1 0
-10.895664 18.691849 -0.12574656 27 3206321028072 1 0
0 0 0 6 3206321028072 1 0
-8.582643 16.536398 -1.7391694 22 3206321030376 1 0
-21.256653 32.69488 0.9074486 5 3206321030376 1 0
-9.8013735 18.891277 0.24776882 28 3206321032680 1 0
-10.163681 15.637748 -1.304167 1 3206321032680 1 0
-8.945692 15.362014 -1.4512167 3 3206321034984 1 0
-23.618212 32.7314 1.1746758 5 3206321034984 1 0
-10.62778 18.25669 0.36873445 23 3206321037288 1 0
-11.417393 15.827694 -1.2507536 8 3206321037288 1 0
-9.095522 17.54954 -1.1511526 60 3206321039592 1 0
-12.245602 18.858976 1.3095233 39 3206321039592 1 0
-80.74004 138.79028 6.54166 29 3206321041896 1 0
-12.511381 19.27443 -1.070402 35 3206321041896 1 0
-9.351801 16.080912 -0.9749142 42 3206321044200 1 0
-12.515249 19.28653 2.8229814 25 3206321044200 1 0
-11.124567 19.13568 1.8069422 9 3206321046504 1 0
-17.881948 24.819794 -1.2462941 4 3206321046504 1 0
-9.073112 17.531258 -0.68933487 31 3206321048808 1 0
-13.626781 21.01283 6.71066 9 3206321048808 1 0
-12.509038 21.531559 4.5401845 10 3206321051112 1 0
-17.818144 27.48477 -0.7621935 4 3206321051112 1 0
-2.0762615 3.581739 -1.9305202 3 3206321071296 1 0
-25.310162 35.222816 -0.7570854 14 3206321071296 1 0
-10.44043 18.016726 -0.606014 68 3206321073600 1 0
-5.8098235 10.029194 -2.3181064 1 3206321075904 1 0
-4.0099664 6.2004414 -2.0671039 5 3206321073600 1 0
-9.584353 18.589243 -0.2434849 19 3206321078208 1 0
-21.119984 32.66736 0 5 3206321075904 1 0
-8.903507 13.775903 -2.5518756 9 3206321078208 1 0
-10.196397 17.613317 -2.590519 5 3206321080512 1 0
-23.515928 32.766087 0.2344061 6 3206321080512 1 0
-10.64856 18.400557 -0.123561285 23 3206321082816 1 0
-9.98833 15.464255 -1.983009 17 3206321082816 1 0
-9.02119 17.515722 -1.8391773 22 3206321085120 1 0
-21.11262 32.69767 0.9056806 5 3206321085120 1 0
-9.90126 19.231356 0.2518199 24 3206321087424 1 0
-10.0366 15.54891 -1.2941221 1 3206321087424 1 0
-8.911354 15.414202 -1.4534949 1 3206321089728 1 0
-23.42675 32.68195 1.170254 5 3206321089728 1 0
-11.33041 15.811569 -1.2466604 31 3206321092032 1 0
-10.828528 18.736675 0.37773988 29 3206321092032 1 0
-9.000164 17.499903 -1.1460364 60 3206321094336 1 0
-12.166818 18.86715 1.3074303 32 3206321094336 1 0
-12.022102 18.648693 -1.0335493 18 3206321096640 1 0
-80.13972 138.75945 6.528308 29 3206321096640 1 0
-9.463014 16.39042 -0.99187106 10 3206321098944 1 0
-10.90696 18.897755 1.781231 25 3206321101248 1 0
-17.799234 24.869349 -1.2459685 4 3206321101248 1 0
-12.4632 19.3391 2.8249314 23 3206321098944 1 0
-8.986944 17.499222 -0.6869617 49 3206321103552 1 0
-13.566977 21.06528 6.713766 35 3206321103552 1 0
-11.859374 20.561752 4.3278117 12 3206321105856 1 0
-17.842113 27.712088 -0.7669392 4 3206321105856 1 0
-2.0637462 3.5889647 -1.9305202 3 3206321126592 1 0
-25.259054 35.41189 -0.7592495 22 3206321126592 1 0
-10.443232 18.167452 -0.609854 30 3206321128896 1 0
-3.9903789 6.217643 -2.0681822 4 3206321128896 1 0
-5.7806425 10.059615 -2.3204598 2 3206321131200 1 0
-20.995026 32.72405 0 5 3206321131200 1 0
-9.543074 18.668882 -0.24409023 26 3206321133504 1 0
-8.855366 13.806898 -2.5518756 8 3206321133504 1 0
-10.107189 17.600628 -2.583448 3 3206321135808 1 0
-23.308575 32.717663 0.23347619 6 3206321135808 1 0
-9.839861 15.351704 -1.9641598 4 3206321138112 1 0
-7.525525 14.737865 -1.5447304 23 3206321140416 1 0
-10.721671 18.676975 -0.12516537 31 3206321138112 1 0
-20.922844 32.653324 0.90242374 5 3206321140416 1 0
-9.775881 19.151802 0.25032985 28 3206321142720 1 0
-9.846669 15.372168 -1.2765435 1 3206321142720 1 0
-23.28239 32.721176 1.1687413 5 3206321145024 1 0
0 0 0 85 3206321145024 1 0
-10.71731 18.694557 0.37613428 14 3206321147328 1 0
0 0 0 9 3206321147328 1 0
-8.904559 17.463621 -1.1416178 62 3206321149632 1 0
-12.178371 19.03059 1.3158023 9 3206321149632 1 0
0 0 0 14 3206321151936 1 0
-11.913868 18.623228 -1.0298269 7 3206321151936 1 0
-9.421624 16.451082 -0.9935458 5 3206321154240 1 0
-12.408452 19.402555 2.8278563 11 3206321154240 1 0
-10.9815645 19.18136 1.8043386 12 3206321156544 1 0
-17.7725 25.016039 -1.250202 4 3206321156544 1 0
-8.891344 17.462801 -0.6843093 49 3206321158848 1 0
-13.322744 20.845552 6.6288733 31 3206321158848 1 0
0 0 0 13 3206321161152 1 0
-24.268951 37.984806 -1.0488884 7 3206321161152 1 0
-2.0512059 3.5961466 -1.9305202 3 3206321181888 1 0
-25.239288 35.646725 -0.7623909 14 3206321181888 1 0
-10.718416 18.797735 -0.62975186 30 3206321184192 1 0
-3.9727893 6.238032 -2.0703387 5 3206321184192 1 0
0 0 0 73 3206321186496 1 0
-20.857038 32.760017 0 5 3206321186496 1 0
-9.528475 18.801977 -0.24539404 17 3206321188800 1 0
-8.883516 13.957763 -2.5740125 10 3206321188800 1 0
-10.05551 17.653042 -2.5859733 24 3206321191104 1 0
-23.099537 32.664925 0.23252304 6 3206321191104 1 0
-10.618805 18.648245 -0.124723665 59 3206321193408 1 0
-9.715778 15.275219 -1.950023 2 3206321193408 1 0
-7.4452534 14.707191 -1.538782 22 3206321195712 1 0
-20.74651 32.628296 0.8997252 5 3206321195712 1 0
-9.624087 19.018076 0.24814133 24 3206321198016 1 0
-9.919243 15.605129 -1.293006 1 3206321198016 1 0
-8.862663 15.579998 -1.4632587 12 3206321200320 1 0
-23.087297 32.687943 1.1646687 5 3206321200320 1 0
-10.545231 18.544119 0.37236455 10 3206321202624 1 0
-11.822987 16.744635 -1.3136878 1 3206321202624 1 0
-8.811118 17.430449 -1.1374319 62 3206321204928 1 0
-12.171806 19.167372 1.3223139 19 3206321204928 1 0
-35.300552 62.119175 2.9108963 87 3206321207232 1 0
-11.786686 18.566875 -1.0244292 12 3206321207232 1 0
-10.277668 18.091969 -1.090472 5 3206321209536 1 0
-12.468288 19.64688 2.8571048 15 3206321209536 1 0
-10.877136 19.153708 1.7981548 30 3206321211840 1 0
-8.844744 17.52228 -0.6854261 49 3206321214144 1 0
-17.793325 25.231436 -1.2578549 4 3206321211840 1 0
-13.208512 20.826674 6.6081676 15 3206321214144 1 0
-11.7874 20.770674 4.3543587 12 3206321216448 1 0
-20.705923 32.658802 -0.89981824 5 3206321216448 1 0
-2.0386405 3.6032848 -1.9305202 3 3206321237184 1 0
-25.195192 35.849133 -0.7648343 7 3206321237184 1 0
-10.727394 18.967363 -0.63417363 12 3206321239488 1 0
-3.9427137 6.2388654 -2.0660255 5 3206321239488 1 0
-5.7217083 10.1202965 -2.3251667 17 3206321241792 1 0
-20.652353 32.690895 0 5 3206321241792 1 0
-8.9147415 17.74524 -0.23119192 15 3206321244096 1 0
-8.866092 14.039007 -2.583236 7 3206321244096 1 0
-9.497552 16.810818 -2.4576848 5 3206321246400 1 0
-10.490022 18.57413 -0.12397974 31 3206321248704 1 0
-9.627881 15.255581 -1.9431689 4 3206321248704 1 0
-22.959145 32.710014 0.23226732 6 3206321246400 1 0
-7.364648 14.676459 -1.5328336 22 3206321251008 1 0
-20.564917 32.596573 0.8968406 5 3206321251008 1 0
-8.900313 17.743532 0.23109879 16 3206321253312 1 0
-9.738327 15.4410305 -1.2765435 1 3206321253312 1 0
-8.8229885 15.63913 -1.4658624 1 3206321255616 1 0
-13.3181715 18.99914 0.67524946 6 3206321255616 1 0
-10.467432 18.5606 0.37194568 40 3206321257920 1 0
-11.790855 16.825802 -1.3167578 1 3206321257920 1 0
-8.722119 17.408182 -1.1339434 64 3206321260224 1 0
-12.105557 19.214 1.3225465 32 3206321260224 1 0
-11.076705 19.654978 0.9191704 6 3206321262528 1 0
-11.673468 18.534462 -1.0203345 22 3206321262528 1 0
-10.169737 18.05206 -1.0858665 14 3206321264832 1 0
-11.921967 18.935425 2.7474225 33 3206321264832 1 0
-10.802527 19.182161 1.7971785 9 3206321267136 1 0
-8.813932 17.618294 -0.68793887 55 3206321269440 1 0
-17.780666 25.406397 -1.2633911 4 3206321267136 1 0
-13.04719 20.73664 6.5646863 9 3206321269440 1 0
-11.405702 20.267698 4.2402797 9 3206321271744 1 0
-20.566935 32.699276 -0.89888775 5 3206321271744 1 0
-13.31877 19.099113 -0.40643165 7 3206321292480 1 0
-2.0271935 3.6138942 -1.9322107 3 3206321292480 1 0
-9.973616 17.785803 -0.5934469 23 3206321294784 1 0
-3.9199116 6.253217 -2.0660255 5 3206321294784 1 0
-5.675282 10.123927 -2.3212442 18 3206321297088 1 0
-20.501488 32.71493 0 5 3206321297088 1 0
-9.2996235 18.679707 -0.24292612 16 3206321299392 1 0
-8.823585 14.084422 -2.5856957 7 3206321299392 1 0
0 0 0 19 3206321301696 1 0
-9.421338 16.817272 -2.453644 17 3206321301696 1 0
-10.456453 18.671022 -0.124374956 27 3206321304000 1 0
-9.5434675 15.242878 -1.9371715 2 3206321304000 1 0
-7.2890344 14.656357 -1.5280005 22 3206321306304 1 0
-20.38451 32.568253 0.894049 5 3206321306304 1 0
-9.369424 18.846012 0.24502152 14 3206321308608 1 0
0 0 0 1 3206321308608 1 0
0 0 0 41 3206321310912 1 0
0 0 0 130 3206321310912 1 0
-10.546237 18.855778 0.37711158 24 3206321313216 1 0
-11.765504 16.916527 -1.3205953 4 3206321313216 1 0
-8.683884 17.485268 -1.1369667 64 3206321315520 1 0
0 0 0 20 3206321317824 1 0
-12.046321 19.270035 1.3234767 22 3206321315520 1 0
-11.561843 18.500721 -1.0162398 27 3206321317824 1 0
-12.22182 19.5628 2.8322434 28 3206321320128 1 0
-12.511062 22.390497 -1.3441967 7 3206321320128 1 0
-10.902983 19.518923 1.8251679 9 3206321322432 1 0
0 0 0 21 3206321322432 1 0
-8.774207 17.691673 -0.68961406 26 3206321324736 1 0
-11.42592 20.468388 4.274001 42 3206321327040 1 0
-11.300571 18.104904 -0.49662152 2 3206321327040 1 0
-2.0116723 3.6142616 -1.9288298 4 3206321347776 1 0
-12.940543 20.725964 6.5470867 30 3206321324736 1 0
-13.230318 19.107006 -0.40566373 10 3206321347776 1 0
-11.216791 20.159842 -0.67140955 16 3206321350080 1 0
-3.9010975 6.2695093 -2.0671039 5 3206321350080 1 0
-20.303202 32.640675 0 5 3206321352384 1 0
-5.64329 10.146283 -2.3220286 21 3206321352384 1 0
-9.204943 18.646288 -0.24208796 30 3206321354688 1 0
-8.769953 14.103918 -2.583851 8 3206321354688 1 0
-9.3606825 16.84203 -2.452634 14 3206321356992 1 0
0 0 0 3 3206321356992 1 0
-9.458173 15.221085 -1.9303172 4 3206321359296 1 0
-7.2179747 14.638215 -1.5235392 22 3206321361600 1 0
-13.158394 21.183084 0.5802758 2 3206321361600 1 0
-9.29965 18.867163 0.24488182 14 3206321363904 1 0
-10.4514 18.811247 -0.12507239 36 3206321359296 1 0
-9.630291 15.50864 -1.2765435 1 3206321363904 1 0
-8.746481 15.7596035 -1.4713951 61 3206321366208 1 0
-12.371784 17.913847 0.63359183 111 3206321366208 1 0
-10.382226 18.71366 0.3735513 44 3206321368512 1 0
-11.287553 16.349264 -1.2732667 2 3206321368512 1 0
-7.2563467 14.738726 -0.95673573 15 3206321370816 1 0
-12.200569 19.667921 1.347895 23 3206321370816 1 0
-10.855891 19.581524 0.91216874 9 3206321373120 1 0
-11.442713 18.452509 -1.0114005 30 3206321373120 1 0
-9.979567 18.00732 -1.078958 5 3206321375424 1 0
-11.680708 18.842724 2.7220736 28 3206321375424 1 0
-10.902118 19.679077 1.8365589 25 3206321377728 1 0
-12.654823 18.353634 -0.9082608 15 3206321377728 1 0
-10.191491 20.732393 -0.80673677 18 3206321380032 1 0
-11.551722 20.86669 4.3486185 15 3206321382336 1 0
-12.159434 19.628366 6.1868105 11 3206321380032 1 0
0 0 0 11 3206321382336 1 0
-2.0001633 3.6247845 -1.9305202 3 3206321403072 1 0
-12.589493 18.324677 -0.38807172 18 3206321403072 1 0
-3.878138 6.283737 -2.0671039 5 3206321405376 1 0
-5.608106 10.170252 -2.3228133 23 3206321407680 1 0
-9.980396 18.093138 -0.60135955 5 3206321405376 1 0
-9.133431 18.672516 -0.24199484 21 3206321409984 1 0
-8.7164345 14.132412 -2.583236 9 3206321409984 1 0
0 0 0 11 3206321407680 1 0
-9.303212 16.882906 -2.453644 7 3206321412288 1 0
-12.551113 18.291605 0.1289315 6 3206321412288 1 0
-10.371489 18.828028 -0.1249329 44 3206321414592 1 0
-9.404963 15.258692 -1.9307456 2 3206321414592 1 0
0 0 0 12 3206321416896 1 0
-7.142185 14.61774 -1.5187061 30 3206321416896 1 0
-9.213844 18.864712 0.24441618 17 3206321419200 1 0
-9.503024 15.427833 -1.2670566 1 3206321419200 1 0
-8.706878 15.822485 -1.4743242 45 3206321421504 1 0
0 0 0 100 3206321421504 1 0
-10.25311 18.638777 0.3713174 29 3206321423808 1 0
-10.784174 15.741048 -1.2228682 1 3206321423808 1 0
-7.2033515 14.764698 -0.95673573 14 3206321426112 1 0
-11.947762 19.415747 1.3276627 10 3206321426112 1 0
-10.304289 18.744722 0.87146145 27 3206321428416 1 0
-11.282272 18.340267 -1.0030249 40 3206321428416 1 0
-9.859284 17.94139 -1.0728871 8 3206321430720 1 0
-11.827428 19.23273 2.7722838 19 3206321430720 1 0
-10.841378 19.73535 1.8381861 15 3206321433024 1 0
-12.54407 18.332733 -0.90500426 36 3206321433024 1 0
-10.059774 20.649982 -0.80213004 31 3206321435328 1 0
-11.713137 19.059303 5.994249 7 3206321435328 1 0
-11.204759 20.410904 4.245302 9 3206321437632 1 0
0 0 0 3 3206321437632 1 0
-1.9840174 3.625384 -1.9271393 3 3206321458368 1 0
-12.514185 18.35199 -0.38772267 24 3206321458368 1 0
-9.923067 18.138317 -0.6017086 22 3206321460672 1 0
-3.8582375 6.300493 -2.0681822 5 3206321460672 1 0
-5.5746017 10.193126 -2.3235977 31 3206321462976 1 0
-10.749285 17.559004 0 56 3206321462976 1 0
-8.671485 14.169306 -2.584466 7 3206321465280 1 0
-9.0982685 18.765268 -0.24278644 29 3206321465280 1 0
-12.471959 18.3118 0.12876876 21 3206321467584 1 0
-9.166693 16.772251 -2.4329362 24 3206321467584 1 0
-9.296172 15.199485 -1.9191791 2 3206321469888 1 0
-7.0674505 14.592091 -1.5135012 28 3206321472192 1 0
-10.974477 17.949127 0.48954952 26 3206321472192 1 0
-10.281458 18.81811 -0.124630675 44 3206321469888 1 0
-9.267423 19.141092 0.24758255 24 3206321474496 1 0
0 0 0 100 3206321474496 1 0
-8.6888075 15.918767 -1.480508 45 3206321476800 1 0
-12.346576 18.149258 0.6388281 111 3206321476800 1 0
-10.068524 18.452608 0.3669194 32 3206321479104 1 0
-7.1163325 14.713741 -0.951852 1 3206321481408 1 0
-10.640403 15.645861 -1.2126349 1 3206321479104 1 0
-12.805364 20.969637 1.4309176 7 3206321481408 1 0
-10.194376 18.695545 0.8675536 68 3206321483712 1 0
-11.132213 18.235403 -0.99520767 57 3206321483712 1 0
-12.577977 23.074432 -1.3772731 12 3206321486016 1 0
-12.231386 20.04216 2.8829412 21 3206321486016 1 0
-10.806723 19.831568 1.843719 9 3206321488320 1 0
-10.008862 20.72355 -0.80366564 28 3206321490624 1 0
-12.486229 18.38184 -0.90532994 6 3206321488320 1 0
0 0 0 77 3206321490624 1 0
-11.305052 20.75971 4.309875 45 3206321492928 1 0
-19.316666 31.681515 -0.86343473 5 3206321492928 1 0
-1.9737141 3.6351292 -1.9288298 3 3206321513664 1 0
-12.430837 18.36027 -0.38702455 4 3206321513664 1 0
-9.967501 18.36454 -0.6081085 5 3206321515968 1 0
-3.83323 6.306725 -2.0660255 4 3206321515968 1 0
-5.538602 10.208269 -2.3228133 25 3206321518272 1 0
-10.925191 17.981152 0 36 3206321518272 1 0
-8.623831 14.1983595 -2.584466 8 3206321520576 1 0
-9.007444 18.738052 -0.2420414 27 3206321520576 1 0
-9.074112 16.736809 -2.4233398 5 3206321522880 1 0
-12.405618 18.347153 0.12872227 6 3206321522880 1 0
-10.230968 18.87746 -0.12479341 38 3206321525184 1 0
0 0 0 65 3206321525184 1 0
-6.995337 14.569386 -1.5086681 28 3206321527488 1 0
-10.809607 17.815432 0.4848969 22 3206321527488 1 0
-8.84889 18.437048 0.23808344 13 3206321529792 1 0
-9.33906 15.397109 -1.2592438 57 3206321529792 1 0
-8.672076 16.018616 -1.4870172 35 3206321532096 1 0
-10.052445 18.57514 0.36866462 36 3206321534400 1 0
-10.597574 15.698988 -1.2139142 1 3206321534400 1 0
-7.127501 14.867917 -0.9602241 1 3206321536704 1 0
-12.896178 21.28364 1.4492896 18 3206321536704 1 0
-12.311056 18.231293 0.64022446 178 3206321532096 1 0
-10.135031 18.741415 0.86804205 41 3206321539008 1 0
-11.023215 18.198803 -0.99111295 49 3206321539008 1 0
-12.499255 23.121712 -1.3774824 68 3206321541312 1 0
-11.891968 19.63984 2.8190815 20 3206321541312 1 0
-12.446296 18.461948 -0.90712106 4 3206321543616 1 0
-10.636689 19.683434 1.8264697 18 3206321543616 1 0
-12.157059 25.39933 -0.9833282 31 3206321545920 1 0
0 0 0 38 3206321545920 1 0
-10.049926 18.611204 3.8564305 21 3206321548224 1 0
-22.913443 37.881203 -1.0301849 15 3206321548224 1 0
-1.9586593 3.6391466 -1.9271393 3 3206321568960 1 0
-9.898498 18.397285 -0.6079922 35 3206321571264 1 0
-3.810181 6.320677 -2.0660255 5 3206321571264 1 0
-12.39468 18.452187 -0.3880019 4 3206321568960 1 0
-5.492157 10.211069 -2.3188908 15 3206321573568 1 0
-11.631893 19.302082 0 11 3206321573568 1 0
-8.944684 18.781384 -0.24218109 24 3206321575872 1 0
-8.576433 14.236269 -2.5856957 7 3206321575872 1 0
-8.989262 16.723995 -2.4167738 3 3206321578176 1 0
-12.332673 18.381815 0.12865253 4 3206321578176 1 0
-10.111967 18.818958 -0.12416572 38 3206321580480 1 0
-9.146757 15.192463 -1.910183 86 3206321580480 1 0
-6.9209213 14.547567 -1.5038351 26 3206321582784 1 0
-10.754044 17.867699 0.4852691 26 3206321582784 1 0
-8.637122 18.161438 0.23412547 11 3206321585088 1 0
-9.259448 15.389261 -1.2558955 59 3206321585088 1 0
-8.649115 16.112518 -1.4928753 32 3206321587392 1 0
-12.270763 18.311405 0.64150447 209 3206321587392 1 0
-9.992406 18.621124 0.36887407 29 3206321589696 1 0
0 0 0 4 3206321589696 1 0
-6.9894495 14.712566 -0.94859624 1 3206321592000 1 0
-11.798699 19.627926 1.3337091 37 3206321592000 1 0
-10.161828 18.949413 0.87602067 30 3206321594304 1 0
-10.916137 18.165407 -0.9872043 45 3206321594304 1 0
-12.392047 23.115913 -1.3745515 50 3206321596608 1 0
-11.500308 19.14351 2.7420602 19 3206321596608 1 0
-10.553138 19.692177 1.823866 18 3206321598912 1 0
0 0 0 29 3206321598912 1 0
-12.243829 25.80966 -0.99756724 8 3206321601216 1 0
-10.687542 17.801716 5.5635743 8 3206321601216 1 0
-9.968993 18.614515 3.8499732 23 3206321603520 1 0
0 0 0 53 3206321603520 1 0
-1.9482882 3.6488197 -1.9288298 4 3206321624256 1 0
-18.193907 27.280611 -0.5723691 4 3206321624256 1 0
-9.483218 17.76702 -0.5861161 23 3206321626560 1 0
-3.7891076 6.333332 -2.0660255 4 3206321626560 1 0
-5.470893 10.253609 -2.324382 3 3206321628864 1 0
-10.555073 17.648472 0 9 3206321628864 1 0
-8.932763 18.919836 -0.24357803 29 3206321631168 1 0
-8.975716 16.834764 -2.4283905 3 3206321633472 1 0
-8.528555 14.265004 -2.5856957 8 3206321631168 1 0
-12.321575 18.499895 0.12918721 2 3206321633472 1 0
-10.029322 18.81782 -0.12393325 31 3206321635776 1 0
-9.0727825 15.185818 -1.9054707 73 3206321635776 1 0
-6.8509855 14.527811 -1.4993737 40 3206321638080 1 0
-10.754684 18.007193 0.48806068 29 3206321638080 1 0
-8.551122 18.140203 0.23347357 17 3206321640384 1 0
-9.180203 15.376281 -1.2522682 63 3206321640384 1 0
-8.638721 16.22657 -1.5006863 32 3206321642688 1 0
-12.236624 18.396694 0.6430172 212 3206321642688 1 0
-9.915007 18.630743 0.3683854 36 3206321644992 1 0
0 0 0 4 3206321644992 1 0
-6.9435825 14.747511 -0.9492939 1 3206321647296 1 0
0 0 0 6 3206321647296 1 0
-9.992685 18.79054 0.8670651 38 3206321649600 1 0
-10.80791 18.12774 -0.9831096 49 3206321649600 1 0
-9.46315 17.801344 -1.0565583 13 3206321651904 1 0
-11.348045 19.0403 2.7215862 21 3206321651904 1 0
-10.485919 19.732567 1.8241915 12 3206321654208 1 0
-12.509456 18.83805 -0.9212872 38 3206321654208 1 0
-9.982869 21.236319 -0.8194402 9 3206321656512 1 0
-10.654475 17.889017 5.5791035 19 3206321656512 1 0
-9.925288 18.69134 3.858583 19 3206321658816 1 0
-10.793343 18.128473 -0.4909453 48 3206321658816 1 0
-1.9365973 3.65914 -1.9305202 3 3206321679552 1 0
-18.11807 27.383802 -0.57313704 4 3206321679552 1 0
-9.46104 17.882942 -0.5887924 26 3206321681856 1 0
-3.7658694 6.3471775 -2.0660255 4 3206321681856 1 0
-11.441199 19.29026 0 33 3206321684160 1 0
-5.4534454 10.311731 -2.3330114 2 3206321684160 1 0
-9.056519 19.365482 -0.24888636 8 3206321686464 1 0
-8.474197 14.292767 -2.5850809 8 3206321686464 1 0
0 0 0 21 3206321688768 1 0
-21.583424 32.664707 0.22754805 5 3206321688768 1 0
-10.055571 19.034826 -0.12511888 31 3206321691072 1 0
-9.006927 15.201861 -1.9033288 73 3206321691072 1 0
-6.785894 14.527565 -1.4967713 23 3206321693376 1 0
0 0 0 1 3206321693376 1 0
-8.560724 18.334509 0.23556896 11 3206321695680 1 0
-9.117685 15.399524 -1.2514311 24 3206321695680 1 0
-8.620123 16.335693 -1.5078465 30 3206321697984 1 0
-12.208754 18.50149 0.6451117 200 3206321697984 1 0
-9.8447895 18.663422 0.36831558 34 3206321700288 1 0
0 0 0 4 3206321700288 1 0
-6.8810444 14.754766 -0.94813114 1 3206321702592 1 0
-12.433042 21.021032 1.422313 61 3206321702592 1 0
-9.8902025 18.7634 0.86413413 27 3206321704896 1 0
-10.72716 18.143154 -0.9818067 66 3206321704896 1 0
-12.2877655 23.320618 -1.38146 72 3206321707200 1 0
-11.292324 19.10569 2.7249985 31 3206321707200 1 0
-12.534872 19.027288 -0.9282888 45 3206321709504 1 0
-10.617894 20.158878 1.8599919 15 3206321709504 1 0
-12.250436 26.310099 -1.0134814 8 3206321711808 1 0
-10.533819 17.834797 5.5501156 29 3206321711808 1 0
-9.968514 18.940008 3.902349 20 3206321714112 1 0
-10.81425 18.31598 -0.49494657 34 3206321714112 1 0
-1.9238127 3.6658778 -1.9305202 3 3206321735296 1 0
-9.408107 17.933426 -0.58937424 26 3206321737600 1 0
-3.7476912 6.366869 -2.0681822 4 3206321737600 1 0
-24.88668 37.900764 -0.7914317 23 3206321735296 1 0
-5.3922143 10.281917 -2.3220286 2 3206321739904 1 0
-10.897635 18.519602 0 26 3206321739904 1 0
-8.9712105 19.356668 -0.24837415 13 3206321742208 1 0
-8.426884 14.325299 -2.5856957 9 3206321742208 1 0
-9.19676 17.54824 -2.521829 26 3206321744512 1 0
-21.396593 32.624878 0.22675763 5 3206321744512 1 0
-10.035003 19.15412 -0.12567683 38 3206321746816 1 0
0 0 0 12 3206321746816 1 0
-6.7062936 14.48552 -1.4900793 25 3206321749120 1 0
-10.890531 18.530952 0.50015754 22 3206321749120 1 0
-8.532141 18.43601 0.23650025 16 3206321751424 1 0
0 0 0 1 3206321751424 1 0
-12.170354 18.579372 0.6463917 138 3206321753728 1 0
-8.627808 16.484783 -1.518912 27 3206321753728 1 0
0 0 0 4 3206321756032 1 0
-9.765343 18.6645 0.36768728 36 3206321756032 1 0
-6.8282967 14.770453 -0.94766605 1 3206321758336 1 0
-11.7158165 19.960478 1.347895 33 3206321758336 1 0
-9.836912 18.813946 0.8649483 33 3206321760640 1 0
-10.678805 18.199461 -0.98292345 52 3206321760640 1 0
-9.1887665 17.580225 -1.0396014 70 3206321762944 1 0
-11.25301 19.184126 2.7308483 19 3206321762944 1 0
-10.750674 20.57544 1.8951414 19 3206321765248 1 0
-12.583555 19.239153 -0.9365931 52 3206321765248 1 0
-12.289548 26.622437 -1.0239513 4 3206321767552 1 0
-9.9593 19.073689 3.9231558 17 3206321769856 1 0
-10.835128 18.489279 -0.49866867 26 3206321769856 1 0
-10.443876 17.815994 5.533551 8 3206321767552 1 0
-1.9082978 3.665806 -1.9271393 4 3206321790592 1 0
-24.684418 37.865818 -0.7889884 23 3206321790592 1 0
-3.7246141 6.3759356 -2.0671039 5 3206321792896 1 0
-9.413186 18.088663 -0.5934469 44 3206321792896 1 0
-10.941054 18.735254 0 29 3206321795200 1 0
-8.94037 19.459 -0.24930544 19 3206321797504 1 0
-5.3544683 10.292782 -2.3204598 1 3206321795200 1 0
-8.37734 14.349751 -2.5850809 8 3206321797504 1 0
-9.111063 17.525833 -2.514253 31 3206321799808 1 0
-21.194439 32.551514 0.22575797 5 3206321799808 1 0
-9.875515 19.00273 -0.12446795 36 3206321802112 1 0
-8.8783 15.217513 -1.8977597 5 3206321802112 1 0
-6.6366253 14.460624 -1.4852462 26 3206321804416 1 0
0 0 0 1 3206321804416 1 0
-8.4959755 18.518734 0.23719871 13 3206321806720 1 0
0 0 0 1 3206321806720 1 0
-9.063563 17.458033 -1.6058092 38 3206321809024 1 0
-12.147912 18.679962 0.6484862 116 3206321809024 1 0
-9.871045 19.01981 0.37403998 36 3206321811328 1 0
-10.1608715 15.629194 -1.1947268 1 3206321811328 1 0
-6.719388 14.662329 -0.93929404 1 3206321813632 1 0
-11.679709 20.050978 1.3513834 6 3206321813632 1 0
-9.783669 18.8642 0.8657624 27 3206321815936 1 0
-10.604321 18.210602 -0.9816206 33 3206321815936 1 0
-11.189331 19.221336 2.7308483 19 3206321818240 1 0
-9.091807 17.536129 -1.0352052 52 3206321818240 1 0
-10.722744 20.688848 1.9023014 19 3206321820544 1 0
-12.584984 19.381336 -0.94147795 27 3206321820544 1 0
0 0 0 43 3206321822848 1 0
-10.6237135 18.261309 5.66089 18 3206321822848 1 0
-9.803695 18.928402 3.8865645 25 3206321825152 1 0
-10.824016 18.611528 -0.500995 30 3206321825152 1 0
-1.896131 3.672114 -1.9271393 4 3206321845888 1 0
-24.5196 37.88703 -0.7877318 23 3206321845888 1 0
-9.387863 18.187353 -0.59565777 18 3206321848192 1 0
-3.701472 6.3849463 -2.0660255 4 3206321848192 1 0
-5.3183584 10.307073 -2.3196752 1 3206321850496 1 0
-10.533623 18.176327 0 30 3206321850496 1 0
-8.895259 19.532415 -0.2498642 27 3206321852800 1 0
-8.33534 14.387895 -2.5869255 9 3206321852800 1 0
0 0 0 7 3206321855104 1 0
-21.039831 32.55169 0.22526978 5 3206321855104 1 0
-9.7806 18.975288 -0.12407273 36 3206321857408 1 0
-8.823248 15.240309 -1.8969029 2 3206321857408 1 0
-6.5715127 14.446588 -1.4815284 29 3206321859712 1 0
-19.884617 34.358025 0.92373276 6 3206321859712 1 0
-8.258081 18.16129 0.2322629 24 3206321862016 1 0
-8.972113 15.507844 -1.2528262 1 3206321862016 1 0
0 0 0 6 3206321864320 1 0
-8.990003 17.46016 -1.6032056 50 3206321864320 1 0
-9.878053 19.191765 0.37676254 25 3206321866624 1 0
0 0 0 4 3206321866624 1 0
0 0 0 20 3206321868928 1 0
-11.078167 19.16734 1.2892909 6 3206321868928 1 0
-9.723204 18.904427 0.8660881 19 3206321871232 1 0
-10.4864435 18.14964 -0.9764091 22 3206321871232 1 0
-8.995543 17.49592 -1.0310184 52 3206321873536 1 0
-11.102006 19.22149 2.725486 36 3206321873536 1 0
-10.666698 20.753666 1.9049051 32 3206321875840 1 0
0 0 0 1 3206321875840 1 0
-6.5230517 14.384437 -0.55155164 4 3206321878144 1 0
-9.735208 18.95487 3.8851295 20 3206321880448 1 0
-10.532264 18.24732 5.645361 6 3206321878144 1 0
-10.500392 18.198214 -0.48889816 46 3206321880448 1 0
-20.931412 32.59151 -0.6761062 6 3206321901184 1 0
-9.342535 18.255604 -0.59682137 18 3206321903488 1 0
-3.681082 6.401167 -2.0671039 4 3206321903488 1 0
-5.289493 10.339542 -2.3228133 1 3206321905792 1 0
-1.8849535 3.6819372 -1.9288298 3 3206321901184 1 0
-10.466125 18.206049 0 35 3206321905792 1 0
-8.720099 19.326368 -0.24683753 21 3206321908096 1 0
-8.265372 14.382634 -2.5807765 10 3206321908096 1 0
-7.549734 14.768302 -2.1112046 16 3206321910400 1 0
-20.872087 32.54076 0.22468859 5 3206321910400 1 0
-9.7033825 18.987944 -0.12393325 31 3206321912704 1 0
-8.805646 15.333092 -1.9046139 1 3206321912704 1 0
-11.123665 19.375937 0.51988465 6 3206321915008 1 0
-6.4948626 14.411343 -1.47558 7 3206321915008 1 0
-8.16835 18.131657 0.23151787 16 3206321917312 1 0
-8.917926 15.539067 -1.2528262 1 3206321917312 1 0
0 0 0 28 3206321919616 1 0
0 0 0 6 3206321919616 1 0
-9.734651 19.07651 0.37383056 38 3206321921920 1 0
-9.840105 15.365855 -1.1693996 1 3206321921920 1 0
-6.5200434 14.489715 -0.92534065 14 3206321924224 1 0
0 0 0 3 3206321924224 1 0
-9.795141 19.208849 0.8784631 27 3206321926528 1 0
-10.383288 18.116798 -0.9726866 20 3206321926528 1 0
-8.903576 17.466713 -1.0274595 52 3206321928832 1 0
-11.323 19.763073 2.7966578 25 3206321928832 1 0
-10.581519 20.765907 1.9026269 13 3206321931136 1 0
-11.897506 18.602419 -0.8996309 6 3206321931136 1 0
-6.471163 14.403472 -0.55141205 4 3206321933440 1 0
-11.430309 19.96383 6.1640344 8 3206321933440 1 0
-9.692196 19.034325 3.8944566 20 3206321935744 1 0
-10.458655 18.272934 -0.48992172 79 3206321935744 1 0
-1.8720896 3.6884947 -1.9288298 3 3206321956480 1 0
-20.753035 32.563194 -0.67401195 6 3206321956480 1 0
0 0 0 9 3206321958784 1 0
-5.2462726 10.34395 -2.3196752 1 3206321961088 1 0
-3.6625326 6.420669 -2.0692606 5 3206321958784 1 0
-10.535265 18.47528 0 36 3206321961088 1 0
-8.2151165 14.411398 -2.5807765 9 3206321963392 1 0
0 0 0 28 3206321963392 1 0
-7.469436 14.737935 -2.1031234 28 3206321965696 1 0
-9.615351 18.978882 -0.123654276 38 3206321968000 1 0
-20.708973 32.53581 0.22415389 5 3206321965696 1 0
-8.80522 15.457038 -1.9161804 3 3206321968000 1 0
-6.428281 14.397559 -1.4718623 6 3206321970304 1 0
-19.790707 34.753155 0.93061864 6 3206321970304 1 0
-8.277803 18.54722 0.23645368 13 3206321972608 1 0
-8.8675785 15.577038 -1.2533844 1 3206321972608 1 0
-7.424113 14.669666 -1.3421884 4 3206321974912 1 0
-20.664474 32.50763 1.1210328 4 3206321974912 1 0
-8.971111 17.732857 0.34688404 14 3206321977216 1 0
-9.786408 15.400109 -1.1693996 1 3206321977216 1 0
0 0 0 9 3206321979520 1 0
-6.425526 14.41391 -0.91906166 6 3206321979520 1 0
-9.747865 19.28216 0.8802542 49 3206321981824 1 0
-10.282466 18.086935 -0.96915025 20 3206321981824 1 0
-8.802915 17.419254 -1.022854 52 3206321984128 1 0
-10.936159 19.2433 2.7176864 13 3206321984128 1 0
-10.494587 20.77425 1.9000232 16 3206321986432 1 0
-6.3948374 14.367538 -0.5491785 4 3206321988736 1 0
-11.763967 18.535854 -0.8944204 11 3206321986432 1 0
0 0 0 20 3206321988736 1 0
-9.655842 19.12776 3.906654 20 3206321991040 1 0
-10.37309 18.271076 -0.48889816 31 3206321991040 1 0
-1.8543146 3.6852918 -1.9237583 3 3206322011776 1 0
-20.6029 32.577976 -0.67282516 6 3206322011776 1 0
-8.936384 17.766735 -0.57878524 25 3206322014080 1 0
-5.2118955 10.365705 -2.3204598 1 3206322016384 1 0
-3.6419947 6.436767 -2.0703387 5 3206322014080 1 0
-10.496311 18.557205 0 48 3206322016384 1 0
-12.756795 28.807703 -0.36678725 3 3206322018688 1 0
-7.3930054 14.71428 -2.0960524 30 3206322020992 1 0
-20.569643 32.567314 0.22387491 5 3206322020992 1 0
-8.155035 14.422784 -2.5777018 9 3206322018688 1 0
-8.922494 17.764858 -0.11554085 24 3206322023296 1 0
-8.764906 15.511917 -1.9191791 2 3206322023296 1 0
-6.360264 14.379846 -1.4677727 7 3206322025600 1 0
0 0 0 19 3206322025600 1 0
-8.240506 18.638191 0.23724528 8 3206322027904 1 0
-8.915173 15.788576 -1.2678937 1 3206322027904 1 0
-7.3907385 14.731126 -1.3454429 1 3206322030208 1 0
-13.153072 20.851734 0.71748894 4 3206322030208 1 0
-9.570755 19.083231 0.37264377 29 3206322032512 1 0
0 0 0 4 3206322032512 1 0
-6.349363 14.377805 -0.9153407 6 3206322034816 1 0
-10.645337 18.871887 1.2618493 18 3206322034816 1 0
-9.671545 19.298203 0.87944007 27 3206322037120 1 0
-10.181978 18.05659 -0.9656139 9 3206322037120 1 0
-8.727743 17.421305 -1.0211792 57 3206322039424 1 0
-10.790937 19.143015 2.6981874 15 3206322039424 1 0
-10.427363 20.821451 1.9009995 6 3206322041728 1 0
-12.681047 20.135862 -0.96948457 7 3206322041728 1 0
-6.3220673 14.338564 -0.5472241 4 3206322044032 1 0
-10.241996 18.18156 5.5915265 29 3206322044032 1 0
-9.64713 19.277477 3.9303305 20 3206322046336 1 0
-10.691873 18.986637 -0.5070434 46 3206322046336 1 0
-1.8462937 3.7014742 -1.9288298 4 3206322067072 1 0
-20.418903 32.537903 -0.67052144 6 3206322067072 1 0
-10.385479 20.828531 -0.677344 20 3206322069376 1 0
-3.6138487 6.4393635 -2.0671039 5 3206322069376 1 0
-5.1809297 10.394366 -2.3228133 1 3206322071680 1 0
-10.44517 18.61815 0 42 3206322071680 1 0
0 0 0 42 3206322073984 1 0
-8.091106 14.427031 -2.5733974 8 3206322073984 1 0
-7.316831 14.690271 -2.0889814 28 3206322076288 1 0
-20.38574 32.527073 0.22310774 5 3206322076288 1 0
-9.439833 18.95961 -0.12309633 44 3206322078592 1 0
-8.770981 15.649965 -1.9324591 1 3206322078592 1 0
-6.2908506 14.358184 -1.4633114 7 3206322080896 1 0
-8.40004 19.179768 0.24376428 8 3206322083200 1 0
-10.615242 18.94712 0.5053685 22 3206322080896 1 0
-8.770314 15.659453 -1.2550585 1 3206322083200 1 0
-7.3463736 14.771112 -1.3467448 1 3206322085504 1 0
-13.148089 21.005972 0.7212125 4 3206322085504 1 0
-9.445329 18.998343 0.37034008 44 3206322087808 1 0
0 0 0 4 3206322087808 1 0
-6.2783313 14.352321 -0.9123175 6 3206322090112 1 0
-10.583297 18.915901 1.2623144 9 3206322090112 1 0
-9.554333 19.231625 0.87488085 27 3206322092416 1 0
-8.688199 17.494595 -1.0236913 44 3206322094720 1 0
-12.525731 22.395327 -1.1952915 7 3206322092416 1 0
-10.673676 19.090467 2.6855128 34 3206322094720 1 0
-9.595883 19.32937 1.7617036 17 3206322097024 1 0
-12.669988 20.274906 -0.9740438 8 3206322097024 1 0
-6.260778 14.334901 -0.54624695 4 3206322099328 1 0
-10.127585 18.126133 5.5635743 14 3206322099328 1 0
-9.682958 19.519022 3.9726615 23 3206322101632 1 0
-9.921582 17.7635 -0.47345144 12 3206322101632 1 0
-1.8333619 3.7078965 -1.9288298 4 3206322122368 1 0
0 0 0 50 3206322122368 1 0
-9.256814 18.728367 -0.6079922 24 3206322124672 1 0
-3.5913491 6.451939 -2.0671039 4 3206322124672 1 0
-5.1463523 10.415904 -2.3235977 1 3206322126976 1 0
-10.4287405 18.74188 0 34 3206322126976 1 0
-8.548235 19.673677 -0.24972452 30 3206322129280 1 0
-8.025327 14.427554 -2.5684783 8 3206322129280 1 0
-7.2619944 14.708607 -2.0879714 13 3206322131584 1 0
0 0 0 5 3206322131584 1 0
-8.733689 15.711771 -1.9363146 1 3206322133888 1 0
-6.220081 14.332561 -1.4584783 7 3206322136192 1 0
-10.42667 18.763844 0.49950615 31 3206322136192 1 0
-8.340998 19.22732 0.2439971 14 3206322138496 1 0
-8.812482 15.864383 -1.2690098 1 3206322138496 1 0
-9.136377 18.511806 -0.11998115 36 3206322133888 1 0
-7.2365932 14.678665 -1.3360046 1 3206322140800 1 0
-20.192139 32.511658 1.1138184 4 3206322140800 1 0
-9.361275 18.995323 0.36964196 27 3206322143104 1 0
0 0 0 36 3206322143104 1 0
-6.21073 14.333843 -0.9097594 6 3206322145408 1 0
-10.511391 18.942253 1.2616167 25 3206322145408 1 0
-9.534818 19.361666 0.8792772 19 3206322147712 1 0
-12.492061 22.519278 -1.1995723 10 3206322147712 1 0
-8.64472 17.560654 -1.0257847 42 3206322150016 1 0
-10.616599 19.14497 2.6879501 10 3206322150016 1 0
-9.362887 19.026503 1.7311106 27 3206322152320 1 0
-12.666535 20.427704 -0.97925436 8 3206322152320 1 0
-6.196417 14.323647 -0.54499054 4 3206322154624 1 0
-9.998705 18.04309 5.5273395 17 3206322154624 1 0
-9.886645 17.846998 -0.47475415 31 3206322156928 1 0
-1.8204077 3.7142735 -1.9288298 4 3206322177664 1 0
-9.668595 19.662172 3.9949033 18 3206322156928 1 0
-11.265477 18.233244 -0.37410977 34 3206322177664 1 0
-3.5706673 6.4678082 -2.0681822 5 3206322179968 1 0
-5.111688 10.437327 -2.324382 1 3206322182272 1 0
-10.2472925 18.568045 0 32 3206322182272 1 0
-8.498483 19.747484 -0.2502833 16 3206322184576 1 0
-9.207215 18.792881 -0.6090394 16 3206322179968 1 0
-7.9596424 14.4277935 -2.563559 9 3206322184576 1 0
-7.191421 14.694661 -2.0824156 3 3206322186880 1 0
-10.769084 17.452526 0.11919072 5 3206322186880 1 0
-9.261539 18.931631 -0.122491896 34 3206322189184 1 0
-8.692232 15.7665415 -1.9393134 1 3206322189184 1 0
-6.1511393 14.310278 -1.454017 7 3206322191488 1 0
-10.353388 18.786116 0.49913394 39 3206322191488 1 0
