# .PCD v.7 - Point Cloud Data file format
VERSION .7
FIELDS x y z rgb timestamp_ns device_id active
SIZE 4 4 4 4 8 1 1
TYPE F F F F F U U
COUNT 1 1 1 1 1 1 1
WIDTH 984
HEIGHT 1
VIEWPOINT 0 0 0 1 0 0 0
POINTS 984               
DATA ascii
9.161188 -23.682272 -1.1828212 10 3199474345008 1 1
28.42337 -29.486425 0.23803274 26 3199468799696 1 0
28.663837 -36.242123 -0.2685569 24 3199468802000 1 0
8.077107 -9.245789 -1.3224343 9 3199468802000 1 0
10.274491 -14.387036 -1.6503149 2 3199468804304 1 0
28.390968 -32.507935 1.0043163 33 3199468804304 1 0
29.329529 -41.08119 0.5876419 17 3199468806608 1 0
12.3871 -14.187306 -1.3170022 3 3199468806608 1 0
12.215667 -15.45847 -1.6084129 3 3199468808912 1 0
28.414938 -29.510303 1.1922464 32 3199468808912 1 0
29.567152 -37.426754 0.8325496 54 3199468811216 1 0
16.438568 -17.07698 -1.5191195 4 3199468811216 1 0
10.393444 -14.570623 -1.0423163 3 3199468813520 1 1
27.676397 -31.725119 2.4518387 22 3199468813520 1 0
27.592619 -34.947197 1.8140793 19 3199468815824 1 0
12.333014 -14.141128 -0.8740406 6 3199468815824 1 1
11.285534 -14.297659 -0.95460784 5 3199468818128 1 1
31.536406 -36.16997 5.892139 22 3199468818128 1 0
31.957205 -40.49813 4.2114253 19 3199468820432 1 0
18.681934 -19.42895 -1.0981196 3 3199468820432 1 1
10.387371 -14.579146 -0.6251198 2 3199468822736 1 1
0 0 0 9 3199468822736 1 0
21.193027 -26.872372 6.239884 18 3199468825040 1 0
22.658352 -26.009245 -0.8026714 40 3199468825040 1 0
0 0 0 4 3199468845776 1 0
24.645899 -25.709486 -0.6216547 27 3199468845776 1 0
12.328247 -15.676726 -0.58041435 2 3199468848080 1 1
3.933223 -4.5275803 -1.6789154 1 3199468848080 1 0
5.168313 -6.574048 -1.6724882 3 3199468850384 1 0
28.423618 -32.728382 0 48 3199468850384 1 0
10.577124 -14.90273 -0.21275243 1 3199468852688 1 1
6.8796887 -7.923948 -1.6325855 5 3199468852688 1 0
7.3446217 -9.347888 -1.5131984 23 3199468854992 1 0
28.418629 -29.679573 0.23882316 26 3199468854992 1 0
28.532293 -36.32543 -0.2684639 24 3199468857296 1 0
8.0408535 -9.266808 -1.3215775 64 3199468857296 1 0
10.230704 -14.427973 -1.6510584 2 3199468859600 1 0
28.383783 -32.720947 1.0079453 34 3199468859600 1 0
29.362207 -41.421173 0.59108764 25 3199468861904 1 0
12.284361 -14.165627 -1.3111427 4 3199468861904 1 0
12.163436 -15.499601 -1.6084129 3 3199468864208 1 0
28.40916 -29.70426 1.1962028 37 3199468864208 1 0
29.581131 -37.705883 0.8365287 54 3199468866512 1 0
16.380728 -17.132471 -1.5191195 2 3199468866512 1 0
27.675938 -31.942465 2.4613736 22 3199468868816 1 0
10.265539 -14.494964 -1.0344094 3 3199468868816 1 1
27.604473 -35.207397 1.8227092 28 3199468871120 1 0
11.226952 -14.323409 -0.95377046 5 3199468873424 1 1
12.266605 -14.161789 -0.87273777 6 3199468871120 1 1
31.51448 -36.394146 5.9111505 34 3199468873424 1 0
31.870531 -40.67279 4.21826 19 3199468875728 1 0
18.632122 -19.509895 -1.0990965 7 3199468875728 1 1
10.330554 -14.6047735 -0.62470096 2 3199468878032 1 1
0 0 0 9 3199468878032 1 0
21.047483 -26.876646 6.2240996 30 3199468880336 1 0
22.480175 -25.98388 -0.7995076 39 3199468880336 1 0
0 0 0 4 3199468901072 1 0
24.495338 -25.73163 -0.6201189 33 3199468901072 1 0
12.270989 -15.716513 -0.58029795 2 3199468903376 1 1
3.9048147 -4.526699 -1.6735239 1 3199468903376 1 0
5.150161 -6.5982327 -1.6740572 3 3199468905680 1 0
28.36406 -32.891014 0 41 3199468905680 1 0
10.488182 -14.887244 -0.2120074 1 3199468907984 1 1
6.854568 -7.9509077 -1.6332004 4 3199468907984 1 0
0 0 0 22 3199468910288 1 0
28.419592 -29.888742 0.23970656 26 3199468910288 1 0
28.41516 -36.437424 -0.2685569 24 3199468912592 1 0
7.9850936 -9.267702 -1.3177221 64 3199468912592 1 0
10.18257 -14.466853 -1.6514302 2 3199468914896 1 0
28.326809 -32.886486 1.0099925 27 3199468914896 1 0
29.344034 -41.703323 0.5936487 25 3199468917200 1 0
12.211406 -14.181208 -1.3086314 4 3199468917200 1 0
12.114159 -15.548255 -1.6090639 5 3199468919504 1 0
28.409931 -29.913414 1.2006245 43 3199468919504 1 0
29.945766 -38.446262 0.8506303 18 3199468921808 1 0
13.401876 -14.115228 -1.2474278 1 3199468921808 1 1
10.315926 -14.674448 -1.044642 5 3199468924112 1 1
27.665838 -32.156933 2.4704432 33 3199468924112 1 0
27.540329 -35.379234 1.8266171 9 3199468926416 1 0
12.196253 -14.180286 -0.8712488 4 3199468926416 1 1
11.1646185 -14.346749 -0.95272374 7 3199468928720 1 1
31.555498 -36.699604 5.9428368 34 3199468928720 1 0
0 0 0 8 3199468931024 1 0
18.555655 -19.566114 -1.0986081 7 3199468931024 1 1
10.290997 -14.657103 -0.625399 2 3199468933328 1 1
0 0 0 9 3199468933328 1 0
20.90523 -26.88782 6.20975 24 3199468935632 1 0
22.311161 -25.971191 -0.79671603 43 3199468935632 1 0
0 0 0 4 3199468956368 1 0
24.347673 -25.755945 -0.6186529 38 3199468956368 1 0
12.174411 -15.70553 -0.5783198 2 3199468958672 1 1
3.899013 -4.5520034 -1.677837 1 3199468958672 1 0
5.131902 -6.6223707 -1.6756262 2 3199468960976 1 0
28.36615 -33.126545 0 35 3199468960976 1 0
10.454489 -14.949986 -0.21237992 1 3199468963280 1 1
6.834483 -7.9837937 -1.6350452 4 3199468963280 1 0
7.257316 -9.370701 -1.5086527 3 3199468965584 1 0
28.4112 -30.089554 0.24052024 33 3199468965584 1 0
28.336771 -36.599644 -0.26902187 24 3199468967888 1 0
7.9216695 -9.259255 -1.3125814 51 3199468967888 1 0
10.138853 -14.512104 -1.6525456 2 3199468970192 1 0
28.302813 -33.09153 1.0132493 20 3199468970192 1 0
29.317377 -41.976013 0.59607005 17 3199468972496 1 0
12.135899 -14.193419 -1.3058412 4 3199468972496 1 0
12.057372 -15.587294 -1.6087384 5 3199468974800 1 0
28.404099 -30.117115 1.2048136 44 3199468974800 1 0
29.62055 -38.303783 0.84518516 18 3199468977104 1 0
13.193695 -13.993467 -1.2325897 1 3199468977104 1 1
10.296631 -14.756215 -1.0478977 15 3199468979408 1 1
27.651983 -32.368687 2.4792805 22 3199468979408 1 0
12.123326 -14.195427 -0.86957365 4 3199468981712 1 1
30.987331 -40.095333 2.0645103 24 3199468981712 1 0
11.104703 -14.37299 -0.95188636 5 3199468984016 1 1
31.517426 -36.91521 5.9598985 34 3199468984016 1 0
0 0 0 8 3199468986320 1 0
10.223771 -14.669978 -0.6244218 2 3199468988624 1 1
0 0 0 9 3199468988624 1 0
20.770369 -26.907673 6.197553 30 3199468990928 1 0
22.142511 -25.957644 -0.79392445 39 3199468990928 1 0
13.415377 -14.245181 -0.7972114 1 3199468986320 1 1
0 0 0 4 3199469011664 1 0
24.205612 -25.785376 -0.6173265 38 3199469011664 1 0
11.107522 -14.432962 -0.53002954 2 3199469013968 1 1
3.8656309 -4.545047 -1.6702889 1 3199469013968 1 0
5.106363 -6.637135 -1.6748416 2 3199469016272 1 0
28.356579 -33.350304 0 42 3199469016272 1 0
10.441011 -15.042246 -0.21317151 1 3199469018576 1 1
6.806573 -8.007602 -1.6350452 4 3199469018576 1 0
7.21005 -9.377103 -1.5056223 3 3199469020880 1 0
28.453735 -30.346111 0.2417756 27 3199469020880 1 0
28.467236 -37.034492 -0.2714861 24 3199469023184 1 0
7.8918753 -9.289882 -1.3130099 28 3199469023184 1 0
10.088135 -14.547406 -1.6525456 2 3199469025488 1 0
28.290672 -33.312042 1.0169715 21 3199469025488 1 0
29.32791 -42.304905 0.599283 26 3199469027792 1 0
12.068202 -14.214402 -1.303888 4 3199469027792 1 0
12.010174 -15.638772 -1.6097147 3 3199469030096 1 0
28.399923 -30.324059 1.209119 44 3199469030096 1 0
29.530504 -38.464046 0.8464417 46 3199469032400 1 0
0 0 0 18 3199469032400 1 0
10.0995455 -14.581971 -1.0330142 3 3199469034704 1 1
27.647318 -32.59291 2.4890478 34 3199469034704 1 0
31.078314 -40.504486 2.0799792 38 3199469037008 1 0
12.042689 -14.20109 -0.86734015 3 3199469037008 1 1
11.044739 -14.398987 -0.951049 5 3199469039312 1 1
31.51931 -37.179447 5.98476 23 3199469039312 1 0
0 0 0 8 3199469041616 1 0
13.163557 -14.07591 -0.78516203 1 3199469041616 1 1
10.156582 -14.682563 -0.6234446 2 3199469043920 1 1
0 0 0 9 3199469043920 1 0
20.635626 -26.926912 6.1853557 30 3199469046224 1 0
21.96906 -25.93713 -0.7909468 43 3199469046224 1 0
24.060915 -25.811203 -0.6159303 33 3199469066960 1 0
0 0 0 4 3199469066960 1 0
11.095914 -14.522481 -0.53189135 2 3199469069264 1 1
3.8745952 -4.587941 -1.681072 1 3199469069264 1 0
5.0879254 -6.6611533 -1.6764106 2 3199469071568 1 0
28.350948 -33.580505 0 42 3199469071568 1 0
10.411133 -15.111538 -0.21363716 1 3199469073872 1 1
6.7836785 -8.0373535 -1.6362749 4 3199469073872 1 0
7.1700506 -9.392752 -1.5041071 3 3199469076176 1 0
28.456663 -30.562346 0.24270551 27 3199469076176 1 0
28.37176 -37.178154 -0.27181157 16 3199469078480 1 0
0 0 0 4 3199469078480 1 0
10.035035 -14.579251 -1.6521738 2 3199469080784 1 0
28.29796 -33.55733 1.021438 21 3199469080784 1 0
29.300226 -42.581657 0.60175085 26 3199469083088 1 0
11.977361 -14.207628 -1.2994236 4 3199469083088 1 1
11.960345 -15.686941 -1.6103656 3 3199469085392 1 0
28.391926 -30.528408 1.213308 44 3199469085392 1 0
29.51728 -38.725933 0.8499322 46 3199469087696 1 0
13.044038 -14.029689 -1.227729 3 3199469087696 1 1
10.041798 -14.6072645 -1.0323164 5 3199469090000 1 1
27.641424 -32.817497 2.498815 23 3199469090000 1 0
31.174078 -40.924297 2.0959365 27 3199469092304 1 0
11.969883 -14.215532 -0.865665 3 3199469092304 1 1
10.98715 -14.427918 -0.950421 7 3199469094608 1 1
31.555527 -37.48667 6.0164456 35 3199469094608 1 0
0 0 0 8 3199469096912 1 0
13.081707 -14.08663 -0.7832081 1 3199469096912 1 1
10.109794 -14.724518 -0.6237238 2 3199469099216 1 1
0 0 0 9 3199469099216 1 0
20.512915 -26.961199 6.1767464 30 3199469101520 1 0
21.821764 -25.94633 -0.7888996 43 3199469101520 1 0
0 0 0 4 3199469122256 1 0
23.927202 -25.848076 -0.6148134 37 3199469122256 1 0
11.045153 -14.561124 -0.53189135 2 3199469124560 1 1
5.064643 -6.678873 -1.6764106 4 3199469126864 1 0
3.8437066 -4.583729 -1.6746022 2 3199469124560 1 0
28.292662 -33.749767 0 42 3199469126864 1 0
10.3808975 -15.180803 -0.2141028 1 3199469129168 1 1
6.75812 -8.0640135 -1.6368899 4 3199469129168 1 0
7.1156507 -9.38926 -1.4995614 27 3199469131472 1 0
28.450281 -30.770159 0.24356568 28 3199469131472 1 0
19.821442 -26.16274 -0.19077025 43 3199469133776 1 0
7.8115063 -9.326458 -1.3104395 3 3199469133776 1 0
9.966109 -14.587883 -1.6491996 2 3199469136080 1 0
28.255102 -33.74482 1.0241364 42 3199469136080 1 0
29.302547 -42.904972 0.6048707 17 3199469138384 1 0
11.907204 -14.224873 -1.2971914 4 3199469138384 1 1
11.905515 -15.728595 -1.6103656 5 3199469140688 1 0
28.385557 -30.73601 1.2176133 45 3199469140688 1 0
29.502586 -38.98819 0.8534227 46 3199469142992 1 0
12.943537 -14.01941 -1.2228682 3 3199469142992 1 1
9.983995 -14.632332 -1.0316188 3 3199469145296 1 1
27.63686 -33.045498 2.508815 23 3199469145296 1 0
31.170858 -41.217754 2.1053805 13 3199469147600 1 0
10.931902 -14.45981 -0.95000225 7 3199469149904 1 1
11.897122 -14.229639 -0.8639899 3 3199469147600 1 1
31.567066 -37.76718 6.0437446 36 3199469149904 1 0
0 0 0 8 3199469152208 1 0
12.929497 -14.02056 -0.7770206 1 3199469152208 1 1
9.990798 -14.660615 -0.61953586 2 3199469154512 1 1
0 0 0 9 3199469154512 1 0
20.378357 -26.979258 6.164549 24 3199469156816 1 0
21.661854 -25.93947 -0.7863872 14 3199469156816 1 0
0 0 0 4 3199469177552 1 0
23.777285 -25.866663 -0.61327755 32 3199469177552 1 0
10.994258 -14.59959 -0.53189135 2 3199469179856 1 1
3.8375418 -4.6089587 -1.6789154 2 3199469179856 1 0
5.0436573 -6.699645 -1.6771951 2 3199469182160 1 0
21.564762 -25.907341 0 57 3199469182160 1 0
10.395228 -15.316231 -0.21549973 2 3199469184464 1 1
6.7299304 -8.087554 -1.6368899 4 3199469184464 1 0
7.1066885 -9.445749 -1.5046122 42 3199469186768 1 0
28.431973 -30.96651 0.24433285 35 3199469186768 1 0
7.743302 -9.31086 -1.304442 3 3199469189072 1 0
9.915128 -14.622582 -1.6491996 2 3199469191376 1 0
28.241955 -33.96932 1.0279516 28 3199469191376 1 0
29.669529 -39.446754 -0.28687605 89 3199469189072 1 0
11.837073 -14.2418 -1.2949592 4 3199469193680 1 1
29.298477 -43.222195 0.60789734 26 3199469193680 1 0
11.8553295 -15.776431 -1.6110165 5 3199469195984 1 0
28.378086 -30.943937 1.2219188 45 3199469195984 1 0
29.491224 -39.257214 0.8570528 56 3199469198288 1 0
12.891823 -14.0615635 -1.2226124 8 3199469198288 1 1
9.923902 -14.653868 -1.0306885 3 3199469200592 1 1
27.633589 -33.27694 2.5190475 35 3199469200592 1 0
31.254753 -41.629944 2.1208494 14 3199469202896 1 0
10.799835 -14.389259 -0.94288456 7 3199469205200 1 1
11.8218565 -14.240338 -0.8621287 3 3199469202896 1 1
31.55421 -38.02073 6.066656 36 3199469205200 1 0
0 0 0 8 3199469207504 1 0
12.848086 -14.030236 -0.7750666 1 3199469207504 1 1
9.930604 -14.682155 -0.6189775 2 3199469209808 1 1
0 0 0 9 3199469209808 1 0
11.938042 -14.397326 -0.43520683 1 3199469212112 1 1
0 0 0 4 3199469232296 1 0
20.248646 -27.003002 6.153787 30 3199469212112 1 0
23.641012 -25.899288 -0.6120908 26 3199469232296 1 0
10.883271 -14.557899 -0.5289823 2 3199469234600 1 1
3.8238509 -4.625323 -1.6799936 1 3199469234600 1 0
5.0177946 -6.714141 -1.6764106 3 3199469236904 1 0
10.388291 -15.422314 -0.21647759 2 3199469239208 1 1
28.285202 -34.22437 0 36 3199469236904 1 0
6.7065167 -8.117237 -1.6381197 4 3199469239208 1 0
7.035407 -9.419838 -1.496531 43 3199469241512 1 0
29.630722 -39.68577 -0.28785247 106 3199469243816 1 0
28.47102 -31.228966 0.24561147 28 3199469241512 1 0
7.70535 -9.331979 -1.3035853 10 3199469243816 1 0
9.88562 -14.690577 -1.6529173 2 3199469246120 1 0
29.265774 -43.504894 0.6104118 27 3199469248424 1 0
28.223547 -34.19228 1.0316738 35 3199469246120 1 0
11.763704 -14.255934 -1.2924479 4 3199469248424 1 1
11.806418 -15.8279915 -1.611993 5 3199469250728 1 0
28.373077 -31.159748 1.2264569 39 3199469250728 1 0
29.485317 -39.54138 0.8609621 56 3199469253032 1 0
12.796056 -14.057137 -1.2182633 17 3199469253032 1 1
9.869393 -14.685823 -1.0304561 3 3199469255336 1 1
27.616442 -33.498444 2.5283496 36 3199469255336 1 0
30.976948 -41.568226 2.1120565 14 3199469257640 1 0
10.745896 -14.424605 -0.94267523 7 3199469259944 1 1
31.5442 -38.286594 6.0910296 36 3199469259944 1 0
11.750605 -14.2577915 -0.8606397 3 3199469257640 1 1
0 0 0 8 3199469262248 1 0
12.773506 -14.049595 -0.7736012 1 3199469262248 1 1
9.857745 -14.687862 -0.6177211 2 3199469264552 1 1
9.499522 -11.5371685 4.0044484 1 3199469264552 1 0
20.120768 -27.03468 6.1444597 24 3199469266856 1 0
0 0 0 4 3199469287592 1 0
23.49759 -25.932415 -0.61083424 21 3199469287592 1 0
10.889505 -14.677889 -0.53189135 2 3199469289896 1 1
11.855641 -14.403157 -0.4340902 3 3199469266856 1 1
4.995587 -6.7355647 -1.6771951 3 3199469292200 1 0
3.8020194 -4.6333237 -1.677837 2 3199469289896 1 0
28.29453 -34.491306 0 14 3199469292200 1 0
10.418708 -15.589752 -0.21829359 2 3199469294504 1 1
6.6794043 -8.144673 -1.6387346 4 3199469294504 1 0
6.989295 -9.429419 -1.4940057 43 3199469296808 1 0
28.459274 -31.444979 0.24649489 21 3199469296808 1 0
29.646069 -40.008354 -0.28941005 110 3199469299112 1 0
7.6638722 -9.350651 -1.3023001 55 3199469299112 1 0
9.883218 -14.802464 -1.6614681 2 3199469301416 1 0
28.195843 -34.41181 1.0352098 21 3199469301416 1 0
29.243793 -43.813316 0.6132523 27 3199469303720 1 0
11.751622 -15.873678 -1.6123184 5 3199469306024 1 0
11.691874 -14.273663 -1.2902157 4 3199469303720 1 1
28.36775 -31.380527 1.2311114 40 3199469306024 1 0
29.471266 -39.82086 0.86473185 56 3199469308328 1 0
12.729313 -14.085339 -1.2167282 10 3199469308328 1 1
9.814357 -14.717861 -1.0302235 3 3199469310632 1 1
31.607265 -42.73296 2.1654644 33 3199469312936 1 0
27.6072 -33.73341 2.5385823 36 3199469310632 1 0
11.66905 -14.262717 -0.8584062 3 3199469312936 1 1
10.684717 -14.450113 -0.94183785 7 3199469315240 1 1
31.547771 -38.57131 6.1183286 37 3199469315240 1 0
0 0 0 8 3199469317544 1 0
12.717902 -14.089181 -0.7732755 1 3199469317544 1 1
9.8829 -14.839348 -0.622607 2 3199469319848 1 1
0 0 0 102 3199469319848 1 0
20.00112 -27.074408 6.137285 24 3199469322152 1 0
11.832182 -14.479288 -0.4351138 1 3199469322152 1 1
0 0 0 4 3199469342888 1 0
23.356098 -25.957792 -0.60950786 26 3199469342888 1 0
0 0 0 9 3199469345192 1 0
0 0 0 8 3199469345192 1 0
4.9722414 -6.7528167 -1.6771951 2 3199469347496 1 0
20.118841 -24.698927 0 54 3199469347496 1 0
10.400283 -15.678903 -0.21903862 1 3199469349800 1 1
6.6537857 -8.170714 -1.6393496 4 3199469349800 1 0
23.329622 -25.955685 0.20283578 15 3199469352104 1 0
6.94748 -9.44057 -1.4919853 17 3199469352104 1 0
29.618189 -40.257656 -0.29047945 112 3199469354408 1 0
7.606763 -9.345946 -1.2980162 64 3199469354408 1 0
9.834982 -14.839334 -1.66184 2 3199469356712 1 0
28.214855 -34.67507 1.0402346 28 3199469356712 1 0
29.236538 -44.12556 0.6162324 27 3199469359016 1 0
11.628327 -14.29463 -1.2885416 4 3199469359016 1 1
11.714521 -15.935727 -1.6145966 3 3199469361320 1 0
28.363209 -31.589123 1.2355331 40 3199469361320 1 0
29.462835 -40.090458 0.86843175 47 3199469363624 1 0
12.639254 -14.080497 -1.2126349 5 3199469363624 1 1
0 0 0 13 3199469365928 1 0
27.61006 -33.968117 2.5492797 36 3199469365928 1 0
31.658768 -43.10213 2.1788166 51 3199469368232 1 0
11.593762 -14.267394 -0.8563588 3 3199469368232 1 1
10.641469 -14.491905 -0.94225657 7 3199469370536 1 1
31.549866 -38.83595 6.143677 38 3199469370536 1 0
0 0 0 8 3199469372840 1 0
12.599275 -14.050753 -0.7688791 1 3199469372840 1 1
9.759101 -14.758381 -0.6178607 2 3199469375144 1 1
0 0 0 38 3199469375144 1 0
19.877495 -27.092125 6.126523 30 3199469377448 1 0
11.890586 -14.648332 -0.43902197 1 3199469377448 1 1
0 0 0 4 3199469398184 1 0
23.218454 -25.968428 -0.6080418 10 3199469398184 1 0
0 0 0 9 3199469400488 1 0
9.461947 -11.688007 -4.2096887 6 3199469400488 1 0
4.957752 -6.7780457 -1.6795485 2 3199469402792 1 0
29.038994 -35.881508 0 15 3199469402792 1 0
0 0 0 35 3199469405096 1 0
6.6277266 -8.191866 -1.6393496 4 3199469405096 1 0
0 0 0 22 3199469407400 1 0
28.460583 -31.868723 0.24833144 29 3199469407400 1 0
29.613718 -40.523815 -0.29171157 108 3199469409704 1 0
7.5541778 -9.342516 -1.2941607 70 3199469409704 1 0
9.793585 -14.880992 -1.6629553 2 3199469412008 1 0
29.533148 -36.535545 1.0931815 15 3199469412008 1 0
29.231766 -44.430664 0.61916596 18 3199469414312 1 0
11.541775 -14.282613 -1.2840772 4 3199469414312 1 1
11.655489 -15.9641485 -1.6136203 5 3199469416616 1 0
28.363941 -31.797726 1.2400713 40 3199469416616 1 0
29.451733 -40.35141 0.87199205 28 3199469418920 1 0
12.561226 -14.086032 -1.209565 7 3199469418920 1 1
9.609055 -14.619119 -1.0188282 35 3199469421224 1 1
27.606123 -34.192287 2.5592797 37 3199469421224 1 0
31.619925 -43.348495 2.185981 52 3199469423528 1 0
11.536556 -14.293157 -0.8556143 3 3199469423528 1 1
10.541575 -14.456108 -0.937651 7 3199469425832 1 1
31.553043 -39.104115 6.1695137 39 3199469425832 1 0
12.536457 -14.074732 -0.76790214 1 3199469428136 1 1
0 0 0 8 3199469428136 1 0
9.707483 -14.787602 -0.6177211 2 3199469430440 1 1
0 0 0 117 3199469430440 1 0
19.756237 -27.117409 6.1171956 35 3199469432744 1 0
0 0 0 4 3199469453480 1 0
11.62797 -14.423574 -0.43111253 1 3199469432744 1 1
28.47013 -32.06668 -0.7484988 21 3199469453480 1 0
10.505189 -14.464018 -0.5202551 2 3199469455784 1 1
9.478836 -11.793158 -4.235568 7 3199469455784 1 0
4.9338646 -6.7954535 -1.6795485 3 3199469458088 1 0
28.940079 -36.01779 0 24 3199469458088 1 0
13.877265 -21.228914 -0.29526442 49 3199469460392 1 1
6.857979 -9.451912 -1.4864296 3 3199469462696 1 0
6.5987325 -8.21524 -1.6393496 4 3199469460392 1 0
28.464071 -32.10121 0.24935435 29 3199469462696 1 0
7.5083914 -9.353868 -1.2920188 60 3199469465000 1 0
29.54428 -40.732693 -0.2924555 33 3199469465000 1 0
9.744635 -14.922607 -1.6636988 2 3199469467304 1 0
29.507353 -36.771973 1.0970896 23 3199469467304 1 0
29.218447 -44.759792 0.6222857 27 3199469469608 1 0
11.470416 -14.299084 -1.281845 4 3199469469608 1 1
11.604848 -16.01577 -1.6145966 5 3199469471912 1 0
28.349792 -32.013573 1.244493 41 3199469471912 1 0
29.448519 -40.655384 0.87625045 19 3199469474216 1 0
12.481025 -14.098553 -1.2067509 3 3199469474216 1 1
9.551473 -14.647272 -1.0183631 33 3199469476520 1 1
27.59149 -34.429546 2.5695121 25 3199469476520 1 0
31.705187 -43.80034 2.2029152 36 3199469478824 1 0
11.451823 -14.294639 -0.85319465 3 3199469478824 1 1
10.469787 -14.468759 -0.93597627 7 3199469481128 1 1
31.533598 -39.374447 6.1938877 40 3199469481128 1 0
0 0 0 8 3199469483432 1 0
12.458108 -14.090825 -0.76627386 1 3199469483432 1 1
9.644062 -14.809964 -0.6171627 2 3199469485736 1 1
0 0 0 149 3199469485736 1 0
19.623251 -27.145847 6.107151 29 3199469488040 1 0
11.499448 -14.372926 -0.42832094 1 3199469488040 1 1
0 0 0 4 3199469508776 1 0
28.471052 -32.316803 -0.75177985 50 3199469508776 1 0
10.449995 -14.503943 -0.5202551 2 3199469511080 1 1
9.493871 -11.90448 -4.2625256 4 3199469511080 1 0
4.908132 -6.8140626 -1.6795485 3 3199469513384 1 0
28.813644 -36.139484 0 24 3199469513384 1 0
13.82797 -21.327824 -0.29591635 36 3199469515688 1 1
6.572786 -8.246124 -1.6405793 5 3199469515688 1 0
6.8088284 -9.458059 -1.4833992 3 3199469517992 1 0
28.450054 -32.327076 0.25028425 30 3199469517992 1 0
29.617908 -41.15323 -0.29468727 119 3199469520296 1 0
0 0 0 14 3199469520296 1 0
9.689875 -14.958222 -1.6636988 2 3199469522600 1 0
29.484488 -37.02064 1.1012771 31 3199469522600 1 0
29.183779 -45.063812 0.625033 27 3199469524904 1 0
11.403435 -14.321967 -1.2801708 4 3199469524904 1 1
11.556314 -16.070473 -1.6158985 3 3199469527208 1 0
28.350292 -32.24775 1.2496129 41 3199469527208 1 0
29.41726 -40.919605 0.8796711 29 3199469529512 1 0
12.435772 -14.149116 -1.2072625 2 3199469529512 1 1
9.490754 -14.6676655 -1.0174328 28 3199469531816 1 1
27.581007 -34.66787 2.5799773 25 3199469531816 1 0
31.781702 -44.23299 2.2190354 37 3199469534120 1 0
11.381541 -14.30984 -0.8517057 3 3199469534120 1 1
10.405235 -14.485751 -0.93472016 7 3199469536424 1 1
31.502214 -39.6179 6.214849 27 3199469536424 1 0
0 0 0 8 3199469538728 1 0
12.390799 -14.112842 -0.76513404 1 3199469538728 1 1
9.59534 -14.846337 -0.6173023 2 3199469541032 1 1
9.567492 -12.038763 4.120399 119 3199469541032 1 0
19.494038 -27.161324 6.0956717 29 3199469543336 1 0
12.443021 -15.661247 -0.46544892 1 3199469543336 1 1
0 0 0 4 3199469564072 1 0
28.45632 -32.50539 -0.7540836 36 3199469564072 1 0
10.403955 -14.537004 -0.5202551 2 3199469566376 1 1
9.530233 -12.028114 -4.295953 2 3199469566376 1 0
4.886304 -6.829733 -1.6795485 3 3199469568680 1 0
0 0 0 84 3199469570984 1 0
28.67799 -36.206413 0 24 3199469568680 1 0
6.541219 -8.2611065 -1.6393496 5 3199469570984 1 0
6.7687473 -9.46728 -1.4813788 3 3199469573288 1 0
28.460424 -32.55209 0.25130716 22 3199469573288 1 0
29.608072 -41.42609 -0.29594263 93 3199469575592 1 0
0 0 0 4 3199469575592 1 0
9.648835 -15.003673 -1.6651859 2 3199469577896 1 0
29.488087 -37.278164 1.1060227 31 3199469577896 1 0
29.18211 -45.393333 0.62824595 28 3199469580200 1 0
11.335661 -14.334994 -1.2779386 4 3199469580200 1 1
11.552987 -16.180756 -1.6230586 3 3199469582504 1 0
28.343878 -32.460686 1.2541511 36 3199469582504 1 0
29.424202 -41.22457 0.8840691 29 3199469584808 1 0
12.335044 -14.131211 -1.2021459 3 3199469584808 1 1
27.570765 -34.900208 2.5902097 25 3199469587112 1 0
9.429563 -14.683355 -1.01627 26 3199469587112 1 1
31.899935 -44.723434 2.2380862 39 3199469589416 1 0
11.322033 -14.33661 -0.8509612 3 3199469589416 1 1
10.343012 -14.505722 -0.93367344 7 3199469591720 1 1
0 0 0 8 3199469594024 1 0
31.501495 -39.902126 6.242148 28 3199469591720 1 0
12.335795 -14.150341 -0.76480836 1 3199469594024 1 1
9.538277 -14.873566 -0.6170231 2 3199469596328 1 1
9.577356 -12.139374 4.143175 118 3199469596328 1 0
19.367054 -27.189232 6.0863442 29 3199469598632 1 0
0 0 0 4 3199469619368 1 0
12.035259 -15.259805 -0.45223543 1 3199469598632 1 1
28.444078 -32.744247 -0.7570854 51 3199469619368 1 0
11.239598 -15.8317375 -0.56505454 2 3199469621672 1 1
3.6875567 -4.6906796 -1.6702889 1 3199469621672 1 0
4.8604417 -6.8481617 -1.6795485 3 3199469623976 1 0
28.54334 -36.317745 0 24 3199469623976 1 0
29.395834 -46.040188 -0.6359291 38 3199469626280 1 0
0 0 0 36 3199469628584 1 0
6.510174 -8.285594 -1.6393496 5 3199469626280 1 0
28.422915 -32.75451 0.2520511 38 3199469628584 1 0
7.3860006 -9.405339 -1.2881633 3 3199469630888 1 0
29.579777 -41.711376 -0.29719803 113 3199469630888 1 0
9.5959215 -15.0422945 -1.6655577 2 3199469633192 1 0
29.484606 -37.55584 1.1110476 31 3199469633192 1 0
11.273608 -14.363562 -1.2768224 4 3199469635496 1 1
10.270645 -14.495021 -1.4502404 4 3199469637800 1 0
29.13945 -45.691364 0.63090014 28 3199469635496 1 0
29.431404 -41.54824 0.8887463 40 3199469640104 1 0
12.25042 -14.136039 -1.1988201 3 3199469640104 1 1
9.370957 -14.706624 -1.0155724 30 3199469642408 1 1
27.560093 -35.142372 2.6009073 25 3199469642408 1 0
28.333982 -32.686584 1.258922 42 3199469637800 1 0
31.966331 -45.151844 2.2538807 41 3199469644712 1 0
11.236987 -14.332349 -0.8483555 3 3199469644712 1 1
10.257699 -14.49283 -0.9305333 4 3199469647016 1 1
31.489378 -40.17433 6.2674966 29 3199469647016 1 0
0 0 0 8 3199469649320 1 0
12.268429 -14.171805 -0.7636686 3 3199469649320 1 1
9.482874 -14.899473 -0.6167439 2 3199469651624 1 1
9.614262 -12.272547 4.1773396 131 3199469651624 1 0
19.24714 -27.216433 6.0777345 29 3199469653928 1 0
12.27174 -15.669026 -0.4631226 1 3199469653928 1 1
0 0 0 4 3199469674664 1 0
28.395948 -32.897022 -0.7585514 36 3199469674664 1 0
10.187214 -14.445757 -0.514437 2 3199469676968 1 1
3.6845891 -4.717473 -1.6756804 1 3199469676968 1 0
4.8409643 -6.866744 -1.6803329 5 3199469679272 1 0
28.430508 -36.411217 0 24 3199469679272 1 0
29.383963 -46.3464 -0.63886267 39 3199469681576 1 0
6.488613 -8.31252 -1.6405793 6 3199469681576 1 0
6.68933 -9.4944515 -1.4783484 45 3199469683880 1 0
28.385872 -32.924053 0.2526555 23 3199469683880 1 0
29.58375 -42.002453 -0.29859287 76 3199469686184 1 0
7.3386073 -9.407082 -1.2851646 3 3199469686184 1 0
9.547302 -15.073199 -1.6655577 3 3199469688488 1 0
29.48615 -37.808514 1.1157002 24 3199469688488 1 0
29.121624 -45.99177 0.63374054 28 3199469690792 1 0
11.185253 -14.346555 -1.2720791 4 3199469690792 1 1
0 0 0 57 3199469693096 1 0
28.334312 -32.90294 1.2636929 42 3199469693096 1 0
29.401133 -41.794804 0.8919576 20 3199469695400 1 0
12.183259 -14.151851 -1.1967735 3 3199469695400 1 1
9.322565 -14.737348 -1.0155724 33 3199469697704 1 1
27.554855 -35.374535 2.6113722 13 3199469697704 1 0
32.026257 -45.55467 2.2686982 42 3199469700008 1 0
11.172422 -14.347302 -0.8470526 3 3199469700008 1 1
10.198098 -14.510426 -0.9294866 4 3199469702312 1 1
31.612059 -40.607475 6.3186817 15 3199469702312 1 0
0 0 0 8 3199469704616 1 0
12.148197 -14.127738 -0.7591094 1 3199469704616 1 1
9.403088 -14.883798 -0.61478955 2 3199469706920 1 1
0 0 0 19 3199469706920 1 0
19.130716 -27.24552 6.0698423 35 3199469709224 1 0
12.322141 -15.842743 -0.4670308 1 3199469709224 1 1
0 0 0 4 3199469729960 1 0
28.398064 -33.13259 -0.7616928 29 3199469729960 1 0
10.308584 -14.72697 -0.52316415 2 3199469732264 1 1
3.6680653 -4.730333 -1.6756804 2 3199469732264 1 0
4.8191137 -6.8868837 -1.6811174 3 3199469734568 1 0
28.36152 -36.58652 0 24 3199469734568 1 0
29.372208 -46.689697 -0.6421687 47 3199469736872 1 0
6.4642177 -8.341508 -1.6418092 4 3199469736872 1 0
6.637679 -9.491923 -1.4743078 46 3199469739176 1 0
0 0 0 95 3199469741480 1 0
28.381662 -33.15442 0.25365517 23 3199469739176 1 0
0 0 0 100 3199469741480 1 0
0 0 0 15 3199469743784 1 0
29.849298 -38.55438 1.1345899 24 3199469743784 1 0
29.096863 -46.314762 0.63676727 28 3199469746088 1 0
11.11972 -14.367145 -1.2704049 4 3199469746088 1 1
10.148916 -14.531909 -1.4469858 10 3199469748392 1 0
28.323896 -33.127884 1.2684636 36 3199469748392 1 0
29.408003 -42.12208 0.8967046 30 3199469750696 1 0
12.09914 -14.155639 -1.1934477 3 3199469750696 1 1
9.263623 -14.760326 -1.0148747 35 3199469753000 1 1
32.184486 -41.62309 3.064159 60 3199469753000 1 0
32.066925 -45.96045 2.28319 65 3199469755304 1 0
11.101573 -14.361814 -0.8455636 5 3199469755304 1 1
10.157541 -14.563202 -0.9305333 4 3199469757608 1 1
0 0 0 1 3199469757608 1 0
0 0 0 8 3199469759912 1 0
12.089684 -14.162081 -0.75862086 1 3199469759912 1 1
9.347434 -14.914095 -0.61464995 2 3199469762216 1 1
0 0 0 9 3199469762216 1 0
18.99877 -27.265778 6.05908 35 3199469764520 1 0
12.252812 -15.87117 -0.46656555 1 3199469764520 1 1
0 0 0 4 3199469785256 1 0
28.380098 -33.358295 -0.76448524 22 3199469785256 1 0
10.174816 -14.649642 -0.5190915 2 3199469787560 1 1
3.653087 -4.7467713 -1.6767588 1 3199469787560 1 0
4.79394 -6.904431 -1.6811174 4 3199469789864 1 0
28.57412 -37.139996 0 16 3199469789864 1 0
29.343775 -47.02375 -0.6452885 24 3199469792168 1 0
6.4337835 -8.365004 -1.6418092 5 3199469792168 1 0
6.596335 -9.506216 -1.4727925 43 3199469794472 1 0
28.374887 -33.391514 0.25467807 23 3199469794472 1 0
29.560574 -42.614037 -0.3014291 28 3199469796776 1 0
7.2468677 -9.427824 -1.2808807 57 3199469796776 1 0
9.430769 -15.127613 -1.6640706 27 3199469799080 1 0
29.492619 -38.38002 1.1263082 16 3199469799080 1 0
29.075247 -46.653843 0.6399802 28 3199469801384 1 0
11.048274 -14.381926 -1.2681727 4 3199469801384 1 1
10.144122 -14.637234 -1.4538203 4 3199469803688 1 0
29.376898 -42.401905 0.9004046 62 3199469805992 1 0
28.318062 -33.36396 1.2735835 36 3199469803688 1 0
9.202096 -14.779951 -1.0139445 39 3199469808296 1 1
12.027444 -14.17475 -1.191401 3 3199469805992 1 1
32.031628 -46.262417 2.2924712 44 3199469810600 1 0
32.16847 -41.912666 3.0769496 60 3199469808296 1 0
11.030553 -14.376163 -0.8440746 3 3199469810600 1 1
10.087183 -14.573176 -0.9288586 4 3199469812904 1 1
0 0 0 1 3199469812904 1 0
0 0 0 8 3199469815208 1 0
12.028703 -14.192963 -0.75796956 1 3199469815208 1 1
9.273122 -14.913361 -0.61325395 2 3199469817512 1 1
9.910326 -12.927842 4.364724 3 3199469817512 1 0
11.135748 -14.53076 -0.42599463 1 3199469819816 1 1
0 0 0 4 3199469840552 1 0
18.874832 -27.294329 6.0504704 34 3199469819816 1 0
10.107732 -14.662026 -0.51827693 2 3199469842856 1 1
28.371881 -33.585476 -0.7674172 45 3199469840552 1 0
3.6341567 -4.756433 -1.6756804 2 3199469842856 1 0
4.76981 -6.9211226 -1.6811174 2 3199469845160 1 0
28.42488 -37.21408 0 24 3199469845160 1 0
29.360535 -47.418346 -0.64929307 24 3199469847464 1 0
6.406944 -8.3905525 -1.6424241 6 3199469847464 1 0
6.554109 -9.516112 -1.4707723 21 3199469849768 1 0
28.351019 -33.600414 0.25551498 23 3199469849768 1 0
18.028978 -26.184978 -0.18477236 12 3199469852072 1 0
7.1970253 -9.430931 -1.277882 60 3199469852072 1 0
9.375812 -15.157053 -1.6636988 36 3199469854376 1 0
29.433659 -38.581295 1.1291928 24 3199469854376 1 0
29.059471 -46.99318 0.6432397 28 3199469856680 1 0
10.973806 -14.388676 -1.2653824 4 3199469856680 1 1
10.020665 -14.567445 -1.4434057 22 3199469858984 1 0
28.317377 -33.600185 1.2788199 37 3199469858984 1 0
29.32162 -42.639305 0.9032667 10 3199469861288 1 0
11.952171 -14.18612 -1.1888428 3 3199469861288 1 1
9.16304 -14.832366 -1.0153399 67 3199469863592 1 1
32.22527 -42.291504 3.0964842 61 3199469863592 1 0
32.001236 -46.56499 2.3019154 45 3199469865896 1 0
10.958512 -14.385972 -0.8423995 3 3199469865896 1 1
10.040775 -14.614883 -0.92927724 4 3199469868200 1 1
0 0 0 1 3199469868200 1 0
0 0 0 8 3199469870504 1 0
11.945633 -14.195111 -0.75585276 1 3199469870504 1 1
9.214711 -14.935432 -0.61283517 2 3199469872808 1 1
9.911938 -13.023849 4.38543 9 3199469872808 1 0
18.750492 -27.31787 6.0411434 34 3199469875112 1 0
0 0 0 4 3199469896296 1 0
11.084959 -14.569543 -0.42599463 1 3199469875112 1 1
28.324621 -33.75597 -0.7691625 37 3199469896296 1 0
10.059055 -14.695464 -0.51827693 2 3199469898600 1 1
3.6183639 -4.7684584 -1.6756804 2 3199469898600 1 0
4.7490478 -6.940139 -1.6819019 3 3199469900904 1 0
29.62609 -39.054516 0 18 3199469900904 1 0
29.351824 -47.75739 -0.6525991 40 3199469903208 1 0
6.3862495 -8.421201 -1.6442688 6 3199469903208 1 0
0 0 0 15 3199469905512 1 0
28.329367 -33.80154 0.25632864 24 3199469905512 1 0
17.928503 -26.224808 -0.18463287 12 3199469907816 1 0
7.1512985 -9.435729 -1.2753117 62 3199469907816 1 0
9.331749 -15.198243 -1.6648141 42 3199469910120 1 0
29.42389 -38.83487 1.1337523 24 3199469910120 1 0
29.066679 -47.35517 0.6468717 28 3199469912424 1 0
10.909166 -14.402721 -1.2634293 4 3199469912424 1 1
9.954314 -14.574258 -1.4408021 3 3199469914728 1 0
28.311026 -33.819603 1.2835907 31 3199469914728 1 0
29.38754 -43.040173 0.90968925 10 3199469917032 1 0
11.879444 -14.195065 -1.1862844 3 3199469917032 1 1
9.101279 -14.842245 -1.0139445 56 3199469919336 1 1
32.207745 -42.56053 3.1083446 62 3199469919336 1 0
41.73607 -61.163677 3.016735 29 3199469921640 1 0
10.898693 -14.4063 -0.8414688 5 3199469921640 1 1
9.915721 -14.535904 -0.92215955 7 3199469923944 1 1
0 0 0 1 3199469923944 1 0
0 0 0 8 3199469926248 1 0
11.898494 -14.234646 -0.75585276 1 3199469926248 1 1
9.221501 -15.057953 -0.6166043 2 3199469928552 1 1
9.845398 -13.025823 4.3750772 3 3199469928552 1 0
18.637638 -27.347382 6.0339684 34 3199469930856 1 0
11.036583 -14.606221 -0.42599463 1 3199469930856 1 1
0 0 0 4 3199469951592 1 0
21.57097 -25.890284 -0.5882159 15 3199469951592 1 0
10.003096 -14.723946 -0.51804423 2 3199469953896 1 1
4.7313027 -6.966477 -1.6842552 3 3199469956200 1 0
3.6062973 -4.787239 -1.677837 2 3199469953896 1 0
0 0 0 44 3199469956200 1 0
16.215126 -26.59203 -0.36259645 9 3199469958504 1 0
6.354254 -8.440422 -1.6436539 6 3199469958504 1 0
6.462166 -9.521294 -1.4647114 3 3199469960808 1 0
21.547836 -25.894667 0.19579175 14 3199469960808 1 0
29.495926 -43.473305 -0.3053347 19 3199469963112 1 0
7.1084104 -9.44818 -1.2735981 45 3199469963112 1 0
9.277976 -15.23113 -1.6648141 41 3199469965416 1 0
29.394619 -39.08243 1.1379398 24 3199469965416 1 0
29.073526 -47.744778 0.6507831 29 3199469967720 1 0
10.843702 -14.422131 -1.2617551 4 3199469967720 1 1
9.882398 -14.579791 -1.437873 12 3199469970024 1 0
28.295607 -34.045937 1.2883615 37 3199469970024 1 0
0 0 0 65 3199469972328 1 0
11.811032 -14.215727 -1.1844937 3 3199469972328 1 1
0 0 0 24 3199469974632 1 0
32.094254 -42.726112 3.1120656 41 3199469974632 1 0
41.42105 -61.17001 3.0097334 29 3199469976936 1 0
9.894999 -14.617599 -0.9250904 7 3199469979240 1 1
10.818393 -14.406782 -0.83923537 5 3199469976936 1 1
0 0 0 1 3199469979240 1 0
0 0 0 8 3199469981544 1 0
11.765713 -14.178792 -0.75064224 1 3199469981544 1 1
9.1735735 -15.1012335 -0.6170231 2 3199469983848 1 1
9.719706 -12.956026 4.3398776 3 3199469983848 1 0
18.510418 -27.371918 6.0246415 28 3199469986152 1 0
11.043916 -14.725835 -0.42832094 1 3199469986152 1 1
0 0 0 4 3199470006888 1 0
28.306637 -34.229008 -0.7753057 22 3199470006888 1 0
9.955982 -14.770311 -0.51839334 2 3199470009192 1 1
3.5887969 -4.8003726 -1.677837 2 3199470009192 1 0
4.701557 -6.977129 -1.6826863 2 3199470011496 1 0
0 0 0 103 3199470011496 1 0
16.131136 -26.671114 -0.36287585 9 3199470013800 1 0
6.330742 -8.4728775 -1.6454986 6 3199470013800 1 0
21.367683 -25.867369 0.19500133 19 3199470016104 1 0
6.425564 -9.541249 -1.4642063 3 3199470016104 1 0
25.591137 -38.011337 -0.26632515 54 3199470018408 1 0
0 0 0 6 3199470018408 1 0
9.2296 -15.274454 -1.6659294 31 3199470020712 1 0
29.405308 -39.389236 1.143802 24 3199470020712 1 0
29.07072 -48.125385 0.65455484 29 3199470023016 1 0
10.770762 -14.431898 -1.2592438 5 3199470023016 1 1
9.817244 -14.594922 -1.4359202 4 3199470025320 1 0
29.331587 -43.619164 0.9175079 32 3199470027624 1 0
28.29166 -34.288002 1.2937143 38 3199470025320 1 0
11.740396 -14.232746 -1.182447 3 3199470027624 1 1
9.045441 -14.988391 -1.0195259 1 3199470029928 1 1
32.06541 -43.002075 3.123926 42 3199470029928 1 0
41.15957 -61.245163 3.006314 29 3199470032232 1 0
10.751111 -14.42219 -0.83793247 5 3199470032232 1 1
9.79936 -14.585736 -0.9209035 7 3199470034536 1 1
0 0 0 1 3199470034536 1 0
0 0 0 8 3199470036840 1 0
11.711272 -14.213436 -0.7503166 1 3199470036840 1 1
9.205853 -15.273271 -0.62274665 2 3199470039144 1 1
9.667875 -12.980298 4.336772 4 3199470039144 1 0
18.39183 -27.39962 6.016749 28 3199470041448 1 0
10.873677 -14.603444 -0.4236683 1 3199470041448 1 1
0 0 0 4 3199470062184 1 0
9.895613 -14.786775 -0.5178115 2 3199470064488 1 1
21.30085 -25.93208 -0.5857726 10 3199470062184 1 0
3.5681963 -4.8061137 -1.6756804 2 3199470064488 1 0
4.682553 -6.9993377 -1.6842552 2 3199470066792 1 0
29.586813 -39.86411 0 111 3199470066792 1 0
18.966482 -31.59831 -0.42904377 34 3199470069096 1 0
6.3069496 -8.500448 -1.6467284 7 3199470069096 1 0
6.3801003 -9.543085 -1.4611759 3 3199470071400 1 0
28.310278 -34.508453 0.25942057 16 3199470071400 1 0
14.186895 -21.227177 -0.14838979 27 3199470073704 1 1
0 0 0 4 3199470073704 1 0
9.173465 -15.298946 -1.6651859 22 3199470076008 1 0
29.390146 -39.649715 1.1484547 24 3199470076008 1 0
18.947176 -31.60989 0.42904377 24 3199470078312 1 0
10.704742 -14.446186 -1.2572907 5 3199470078312 1 1
9.740524 -14.588746 -1.4320147 4 3199470080616 1 0
28.287834 -34.524082 1.2989506 38 3199470080616 1 0
29.325373 -43.936234 0.9220455 32 3199470082920 1 0
11.665971 -14.24225 -1.1798887 3 3199470082920 1 1
9.077613 -15.160079 -1.0290607 1 3199470085224 1 1
32.05417 -43.29896 3.1374142 64 3199470085224 1 0
40.844406 -61.23492 2.998824 29 3199470087528 1 0
10.679521 -14.430569 -0.83625734 5 3199470087528 1 1
9.73509 -14.599913 -0.9196474 7 3199470089832 1 1
0 0 0 1 3199470089832 1 0
0 0 0 8 3199470092136 1 0
11.641133 -14.229651 -0.74901396 3 3199470092136 1 1
9.149986 -15.302147 -0.622607 2 3199470094440 1 1
9.610643 -12.998712 4.3315954 4 3199470094440 1 0
18.264336 -27.418602 6.0067043 34 3199470096744 1 0
10.774459 -14.577467 -0.42180726 1 3199470096744 1 1
11.7767105 -14.44482 -0.32531285 3 3199470117480 1 1
0 0 0 4 3199470117480 1 0
9.834824 -14.8128805 -0.51746243 2 3199470119784 1 1
3.5574465 -4.828437 -1.6789154 2 3199470119784 1 0
29.571556 -40.14899 0 114 3199470122088 1 0
4.6526313 -7.009849 -1.6826863 2 3199470122088 1 0
18.824635 -31.622522 -0.42843843 65 3199470124392 1 0
6.273594 -8.520187 -1.6461135 6 3199470124392 1 0
0 0 0 36 3199470126696 1 0
20.089651 -24.670418 0.18491185 40 3199470126696 1 0
6.97948 -9.484631 -1.2684574 1 3199470129000 1 0
14.072193 -21.221846 -0.14799456 66 3199470129000 1 1
9.124106 -15.342338 -1.6663013 17 3199470131304 1 0
29.374321 -39.929836 1.1534796 25 3199470131304 1 0
18.806234 -31.633469 0.42843843 78 3199470133608 1 0
10.635912 -14.462279 -1.2553375 4 3199470133608 1 1
9.718664 -14.670316 -1.4365711 3 3199470135912 1 0
29.611265 -36.406353 1.3657424 14 3199470135912 1 0
29.306147 -44.251583 0.9264435 33 3199470138216 1 0
11.589443 -14.2531805 -1.1773304 3 3199470138216 1 1
9.025131 -15.196025 -1.0292932 1 3199470140520 1 1
32.037914 -43.6037 3.151135 43 3199470140520 1 0
40.512108 -61.210987 2.9905198 29 3199470142824 1 0
10.608792 -14.443002 -0.83476835 5 3199470142824 1 1
9.676179 -14.624657 -0.9190194 9 3199470145128 1 1
0 0 0 1 3199470145128 1 0
0 0 0 8 3199470147432 1 0
11.577652 -14.255615 -0.7481998 3 3199470147432 1 1
9.548262 -13.011071 4.3243484 4 3199470149736 1 0
9.123952 -15.382791 -0.62456137 2 3199470149736 1 1
18.147188 -27.453833 6.000247 28 3199470152040 1 0
0 0 0 4 3199470172776 1 0
11.71112 -14.46719 -0.324894 1 3199470172776 1 1
9.763366 -14.817 -0.5164152 2 3199470175080 1 1
10.828997 -14.760782 -0.42599463 1 3199470152040 1 1
3.5406055 -4.8407993 -1.6789154 1 3199470175080 1 0
4.6260786 -7.0227046 -1.6819019 4 3199470177384 1 0
29.542782 -40.4033 0 111 3199470177384 1 0
6.244001 -8.541899 -1.6461135 6 3199470179688 1 0
18.694489 -31.653193 -0.4279728 58 3199470179688 1 0
0 0 0 3 3199470181992 1 0
6.3078423 -9.5815 -1.4601657 43 3199470181992 1 0
6.932599 -9.489415 -1.2658871 2 3199470184296 1 0
13.992206 -21.260305 -0.14792483 100 3199470184296 1 1
9.067119 -15.366837 -1.6655577 10 3199470186600 1 0
29.368586 -40.211697 1.1586905 25 3199470186600 1 0
18.668863 -31.64974 0.42778653 73 3199470188904 1 0
10.5625725 -14.466552 -1.2525473 4 3199470188904 1 1
0 0 0 85 3199470191208 1 0
29.574055 -36.616642 1.3698151 28 3199470191208 1 0
29.30379 -44.578957 0.9311906 33 3199470193512 1 0
11.517985 -14.264841 -1.175028 3 3199470193512 1 1
9.078563 -15.40568 -1.0413861 1 3199470195816 1 1
31.973413 -43.829086 3.159507 21 3199470195816 1 0
40.199966 -61.19181 2.9828668 29 3199470198120 1 0
10.550053 -14.466187 -0.83402383 5 3199470198120 1 1
9.613193 -14.63747 -0.91776335 9 3199470200424 1 1
0 0 0 1 3199470200424 1 0
0 0 0 8 3199470202728 1 0
11.524154 -14.2886305 -0.74787414 3 3199470202728 1 1
9.485911 -13.018373 4.3160663 4 3199470205032 1 0
9.118405 -15.492861 -0.62777215 2 3199470205032 1 1
18.034817 -27.485432 5.9937897 34 3199470207336 1 0
10.837883 -14.878124 -0.42832094 1 3199470207336 1 1
0 0 0 4 3199470228072 1 0
11.655561 -14.496595 -0.32468456 1 3199470228072 1 1
9.73158 -14.876134 -0.5173461 2 3199470230376 1 1
3.5267618 -4.855656 -1.6799936 1 3199470230376 1 0
4.609103 -7.0479217 -1.6842552 3 3199470232680 1 0
29.534958 -40.676258 0 107 3199470232680 1 0
18.56648 -31.67746 -0.42746058 50 3199470234984 1 0
6.2224193 -8.5722885 -1.6479583 5 3199470234984 1 0
6.2518764 -9.56601 -1.45461 43 3199470237288 1 0
19.961334 -24.856491 0.18528381 9 3199470237288 1 0
13.940542 -21.337233 -0.14813405 39 3199470239592 1 1
0 0 0 57 3199470239592 1 0
29.348354 -40.468765 1.1632501 17 3199470241896 1 0
9.029526 -15.421271 -1.6681601 5 3199470241896 1 0
18.535925 -31.667545 0.42718118 66 3199470244200 1 0
10.495066 -14.47619 -1.2503151 4 3199470244200 1 1
10.875927 -16.662441 -1.6243603 5 3199470246504 1 0
29.580421 -36.87841 1.3758659 28 3199470246504 1 0
29.27745 -44.868713 0.93516976 33 3199470248808 1 0
11.442213 -14.269452 -1.1722138 3 3199470248808 1 1
9.127089 -15.608714 -1.0530139 1 3199470251112 1 1
36.27538 -50.081795 3.6013634 28 3199470251112 1 0
39.85875 -61.123764 2.972934 29 3199470253416 1 0
10.484459 -14.479279 -0.832721 5 3199470253416 1 1
9.554594 -14.656718 -0.91692597 14 3199470255720 1 1
22.674784 -31.323984 4.7480297 7 3199470255720 1 0
0 0 0 8 3199470258024 1 0
11.417889 -14.2561035 -0.74412906 3 3199470258024 1 1
9.14805 -15.66547 -0.6334957 2 3199470260328 1 1
9.4323015 -13.0381975 4.3119254 4 3199470260328 1 0
17.908356 -27.49758 5.983028 28 3199470262632 1 0
0 0 0 4 3199470283368 1 0
10.669687 -14.753143 -0.4236683 1 3199470262632 1 1
11.569957 -14.493434 -0.32370722 1 3199470283368 1 1
9.775278 -15.057642 -0.522466 2 3199470285672 1 1
4.5886407 -7.0706143 -1.6858243 3 3199470287976 1 0
29.595678 -41.061848 0 83 3199470287976 1 0
18.432985 -31.704443 -0.42694837 58 3199470290280 1 0
6.1945815 -8.597299 -1.6485732 6 3199470290280 1 0
6.2116904 -9.577969 -1.4530947 37 3199470292584 1 0
29.603619 -37.130306 0.27599615 19 3199470292584 1 0
3.5075028 -4.864838 -1.6789154 2 3199470285672 1 0
29.4951 -45.494484 -0.31512195 40 3199470294888 1 0
6.862505 -9.530428 -1.2650304 33 3199470294888 1 0
8.994968 -15.487528 -1.6718779 4 3199470297192 1 0
29.364008 -40.792934 1.1695776 25 3199470297192 1 0
18.401566 -31.694942 0.42666897 66 3199470299496 1 0
10.427418 -14.490596 -1.2483618 4 3199470299496 1 1
10.402782 -16.061808 -1.5621979 5 3199470301800 1 0
29.571402 -37.136417 1.3815676 29 3199470301800 1 0
29.248125 -45.173973 0.93935835 34 3199470304104 1 0
11.373994 -14.28819 -1.170423 3 3199470304104 1 1
36.238876 -50.40852 3.6155493 28 3199470306408 1 0
9.0754175 -15.648047 -1.0534791 1 3199470306408 1 1
38.024933 -58.769165 2.8517892 29 3199470308712 1 0
10.43036 -14.513378 -0.83253485 5 3199470308712 1 1
9.499923 -14.687455 -0.91671664 19 3199470311016 1 1
0 0 0 1 3199470311016 1 0
0 0 0 8 3199470313320 1 0
11.391577 -14.328232 -0.7457574 4 3199470313320 1 1
9.264011 -15.995732 -0.6455011 2 3199470315624 1 1
9.565674 -13.323081 4.3947473 3 3199470315624 1 0
17.785763 -27.52551 5.9751353 33 3199470317928 1 0
0 0 0 4 3199470338664 1 0
10.534899 -14.67775 -0.42041147 1 3199470317928 1 1
11.49192 -14.5043955 -0.32300913 1 3199470338664 1 1
9.718078 -15.089866 -0.52234966 2 3199470340968 1 1
3.4897196 -4.8776107 -1.6789154 1 3199470340968 1 0
4.558655 -7.0806565 -1.6842552 4 3199470343272 1 0
29.522968 -41.276554 0 113 3199470343272 1 0
18.298067 -31.736341 -0.42648274 54 3199470345576 1 0
6.168003 -8.626106 -1.649803 6 3199470345576 1 0
6.170661 -9.5903015 -1.4515795 37 3199470347880 1 0
29.61595 -37.4219 0.27736777 29 3199470347880 1 0
29.443995 -45.775085 -0.31633085 30 3199470350184 1 0
6.8051004 -9.522663 -1.2607465 39 3199470350184 1 0
8.941485 -15.523063 -1.6722497 2 3199470352488 1 0
29.313173 -41.031143 1.1733928 25 3199470352488 1 0
18.266554 -31.722185 0.42615676 66 3199470354792 1 0
10.359482 -14.504931 -1.2464087 4 3199470354792 1 1
10.330629 -16.075146 -1.5599197 5 3199470357096 1 0
29.5634 -37.39796 1.3873857 29 3199470357096 1 0
29.215828 -45.475586 0.9434771 34 3199470359400 1 0
11.298674 -14.296981 -1.1678647 3 3199470359400 1 1
9.113872 -15.842577 -1.0644091 1 3199470361704 1 1
36.23287 -50.7763 3.6327586 28 3199470361704 1 0
36.242386 -56.446995 2.732924 29 3199470364008 1 0
10.342297 -14.497804 -0.8295569 5 3199470364008 1 1
22.745565 -31.893993 4.8099394 7 3199470366312 1 0
9.437808 -14.703719 -0.9156699 19 3199470366312 1 1
0 0 0 8 3199470368616 1 0
11.287222 -14.298728 -0.74217516 9 3199470368616 1 1
0 0 0 50 3199470370920 1 0
9.508285 -13.340382 4.389571 3 3199470370920 1 0
10.412305 -14.613018 -0.41752684 1 3199470373224 1 1
17.66316 -27.543592 5.9658084 39 3199470373224 1 0
0 0 0 4 3199470393960 1 0
11.423973 -14.517281 -0.32245067 1 3199470393960 1 1
9.775558 -15.290514 -0.5281677 2 3199470396264 1 1
3.4757211 -4.8923216 -1.6799936 1 3199470396264 1 0
4.5308213 -7.0891905 -1.6826863 3 3199470398568 1 0
29.528929 -41.576847 0 115 3199470398568 1 0
18.174156 -31.765997 -0.42606366 50 3199470400872 1 0
6.136887 -8.643424 -1.649188 6 3199470400872 1 0
6.138545 -9.610889 -1.4515795 18 3199470403176 1 0
29.60183 -37.66228 0.27841392 19 3199470403176 1 0
29.393694 -46.035362 -0.31744674 30 3199470405480 1 0
6.7639318 -9.53245 -1.2590328 37 3199470405480 1 0
29.327854 -41.344666 1.1795343 26 3199470407784 1 0
8.897186 -15.566848 -1.6737368 2 3199470407784 1 0
18.137814 -31.745308 0.42564458 66 3199470410088 1 0
10.349824 -14.595063 -1.2511522 8 3199470410088 1 1
10.267752 -16.09647 -1.5586178 5 3199470412392 1 0
29.565426 -37.66104 1.3934366 36 3199470412392 1 0
29.201653 -45.79331 0.94801474 34 3199470414696 1 0
11.2354765 -14.316265 -1.1663297 3 3199470414696 1 1
9.198696 -16.116137 -1.0806881 1 3199470417000 1 1
36.17832 -51.064972 3.644619 28 3199470417000 1 0
44.17171 -69.31345 3.3485808 29 3199470419304 1 0
10.272216 -14.503498 -0.82788175 5 3199470419304 1 1
9.381272 -14.725647 -0.91504186 21 3199470421608 1 1
23.366442 -33.00161 4.964957 8 3199470421608 1 0
0 0 0 8 3199470423912 1 0
11.218663 -14.311977 -0.7408725 4 3199470423912 1 1
15.276706 -26.80103 -1.0772777 49 3199470426216 1 0
9.5095 -13.439035 4.4113116 4 3199470426216 1 0
17.551811 -27.577372 5.9600687 33 3199470428520 1 0
10.429163 -14.743272 -0.42022535 1 3199470428520 1 1
0 0 0 4 3199470449256 1 0
11.326446 -14.4971895 -0.3211243 1 3199470449256 1 1
9.728551 -15.334673 -0.5285168 2 3199470451560 1 1
3.4564025 -4.901276 -1.6789154 2 3199470451560 1 0
4.5102496 -7.1115875 -1.6842552 3 3199470453864 1 0
29.514992 -41.866016 0 115 3199470453864 1 0
18.18753 -32.048393 -0.4289972 11 3199470456168 1 0
6.1044016 -8.661562 -1.6485732 7 3199470456168 1 0
0 0 0 15 3199470458472 1 0
29.635056 -37.97666 0.2799715 29 3199470458472 1 0
29.434057 -46.45529 -0.319632 30 3199470460776 1 0
6.728326 -9.552751 -1.2586045 14 3199470460776 1 0
8.878149 -15.660173 -1.6804287 2 3199470463080 1 0
29.307678 -41.62335 1.1845591 26 3199470463080 1 0
18.131413 -31.992855 0.42811248 19 3199470465384 1 0
10.225317 -14.526687 -1.2422233 4 3199470465384 1 1
10.188047 -16.095158 -1.5550379 5 3199470467688 1 0
29.549307 -37.91223 1.3989056 22 3199470467688 1 0
29.16994 -46.09774 0.9522033 35 3199470469992 1 0
11.168261 -14.333355 -1.1645389 3 3199470469992 1 1
13.269934 -23.438618 -1.5685908 7 3199470472296 1 0
36.123894 -51.367332 3.657177 28 3199470472296 1 0
37.736855 -59.674583 2.8765392 29 3199470474600 1 0
9.31914 -14.741423 -0.91399515 21 3199470476904 1 1
10.2054405 -14.516385 -0.82657886 3 3199470474600 1 1
23.134676 -32.917313 4.940096 7 3199470476904 1 0
0 0 0 8 3199470479208 1 0
11.1563635 -14.33528 -0.74005836 4 3199470479208 1 1
15.118134 -26.739355 -1.0726709 31 3199470481512 1 0
9.631307 -13.71244 4.4899926 3 3199470481512 1 0
17.423923 -27.588564 5.9493065 33 3199470483816 1 0
0 0 0 4 3199470504552 1 0
