# .PCD v.7 - Point Cloud Data file format
VERSION .7
FIELDS x y z rgb timestamp_ns device_id active
SIZE 4 4 4 4 8 1 1
TYPE F F F F F U U
COUNT 1 1 1 1 1 1 1
WIDTH 958
HEIGHT 1
VIEWPOINT 0 0 0 1 0 0 0
POINTS 958               
DATA ascii
0.44023058 24.019552 2.9497256 25 3207230387128 1 0
1.4033022 20.807358 1.7024702 5 3207230389432 1 0
-0.5475948 18.00873 -0.7340337 42 3207230389432 1 0
1.745902 14.937146 -0.52516764 8 3207230391736 1 0
0.36495158 19.601034 5.252991 9 3207230391736 1 0
1.4185014 20.941984 3.827014 7 3207230394040 1 0
0.3627432 19.331364 -0.44990912 56 3207230394040 1 0
0.28518862 4.1301794 -1.9305202 1 3207230414776 1 0
-0.52063054 18.07375 -0.3156093 43 3207230414776 1 0
1.4101206 20.378622 -0.59449416 81 3207230417080 1 0
0.14327687 7.086079 -1.9840747 6 3207230417080 1 0
0.73666346 10.623593 -2.1298337 5 3207230419384 1 0
0 0 0 11 3207230419384 1 0
1.8095478 15.23185 -0.17857422 23 3207230421688 1 0
0.29056326 14.166565 -2.2044516 7 3207230421688 1 0
1.2111673 17.393206 -2.2192903 14 3207230423992 1 0
-1.4957968 52.998 0.30814767 35 3207230423992 1 0
3.6912901 52.89847 -0.30819416 100 3207230426296 1 0
0.36334318 17.467157 -1.8819094 35 3207230426296 1 0
1.7259307 14.474089 -1.3607012 19 3207230428600 1 0
2.5163746 21.076878 0.24711691 7 3207230430904 1 0
0.490255 23.40453 0.5447297 23 3207230428600 1 0
1.387631 19.76144 -1.6172003 19 3207230433208 1 0
0.38698676 18.347107 -1.2832401 19 3207230430904 1 0
-0.65291715 23.620974 0.6877002 28 3207230433208 1 0
3.7645113 53.49955 0.9361471 15 3207230435512 1 0
-0.46508953 16.914892 -1.0844641 14 3207230435512 1 0
1.7413203 14.53124 -0.85231805 3 3207230437816 1 0
0.5074525 23.570591 1.3730111 35 3207230437816 1 0
1.698896 24.044058 0.98202246 27 3207230440120 1 0
0.42114466 19.430363 -0.90530956 38 3207230440120 1 0
1.4433299 20.384922 -1.071003 53 3207230442424 1 0
0.5232923 23.982147 2.9453382 15 3207230442424 1 0
1.4660497 20.663147 1.6910793 21 3207230444728 1 0
-0.48709482 18.098427 -0.73761594 42 3207230444728 1 0
1.8940988 15.728707 -0.5532268 4 3207230447032 1 0
0.43499252 19.673033 5.2726617 13 3207230447032 1 0
1.4082615 19.767202 3.6132064 17 3207230449336 1 0
0.43253353 19.433926 -0.4523285 50 3207230449336 1 0
0.2996039 4.129159 -1.9305202 1 3207230470072 1 0
1.4815366 20.377563 -0.5946105 86 3207230472376 1 0
0.16791973 7.081685 -1.9829963 6 3207230472376 1 0
0.7728873 10.609221 -2.1274803 3 3207230474680 1 0
-0.4600683 18.17541 -0.31735456 34 3207230470072 1 0
0.6186838 25.932621 0 28 3207230474680 1 0
1.8573631 15.181769 -0.178062 47 3207230476984 1 0
0.34010687 14.169415 -2.2050664 7 3207230476984 1 0
1.2707157 17.373043 -2.21727 6 3207230479288 1 0
-1.3102957 52.982906 0.30803144 35 3207230479288 1 0
3.8700705 52.805477 -0.3077292 58 3207230481592 1 0
0.42653427 17.557226 -1.8917623 31 3207230481592 1 0
0 0 0 84 3207230483896 1 0
0.57400084 23.486628 0.5466838 30 3207230483896 1 0
6.5580363 53.34677 0.6257315 92 3207230486200 1 0
0.4505374 18.325699 -1.281845 26 3207230486200 1 0
1.4516196 19.688885 -1.6116675 17 3207230488504 1 0
-0.57094324 23.643093 0.688282 30 3207230488504 1 0
3.899968 52.79208 0.9240002 15 3207230490808 1 0
-0.41016155 17.08801 -1.0954647 18 3207230490808 1 0
1.9392097 15.717993 -0.92231745 4 3207230493112 1 0
0.5903255 23.592628 1.3744065 10 3207230493112 1 0
1.7597578 23.727095 0.9693218 32 3207230495416 1 0
0.49137938 19.52464 -0.9097765 38 3207230495416 1 0
1.5109254 20.331957 -1.0684909 35 3207230497720 1 0
0.6141354 24.261967 2.9799492 32 3207230497720 1 0
1.8454471 24.784712 2.0289044 7 3207230500024 1 0
-0.4259753 18.18792 -0.7411982 42 3207230500024 1 0
1.9514496 15.741836 -0.5539248 6 3207230502328 1 0
0.506035 19.764093 5.2975082 9 3207230502328 1 0
1.4716799 19.687607 3.5995743 14 3207230504632 1 0
0.5031472 19.540232 -0.45484093 55 3207230504632 1 0
0.31374055 4.124473 -1.9288298 1 3207230525368 1 0
-0.3983664 18.256872 -0.31875074 43 3207230525368 1 0
1.5528142 20.376266 -0.59472686 78 3207230527672 1 0
0.19237745 7.073356 -1.9808397 6 3207230527672 1 0
0.80886567 10.594738 -2.125127 4 3207230529976 1 0
0.6563596 24.01103 0 18 3207230529976 1 0
1.9100149 15.175235 -0.178062 45 3207230532280 1 0
0.38914764 14.1642 -2.2044516 7 3207230532280 1 0
1.3293302 17.348757 -2.2147446 4 3207230534584 1 0
-0.5461774 25.681759 0.14929643 30 3207230534584 1 0
3.8592746 50.27524 -0.29305995 19 3207230536888 1 0
0.4899375 17.655035 -1.902472 31 3207230536888 1 0
1.8397777 14.568452 -1.3707391 14 3207230539192 1 0
0.65607107 23.524483 0.54761434 26 3207230539192 1 0
0.5140177 18.339996 -1.282961 22 3207230541496 1 0
6.653202 52.625507 0.6175362 27 3207230541496 1 0
1.5139773 19.616213 -1.6061347 12 3207230543800 1 0
-0.48904032 23.608938 0.68723476 28 3207230543800 1 0
3.883143 50.22243 0.87925225 19 3207230546104 1 0
-0.35212198 17.11326 -1.0969998 15 3207230546104 1 0
1.9919164 15.70335 -0.9218523 4 3207230548408 1 0
0.6541576 22.999714 1.3399881 40 3207230548408 1 0
1.8369621 23.673138 0.9673678 9 3207230550712 1 0
0.56127876 19.638678 -0.9151741 38 3207230550712 1 0
1.5760896 20.274925 -1.0657694 38 3207230553016 1 0
0.7016054 24.430384 3.0009108 13 3207230553016 1 0
1.9320843 24.8101 2.0315082 10 3207230555320 1 0
-0.36612484 18.285164 -0.74510604 45 3207230555320 1 0
1.9967012 15.671684 -0.55169123 6 3207230557624 1 0
0.5742412 19.804747 5.308896 13 3207230557624 1 0
1.5640014 20.012064 3.6598423 10 3207230559928 1 0
0.57224876 19.642347 -0.45726028 53 3207230559928 1 0
0.32827696 4.1342516 -1.9339012 1 3207230580664 1 0
-0.33959788 18.354063 -0.3204262 29 3207230580664 1 0
1.6198899 20.363022 -0.59449416 44 3207230582968 1 0
0.2157664 7.0688276 -1.9797615 6 3207230582968 1 0
0.84321386 10.5802555 -2.1227736 4 3207230585272 1 0
0.7353477 23.976727 0 23 3207230585272 1 0
1.9606582 15.168775 -0.178062 48 3207230587576 1 0
0.4361812 14.154921 -2.2032218 6 3207230587576 1 0
1.385776 17.324436 -2.2122192 6 3207230589880 1 0
1.5026767 18.75157 -0.109333724 3 3207230592184 1 0
0.55221415 17.75267 -1.9131817 27 3207230592184 1 0
1.8830788 14.518743 -1.3666496 7 3207230594488 1 0
-0.4619836 25.779425 0.14985438 9 3207230589880 1 0
0.73972553 23.670034 0.5510573 23 3207230594488 1 0
6.867953 52.892357 0.6209354 18 3207230596792 1 0
0.57927215 18.449833 -1.2907737 27 3207230596792 1 0
1.5763173 19.563307 -1.6022292 10 3207230599096 1 0
-0.40750244 23.502516 0.684093 24 3207230599096 1 0
4.5777917 56.71087 0.9931117 38 3207230601400 1 0
-0.29706377 17.277994 -1.1074888 14 3207230601400 1 0
2.0461528 15.704429 -0.92231745 4 3207230603704 1 0
0.7334938 23.041267 1.3425462 33 3207230603704 1 0
1.5733163 19.42021 0.79379195 4 3207230606008 1 0
0.63090813 19.728512 -0.919455 36 3207230606008 1 0
1.5222923 18.7565 -0.98621875 10 3207230608312 1 0
0.8175089 25.447666 3.1261923 10 3207230608312 1 0
1.9943991 24.529186 2.0090516 10 3207230610616 1 0
-0.30521867 18.37422 -0.7486883 39 3207230610616 1 0
2.063224 15.763862 -0.5551812 4 3207230612920 1 0
0.63930035 19.721573 5.2871556 20 3207230612920 1 0
1.6149353 19.790874 3.620381 25 3207230615224 1 0
0.6431684 19.752182 -0.45986575 45 3207230615224 1 0
0.3415079 4.118629 -1.9271393 1 3207230635960 1 0
-0.2770889 18.459108 -0.32224125 42 3207230635960 1 0
0 0 0 9 3207230638264 1 0
0.2404399 7.0680313 -1.9797615 6 3207230638264 1 0
0.8785144 10.557703 -2.1188512 4 3207230640568 1 0
0.8195839 23.990004 0 23 3207230640568 1 0
2.0146484 15.169768 -0.17815514 55 3207230642872 1 0
0.48585948 14.161212 -2.2044516 7 3207230642872 1 0
1.4455807 17.311586 -2.211209 6 3207230645176 1 0
-0.37124357 25.728888 0.14955217 18 3207230645176 1 0
1.5257771 18.239986 -0.10638127 4 3207230647480 1 0
0.61775476 17.853973 -1.9243197 27 3207230647480 1 0
1.9358513 14.527873 -1.3681366 5 3207230649784 1 0
0.8437297 24.282768 0.56538737 28 3207230649784 1 0
7.059944 52.923565 0.6215873 27 3207230652088 1 0
0.64603597 18.515491 -1.2955172 19 3207230652088 1 0
-0.32535017 23.495798 0.6838603 18 3207230654392 1 0
4.501787 53.44256 0.9361471 100 3207230656696 1 0
-0.2373521 17.322832 -1.1103029 19 3207230656696 1 0
1.5764474 18.74725 -1.5358357 37 3207230654392 1 0
2.1004295 15.693233 -0.92208487 3 3207230659000 1 0
0.81279045 23.006641 1.3406858 20 3207230659000 1 0
2.0467412 24.213491 0.9900011 6 3207230661304 1 0
0.70387757 19.84199 -0.9248526 36 3207230661304 1 0
0.90124506 25.30182 3.1086433 28 3207230663608 1 0
2.0901182 24.641249 2.0188153 10 3207230665912 1 0
-0.24249445 18.483074 -0.75308466 37 3207230665912 1 0
1.5216973 17.97094 -0.9451874 5 3207230663608 1 0
2.1411402 15.926927 -0.5611839 6 3207230668216 1 0
0.70799893 19.71536 5.2861204 13 3207230668216 1 0
1.6749978 19.67925 3.6010094 25 3207230670520 1 0
0.7162912 19.86571 -0.4625643 52 3207230670520 1 0
0.35650688 4.1246357 -1.9305202 1 3207230691256 1 0
-0.21362035 18.543945 -0.32370722 45 3207230691256 1 0
1.5023127 17.351711 -0.5068735 4 3207230693560 1 0
0.26496607 7.0633 -1.9786831 4 3207230693560 1 0
1.9954016 52.986443 0 92 3207230695864 1 0
2.0638056 15.134902 -0.17782919 52 3207230698168 1 0
0.91502345 10.550665 -2.1180668 4 3207230695864 1 0
0.5348404 14.147581 -2.202607 7 3207230698168 1 0
1.5049688 17.294575 -2.209694 4 3207230700472 1 0
-0.280862 25.67803 0.14924994 33 3207230700472 1 0
0 0 0 47 3207230702776 1 0
0.6840093 17.955036 -1.9354578 28 3207230702776 1 0
0 0 0 44 3207230705080 1 0
0.9257366 24.207748 0.5637124 12 3207230705080 1 0
7.2576637 52.993702 0.6227048 18 3207230707384 1 0
0.7079081 18.441353 -1.2904948 17 3207230707384 1 0
1.5051417 17.180824 -1.4079309 9 3207230709688 1 0
-0.24242166 23.408833 0.6813003 32 3207230709688 1 0
4.9725447 56.665577 0.9929023 38 3207230711992 1 0
-0.17749403 17.383429 -1.1141404 20 3207230711992 1 0
2.157914 15.7055855 -0.92324764 3 3207230714296 1 0
0.89046013 22.93583 1.3367324 16 3207230714296 1 0
0 0 0 100 3207230716600 1 0
0.7776469 19.955198 -0.9302502 40 3207230716600 1 0
1.5233576 17.273159 -0.90876156 7 3207230718904 1 0
0.94766176 24.22739 2.9770243 13 3207230718904 1 0
1.8372301 20.797554 1.704423 7 3207230721208 1 0
2.2120233 16.030237 -0.5650926 6 3207230723512 1 0
0.7790961 19.77068 5.301649 7 3207230723512 1 0
-0.17874461 18.563738 -0.7563413 39 3207230721208 1 0
1.7165825 19.367542 3.545046 14 3207230725816 1 0
0.37350065 4.1522512 -1.944044 1 3207230746552 1 0
0.7897402 19.966978 -0.46498364 50 3207230725816 1 0
-0.14969133 18.64456 -0.32545248 42 3207230746552 1 0
1.4720993 16.338871 -0.47743383 6 3207230748856 1 0
0.28946215 7.058483 -1.9776049 5 3207230748856 1 0
2.1800177 52.97116 0 100 3207230751160 1 0
0.9511415 10.539594 -2.1164978 5 3207230751160 1 0
2.1166236 15.127605 -0.17782919 50 3207230753464 1 0
1.5638977 17.273409 -2.2076735 4 3207230755768 1 0
0.58536315 14.173271 -2.2069113 8 3207230753464 1 0
1.5291694 16.86252 -0.09840732 4 3207230758072 1 0
0.75114214 18.059826 -1.9470243 28 3207230758072 1 0
-0.1895592 25.454865 0.14794807 33 3207230755768 1 0
0 0 0 176 3207230760376 1 0
1.0055625 24.092497 0.5611069 7 3207230760376 1 0
7.456516 53.067066 0.62386894 27 3207230762680 1 0
0.79214656 18.913195 -1.3236989 22 3207230762680 1 0
1.5104744 16.57595 -1.3587867 9 3207230764984 1 0
-0.1593357 23.209625 0.6754822 36 3207230764984 1 0
4.8751373 53.41381 0.9362169 21 3207230767288 1 0
-0.11734992 17.463778 -1.119257 21 3207230767288 1 0
2.2127235 15.697957 -0.92324764 4 3207230769592 1 0
0.99601114 23.53502 1.3718483 21 3207230769592 1 0
1.7663902 19.29123 0.78923273 9 3207230771896 1 0
0.8525542 20.076117 -0.9360201 38 3207230771896 1 0
1.0322254 24.223934 2.9770243 32 3207230774200 1 0
1.5307454 16.690952 -0.8784067 6 3207230774200 1 0
1.9098159 20.791014 1.704423 18 3207230776504 1 0
-0.11455725 18.664165 -0.760412 39 3207230776504 1 0
2.2517178 15.907633 -0.56104434 6 3207230778808 1 0
0.84893197 19.78714 5.3068256 7 3207230778808 1 0
1.7917604 19.443722 3.5601132 12 3207230781112 1 0
0.8647648 20.087952 -0.46786827 52 3207230781112 1 0
0.3863055 4.1328745 -1.9355917 1 3207230801296 1 0
-0.085044324 18.740952 -0.3271279 45 3207230801296 1 0
0 0 0 28 3207230803600 1 0
0.3140991 7.05743 -1.9776049 5 3207230803600 1 0
0.98755956 10.532304 -2.1157134 3 3207230805904 1 0
2.3649082 52.963226 0 92 3207230805904 1 0
2.168848 15.116166 -0.17778262 50 3207230808208 1 0
1.6230689 17.255993 -2.2061584 6 3207230810512 1 0
0.63518727 14.179039 -2.208141 7 3207230808208 1 0
-0.10133696 25.615366 0.14887798 24 3207230810512 1 0
1.5324986 16.267698 -0.09496667 4 3207230812816 1 0
0.8182983 18.148472 -1.9568772 26 3207230812816 1 0
0 0 0 30 3207230815120 1 0
2.422178 53.546734 1.2472765 15 3207230815120 1 0
7.6645236 53.19907 0.6257315 37 3207230817424 1 0
0.85635215 18.870453 -1.3209085 27 3207230817424 1 0
-0.07792676 23.094091 0.6721077 28 3207230819728 1 0
1.5179894 16.038733 -1.3151753 49 3207230819728 1 0
4.9955087 52.6997 0.9240002 44 3207230822032 1 0
-0.056711473 17.563875 -1.1256527 21 3207230822032 1 0
2.1372817 14.7890415 -0.8702249 4 3207230824336 1 0
1.8375016 19.324734 0.79086107 9 3207230826640 1 0
1.0801681 23.575281 1.3744065 14 3207230824336 1 0
0.9275812 20.180788 -0.94104546 38 3207230826640 1 0
1.4208584 14.919929 -0.785458 4 3207230828944 1 0
1.1147648 24.176558 2.971662 19 3207230828944 1 0
-0.04964979 18.756374 -0.76415706 39 3207230831248 1 0
1.9812428 20.772314 1.7034466 18 3207230831248 1 0
2.306658 15.89572 -0.5609047 6 3207230833552 1 0
0.91495234 19.718445 5.289226 11 3207230833552 1 0
1.8802333 19.652796 3.5995743 21 3207230835856 1 0
0.94008577 20.19666 -0.47047374 43 3207230835856 1 0
0.40107957 4.1351094 -1.9372821 1 3207230856592 1 0
-0.019726193 18.83712 -0.32880333 42 3207230856592 1 0
1.5501777 15.958096 -0.46661216 6 3207230858896 1 0
0.3387322 7.0562906 -1.9776049 5 3207230858896 1 0
1.022799 10.513177 -2.1125755 3 3207230861200 1 0
1.1679232 24.2559 0 19 3207230861200 1 0
2.2227638 15.116418 -0.17787576 50 3207230863504 1 0
0.6846775 14.176735 -2.208141 8 3207230863504 1 0
1.6825229 17.242325 -2.2051482 4 3207230865808 1 0
-0.011970429 25.719563 0.14948241 30 3207230865808 1 0
1.5604844 15.967659 -0.09324634 15 3207230868112 1 0
0.8872404 18.2607 -1.9693005 24 3207230868112 1 0
0 0 0 100 3207230870416 1 0
0 0 0 3 3207230870416 1 0
7.7619653 52.57451 0.61870027 27 3207230872720 1 0
1.5692918 15.9857235 -1.3112699 23 3207230875024 1 0
0.91500926 18.719885 -1.3105847 18 3207230872720 1 0
0.0026885304 23.106216 0.6724568 26 3207230875024 1 0
5.1794343 52.681942 0.9240002 66 3207230877328 1 0
0.0046306322 17.687712 -1.1335834 21 3207230877328 1 0
0 0 0 10 3207230879632 1 0
1.162848 23.579344 1.3748716 10 3207230879632 1 0
5.1947737 52.68058 2.1566718 32 3207230881936 1 0
0.99723005 20.161465 -0.94030094 34 3207230881936 1 0
1.4721448 14.906928 -0.78503937 6 3207230884240 1 0
1.2361317 24.917997 3.0633078 20 3207230884240 1 0
1.896786 19.17832 1.5732634 7 3207230886544 1 0
0.015913509 18.864344 -0.76855344 35 3207230886544 1 0
2.3603668 15.875709 -0.5604859 6 3207230888848 1 0
1.9422194 19.579544 3.5873773 12 3207230891152 1 0
0.9843547 19.726707 5.2923317 15 3207230888848 1 0
1.0169756 20.32106 -0.47345144 47 3207230891152 1 0
0.4147862 4.12647 -1.9339012 1 3207230911888 1 0
0.046262283 18.93306 -0.33047876 43 3207230911888 1 0
1.6042705 15.936675 -0.4661467 6 3207230914192 1 0
1.0590972 10.50564 -2.111791 5 3207230916496 1 0
0.36296493 7.0473714 -1.9754483 6 3207230914192 1 0
1.2517596 24.235695 0 24 3207230916496 1 0
2.276112 15.112522 -0.17792231 51 3207230918800 1 0
0.735386 14.197942 -2.2118306 8 3207230918800 1 0
1.7419013 17.22845 -2.204138 4 3207230921104 1 0
0.07767457 25.67545 0.1492267 24 3207230921104 1 0
1.6182271 15.982013 -0.093362585 9 3207230923408 1 0
0.95594156 18.352812 -1.9795818 22 3207230923408 1 0
2.1742313 14.393424 -1.3588423 2 3207230925712 1 0
1.2724001 24.36019 0.56762064 28 3207230925712 1 0
8.050085 53.23918 0.62684906 64 3207230928016 1 0
0 0 0 19 3207230930320 1 0
0.98932314 18.887922 -1.3225827 16 3207230928016 1 0
0.0835029 23.150047 0.67373675 22 3207230930320 1 0
5.3637023 52.66752 0.92407 33 3207230932624 1 0
0.06647709 17.71553 -1.1353742 16 3207230932624 1 0
2.230896 14.710591 -0.86650395 3 3207230934928 1 0
2.1469855 21.021114 0.8608776 11 3207230937232 1 0
1.0285059 19.419697 -0.90586793 18 3207230937232 1 0
0 0 0 34 3207230939536 1 0
1.2520984 23.706734 1.382546 21 3207230934928 1 0
1.3157349 24.77477 3.046246 20 3207230939536 1 0
0.082160674 18.956097 -0.7722985 35 3207230941840 1 0
2.0973692 20.47639 1.6803391 13 3207230941840 1 0
2.4175742 15.879229 -0.5609047 4 3207230944144 1 0
1.0571222 19.796457 5.312002 28 3207230944144 1 0
1.0913242 20.381279 -0.47494027 100 3207230946448 1 0
2.000098 19.470867 3.568723 22 3207230946448 1 0
0.4273119 4.106968 -1.9254488 1 3207230967184 1 0
0.11296777 19.036764 -0.3322938 45 3207230967184 1 0
1.6555154 15.891233 -0.4649831 14 3207230969488 1 0
0.3870372 7.038375 -1.9732916 5 3207230969488 1 0
1.0946429 10.494109 -2.110222 4 3207230971792 1 0
1.3374068 24.263168 0 19 3207230971792 1 0
2.328801 15.10854 -0.17796887 53 3207230974096 1 0
0.78345007 14.179537 -2.2093709 6 3207230974096 1 0
1.6293436 15.580641 -1.9940277 16 3207230976400 1 0
0.341631 52.902004 0.30747348 35 3207230976400 1 0
1.668261 15.932628 -0.09310686 15 3207230978704 1 0
1.0252779 18.468563 -1.9924335 23 3207230978704 1 0
1.3559664 24.367695 0.56789976 15 3207230981008 1 0
8.232292 53.223454 0.62698877 46 3207230983312 1 0
2.2256382 14.401685 -1.3603294 3 3207230981008 1 0
1.0875475 19.498007 -1.3655528 27 3207230983312 1 0
1.5435588 14.685982 -1.2054961 3 3207230985616 1 0
0.16195253 23.197613 0.6751331 24 3207230985616 1 0
2.2230296 21.124115 0.37075892 19 3207230987920 1 0
0.12747282 17.922775 -1.1486773 20 3207230987920 1 0
2.295392 14.801698 -0.87231785 1 3207230990224 1 0
1.3360983 23.786139 1.3874296 10 3207230990224 1 0
2.213214 20.978075 0.85941213 18 3207230992528 1 0
1.1502318 20.429457 -0.95314354 57 3207230992528 1 0
1.6562436 15.679129 -0.82628006 8 3207230994832 1 0
1.4023577 24.849548 3.0559957 20 3207230994832 1 0
2.1603494 20.425745 1.676759 18 3207230997136 1 0
0.14556919 19.06363 -0.7766949 35 3207230997136 1 0
2.3246937 14.938991 -0.5279596 2 3207230999440 1 0
1.1283119 19.900885 5.3409896 16 3207230999440 1 0
2.0754232 19.573786 3.588812 23 3207231001744 1 0
1.1582427 20.38159 -0.4750333 100 3207231001744 1 0
0.44175816 4.1200237 -1.9322107 1 3207231022480 1 0
0.17368029 19.136297 -0.33403906 45 3207231022480 1 0
1.6841211 15.683157 -0.45904863 5 3207231024784 1 0
1.1277965 10.486652 -2.1094375 4 3207231027088 1 0
0.4095753 7.040958 -1.97437 6 3207231024784 1 0
3.087225 52.926037 0 100 3207231027088 1 0
2.378194 15.104892 -0.17801544 53 3207231029392 1 0
0.82992196 14.18877 -2.2112157 7 3207231029392 1 0
0 0 0 15 3207231031696 1 0
0.2485575 25.582361 0.148692 30 3207231031696 1 0
1.7034384 15.767986 -0.09217695 100 3207231034000 1 0
1.09205 18.568317 -2.0035715 23 3207231034000 1 0
2.2752476 14.406027 -1.3614447 2 3207231036304 1 0
1.4370005 24.367058 0.5679928 26 3207231036304 1 0
7.9449596 50.252377 0.5922983 17 3207231038608 1 0
1.1687835 19.765123 -1.3845265 30 3207231038608 1 0
1.576761 14.530078 -1.1931286 48 3207231040912 1 0
0.2409725 23.2689 0.6772276 14 3207231040912 1 0
2.2867002 21.040882 0.36943254 17 3207231043216 1 0
0.18901588 17.974129 -1.1520032 22 3207231043216 1 0
0 0 0 11 3207231045520 1 0
1.4217756 23.849176 1.391383 14 3207231045520 1 0
2.0891974 19.166477 0.7854877 16 3207231047824 1 0
1.2187971 20.389456 -0.9514684 61 3207231047824 1 0
1.6281682 14.914804 -0.7862954 20 3207231050128 1 0
1.2085645 20.164114 2.480285 10 3207231050128 1 0
2.0771172 18.999216 1.5602452 6 3207231052432 1 0
2.381467 14.954333 -0.52879715 2 3207231054736 1 0
0.21373732 19.158913 -0.7806028 32 3207231052432 1 0
1.1973028 19.869759 5.333743 14 3207231054736 1 0
2.1377227 19.495825 3.5758977 38 3207231057040 1 0
1.2314001 20.381308 -0.4751264 100 3207231057040 1 0
0.4587756 4.1291065 -1.9372821 1 3207231077776 1 0
0.24855155 19.243464 -0.3359239 38 3207231077776 1 0
1.6978987 15.2633505 -0.44694698 16 3207231080080 1 0
0.43640283 7.039346 -1.97437 6 3207231080080 1 0
3.2875926 52.917976 0 14 3207231082384 1 0
1.1665758 10.474517 -2.1078687 4 3207231082384 1 0
2.4374053 15.111656 -0.1782017 52 3207231084688 1 0
0.88364995 14.193446 -2.2124455 6 3207231084688 1 0
1.6112866 14.433162 -1.8485668 3 3207231086992 1 0
0.3411742 25.385279 0.14755286 33 3207231086992 1 0
1.7527919 15.682082 -0.091712 20 3207231089296 1 0
1.1673392 18.671326 -2.0151381 20 3207231089296 1 0
2.3261259 14.385797 -1.3603294 3 3207231091600 1 0
1.5285511 24.397547 0.5688303 13 3207231091600 1 0
1.2786481 20.366072 -1.4269384 87 3207231093904 1 0
8.62091 53.27129 0.62824595 9 3207231093904 1 0
1.6313828 14.544106 -1.1947559 68 3207231096208 1 0
0.33065197 23.679665 0.6892129 20 3207231096208 1 0
0.25428098 18.041191 -1.1563523 19 3207231098512 1 0
2.3624146 21.036541 0.36950234 21 3207231098512 1 0
2.390997 14.738011 -0.8695272 22 3207231100816 1 0
1.5064033 23.84398 1.391383 21 3207231100816 1 0
2.362743 20.989914 0.8605519 11 3207231103120 1 0
1.2877781 20.341177 -0.94942105 27 3207231103120 1 0
1.6717212 14.8336115 -0.7823179 22 3207231105424 1 0
1.2834677 20.231092 2.4890594 14 3207231105424 1 0
2.1464477 19.023605 1.5628488 6 3207231107728 1 0
0.28174993 19.27395 -0.7853249 32 3207231107728 1 0
2.4302144 14.930288 -0.5282388 2 3207231110032 1 0
1.2615681 19.803839 5.3171782 14 3207231110032 1 0
1.300249 20.369017 -0.47494027 100 3207231112336 1 0
2.2031777 19.480616 3.5744627 22 3207231112336 1 0
0.31054652 19.33856 -0.33759934 42 3207231133072 1 0
0.47215694 4.1312466 -1.9389726 1 3207231133072 1 0
1.7278801 15.099021 -0.44229248 12 3207231135376 1 0
0.4581168 7.0302463 -1.9722134 5 3207231135376 1 0
1.1984417 10.459074 -2.1055152 4 3207231137680 1 0
3.4553618 52.907284 0 14 3207231137680 1 0
2.486826 15.11171 -0.17829482 52 3207231139984 1 0
0.9296292 14.202392 -2.2142901 6 3207231139984 1 0
1.6529325 14.388512 -1.8435161 3 3207231142288 1 0
0.42665863 25.640017 0.14904071 36 3207231142288 1 0
1.7798786 15.473707 -0.090526365 20 3207231144592 1 0
1.2343932 18.774624 -2.0267045 22 3207231144592 1 0
0 0 0 17 3207231146896 1 0
1.6086339 24.412436 0.5692956 26 3207231146896 1 0
8.732379 52.872097 0.62386894 18 3207231149200 1 0
1.2936856 19.58939 -1.3728074 24 3207231149200 1 0
1.6764715 14.518911 -1.1931286 56 3207231151504 1 0
0.40463012 23.494566 0.6838603 82 3207231151504 1 0
2.435837 21.068426 0.37020046 17 3207231153808 1 0
2.4400806 14.734013 -0.86975974 22 3207231156112 1 0
0.31553736 18.167982 -1.1645389 21 3207231153808 1 0
1.5903335 23.922573 1.3962667 43 3207231156112 1 0
2.2553222 19.45748 0.79802555 7 3207231158416 1 0
1.3581164 20.384655 -0.95165455 80 3207231158416 1 0
0 0 0 17 3207231160720 1 0
1.3582199 20.341604 2.5031962 4 3207231160720 1 0
0 0 0 100 3207231163024 1 0
0.34759316 19.364813 -0.78906995 30 3207231163024 1 0
2.4794903 14.918132 -0.5280992 2 3207231165328 1 0
1.2998878 19.383162 5.2053685 3 3207231165328 1 0
2.2663386 19.45356 3.5708754 24 3207231167632 1 0
1.3686764 20.364532 -0.47494027 100 3207231167632 1 0
0.4844537 4.1115713 -1.9305202 1 3207231188368 1 0
0.38023767 19.44932 -0.339554 36 3207231188368 1 0
1.7759999 15.053177 -0.44112885 38 3207231190672 1 0
0.48270527 7.0286007 -1.9722134 6 3207231190672 1 0
1.2355556 10.458705 -2.1062996 5 3207231192976 1 0
2.5425432 15.118659 -0.17848109 50 3207231195280 1 0
3.6405165 52.890858 0 13 3207231192976 1 0
0.9792369 14.195095 -2.2136753 6 3207231195280 1 0
1.7016993 14.366842 -1.8414958 10 3207231197584 1 0
0.5187566 25.730337 0.14957541 24 3207231197584 1 0
1.8240794 15.379948 -0.09001492 28 3207231199888 1 0
1.3091261 18.893147 -2.0399845 22 3207231199888 1 0
2.4240274 14.373663 -1.3607012 18 3207231202192 1 0
1.6960125 24.422554 0.56966776 10 3207231202192 1 0
0 0 0 17 3207231204496 1 0
1.726572 14.500994 -1.1921523 77 3207231206800 1 0
1.3785688 19.8076 -1.3884329 19 3207231204496 1 0
0.48410305 23.305103 0.6783913 26 3207231206800 1 0
2.517845 21.1192 0.3712476 6 3207231209104 1 0
0.38131168 18.222618 -1.1681205 23 3207231209104 1 0
2.492568 14.7252245 -0.86975974 10 3207231211408 1 0
1.6697079 23.833101 1.391383 10 3207231211408 1 0
2.2934766 19.187386 0.78727883 35 3207231213712 1 0
1.8850235 15.749827 -0.8313043 4 3207231216016 1 0
1.4294949 20.359747 -0.95072395 74 3207231213712 1 0
1.4396306 20.459387 2.5183082 6 3207231216016 1 0
2.442569 20.381874 1.6757827 18 3207231218320 1 0
2.6957781 15.866812 -0.5620215 2 3207231220624 1 0
1.367606 19.351389 5.1981215 13 3207231220624 1 0
2.1706429 18.066095 3.3176064 11 3207231222928 1 0
0.41942698 19.475325 -0.79362917 32 3207231218320 1 0
1.442257 20.363462 -0.4750333 100 3207231222928 1 0
0.50039494 4.116966 -1.9339012 1 3207231243664 1 0
0.4542125 19.563747 -0.3415785 38 3207231243664 1 0
1.8290099 15.030717 -0.4406634 35 3207231245968 1 0
0.508083 7.0229497 -1.971135 6 3207231245968 1 0
1.2697817 10.422995 -2.100024 5 3207231248272 1 0
2.5986347 15.117235 -0.17857422 52 3207231250576 1 0
3.8330977 52.88126 0 12 3207231248272 1 0
1.0300661 14.183572 -2.2124455 6 3207231250576 1 0
1.7390813 14.24245 -1.8263435 10 3207231252880 1 0
0.5707855 24.012812 0.13960217 10 3207231252880 1 0
1.874466 15.333591 -0.08978244 39 3207231255184 1 0
1.384798 18.995415 -2.051551 19 3207231255184 1 0
0 0 0 84 3207231257488 1 0
1.7825096 24.404366 0.5693886 13 3207231257488 1 0
9.16695 53.151634 0.62792003 18 3207231259792 1 0
1.4893311 20.35175 -1.4269384 81 3207231259792 1 0
1.7760811 14.478947 -1.1908504 97 3207231262096 1 0
0.5626252 23.131361 0.6733877 22 3207231262096 1 0
0 0 0 45 3207231264400 1 0
0.44727507 18.285006 -1.1722138 20 3207231264400 1 0
2.538939 14.684881 -0.8678993 1 3207231266704 1 0
1.7729281 24.08992 1.4067317 10 3207231266704 1 0
0 0 0 29 3207231269008 1 0
1.5020263 20.37055 -0.9514684 80 3207231269008 1 0
1.4926112 20.204794 2.487597 23 3207231271312 1 0
1.939012 15.735223 -0.83088565 6 3207231271312 1 0
0.48962134 19.573635 -0.79769987 30 3207231273616 1 0
2.5382986 20.575054 1.692381 7 3207231273616 1 0
2.750686 15.857386 -0.5620215 4 3207231275920 1 0
1.4594412 19.68176 5.288191 15 3207231275920 1 0
2.406263 19.460539 3.57518 18 3207231278224 1 0
1.5130342 20.366346 -0.47521943 100 3207231278224 1 0
0.5140445 4.115284 -1.9339012 1 3207231298960 1 0
0.52184397 19.66608 -0.34339353 36 3207231298960 1 0
1.8775735 15.012639 -0.44031432 35 3207231301264 1 0
0.53147125 7.0212183 -1.971135 6 3207231301264 1 0
1.305129 10.422581 -2.1008084 4 3207231303568 1 0
0 0 0 7 3207231303568 1 0
2.650792 15.116299 -0.17866735 53 3207231305872 1 0
1.0765156 14.164267 -2.2099857 8 3207231305872 1 0
1.7920718 14.275871 -1.8313943 3 3207231308176 1 0
0.6509403 23.978762 0.13941619 18 3207231308176 1 0
1.9239242 15.307307 -0.0896662 45 3207231310480 1 0
1.4582406 19.109577 -2.0644028 16 3207231310480 1 0
2.5284529 14.379925 -1.3629318 2 3207231312784 1 0
4.0972733 53.585037 1.2505333 44 3207231312784 1 0
9.351338 53.13575 0.6281063 28 3207231315088 1 0
1.5588832 20.346539 -1.4269384 73 3207231315088 1 0
0.65721875 23.676851 0.68932927 24 3207231317392 1 0
1.8272662 14.484632 -1.1918268 75 3207231317392 1 0
0.51230586 18.35518 -1.1768187 20 3207231319696 1 0
2.603635 14.754654 -0.8725504 1 3207231322000 1 0
1.8532375 24.043825 1.4044062 61 3207231322000 1 0
6.667117 52.65556 2.1623707 32 3207231324304 1 0
0 0 0 21 3207231319696 1 0
1.5719044 20.353254 -0.95091003 55 3207231324304 1 0
1.9939264 15.728358 -0.83088565 6 3207231326608 1 0
1.5720131 20.314253 2.5017338 13 3207231326608 1 0
2.6058846 20.530436 1.6894519 15 3207231328912 1 0
0.56130433 19.679665 -0.80209625 30 3207231328912 1 0
2.8071797 15.8515415 -0.5621611 4 3207231331216 1 0
1.4883045 19.15647 5.1484284 8 3207231331216 1 0
2.470557 19.41678 3.568723 12 3207231333520 1 0
1.5850053 20.360872 -0.47521943 100 3207231333520 1 0
0.5305119 4.124159 -1.9389726 1 3207231354256 1 0
0.597301 19.775969 -0.3453482 36 3207231354256 1 0
1.9323667 15.005685 -0.44031432 38 3207231356560 1 0
0.55709964 7.0192313 -1.971135 6 3207231356560 1 0
1.3420149 10.409986 -2.0992396 4 3207231358864 1 0
4.2044015 52.881123 0 41 3207231358864 1 0
2.7090447 15.126285 -0.17890017 53 3207231361168 1 0
1.1268636 14.148456 -2.208141 7 3207231361168 1 0
1.8466039 14.292926 -1.8344247 3 3207231363472 1 0
0.7385343 24.01224 0.13962542 18 3207231363472 1 0
1.9768504 15.28443 -0.08957321 42 3207231365776 1 0
1.5370207 19.231075 -2.0781112 12 3207231365776 1 0
2.5812943 14.378626 -1.3636754 3 3207231368080 1 0
0 0 0 3 3207231368080 1 0
9.547694 53.141457 0.6285719 18 3207231370384 1 0
1.6316947 20.344833 -1.4272175 65 3207231370384 1 0
1.8796842 14.485963 -1.1924777 71 3207231372688 1 0
0.72997844 23.3147 0.67885673 24 3207231372688 1 0
6.8942785 53.07394 0.9341924 22 3207231374992 1 0
0.5801864 18.44901 -1.1829586 21 3207231374992 1 0
2.6484737 14.706098 -0.8702249 1 3207231377296 1 0
6.941417 53.321472 2.190703 52 3207231379600 1 0
1.9352869 24.00531 1.4025457 25 3207231377296 1 0
1.6429152 20.343637 -0.95072395 38 3207231379600 1 0
2.0534623 15.756952 -0.83276975 6 3207231381904 1 0
1.6553986 20.462975 2.5207455 22 3207231381904 1 0
2.677235 20.521254 1.6894519 26 3207231384208 1 0
0.6332889 19.789444 -0.80665547 30 3207231384208 1 0
2.8606126 15.833862 -0.5618819 6 3207231386512 1 0
1.5564826 19.174309 5.15464 21 3207231386512 1 0
2.543084 19.45107 3.576615 26 3207231388816 1 0
1.6542078 20.34333 -0.47494027 64 3207231388816 1 0
0.66636103 19.877804 -0.34716326 36 3207231409552 1 0
0.54371077 4.118783 -1.9372821 1 3207231409552 1 0
1.9815929 14.995231 -0.44019797 42 3207231411856 1 0
0.58037317 7.0173454 -1.971135 7 3207231411856 1 0
1.3754995 10.397701 -2.0976706 4 3207231414160 1 0
4.379408 52.862904 0 92 3207231414160 1 0
2.7606266 15.125088 -0.1789933 48 3207231416464 1 0
1.1731217 14.136763 -2.2069113 7 3207231416464 1 0
1.8934693 14.28279 -1.8339196 3 3207231418768 1 0
0.879322 25.804586 0.1500636 9 3207231418768 1 0
1.6083746 19.317028 -2.087964 27 3207231421072 1 0
2.026472 15.269859 -0.08952672 44 3207231421072 1 0
4.727162 56.67982 1.3234866 22 3207231423376 1 0
2.637562 14.416999 -1.3681366 3 3207231423376 1 0
9.721704 53.097702 0.6284322 18 3207231425680 1 0
0 0 0 8 3207231425680 1 0
1.9282371 14.483602 -1.1928031 67 3207231427984 1 0
0.8219567 23.735716 0.6911911 23 3207231427984 1 0
0 0 0 10 3207231430288 1 0
0.64205587 18.466932 -1.1842378 21 3207231430288 1 0
2.7065966 14.748294 -0.8732481 1 3207231432592 1 0
1.6089646 19.163992 1.1199901 10 3207231432592 1 0
7.1187286 53.30212 2.1908658 52 3207231434896 1 0
0 0 0 4 3207231434896 1 0
2.1046443 15.742137 -0.832351 4 3207231437200 1 0
1.7275795 20.508804 2.5270827 18 3207231437200 1 0
2.748444 20.535973 1.6914047 10 3207231439504 1 0
2.915275 15.836083 -0.5623007 4 3207231441808 1 0
0.70271873 19.895079 -0.81105185 30 3207231439504 1 0
1.627542 19.257591 5.1784515 11 3207231441808 1 0
2.4422777 18.210066 3.3498929 7 3207231444112 1 0
0 0 0 3 3207231444112 1 0
0.560266 4.127539 -1.9423535 1 3207231465296 1 0
0.74382037 19.999125 -0.34932736 37 3207231465296 1 0
2.0366488 14.987852 -0.44019797 36 3207231467600 1 0
0.60580856 7.011329 -1.9700568 6 3207231467600 1 0
1.4126934 10.384796 -2.0961015 5 3207231469904 1 0
1.5976399 18.45899 0 4 3207231469904 1 0
2.8237007 15.154127 -0.17945893 45 3207231472208 1 0
1.2248945 14.128404 -2.2062964 8 3207231472208 1 0
1.9440769 14.259971 -1.8318994 3 3207231474512 1 0
0.9743432 25.793167 0.15001711 21 3207231474512 1 0
2.0835211 15.266217 -0.089549966 39 3207231476816 1 0
1.6805557 19.318867 -2.088821 33 3207231476816 1 0
2.6917453 14.411033 -1.3685085 3 3207231479120 1 0
4.937344 56.6619 1.3234866 22 3207231479120 1 0
9.81018 52.47933 0.6215407 18 3207231481424 1 0
1.5422565 17.66951 -1.2402701 6 3207231481424 1 0
1.9821514 14.476322 -1.1928031 63 3207231483728 1 0
0.9253465 24.124039 0.7025946 25 3207231483728 1 0
0 0 0 43 3207231486032 1 0
0.7146308 18.56014 -1.1903777 19 3207231486032 1 0
2.7580283 14.71845 -0.87208533 1 3207231488336 1 0
1.6613938 18.939054 1.1071995 30 3207231488336 1 0
7.3199363 53.286964 2.1913543 53 3207231490640 1 0
1.5147697 17.238811 -0.8061052 3 3207231490640 1 0
2.1653337 15.746 -0.8329791 4 3207231492944 1 0
1.8010446 20.462627 2.522208 18 3207231492944 1 0
6.1580014 44.73191 3.686136 13 3207231495248 1 0
0.7823527 20.016098 -0.8160996 31 3207231495248 1 0
0 0 0 20 3207231497552 1 0
3.3838398 24.527504 4.5143557 3 3207231499856 1 0
1.5306195 17.303734 -0.4042203 3 3207231499856 1 0
0.5741703 4.121968 -1.9406631 1 3207231520592 1 0
1.6956552 19.20129 5.164993 8 3207231497552 1 0
0.8176907 20.096308 -0.3510726 37 3207231520592 1 0
2.0898402 14.988602 -0.44043067 29 3207231522896 1 0
0.6284524 6.989999 -1.9646653 6 3207231522896 1 0
1.4470061 10.36819 -2.093748 6 3207231525200 1 0
1.6407223 18.222284 0 6 3207231525200 1 0
2.8759205 15.144303 -0.17945893 45 3207231527504 1 0
1.2725233 14.112288 -2.2044516 7 3207231527504 1 0
1.9930124 14.253214 -1.8318994 3 3207231529808 1 0
2.134579 15.251084 -0.089503475 38 3207231532112 1 0
2.182733 52.962147 0.30807793 95 3207231529808 1 0
1.7469345 19.316969 -2.0892491 37 3207231532112 1 0
2.7489662 14.444825 -1.372598 4 3207231534416 1 0
5.131601 56.660698 1.3238587 33 3207231534416 1 0
9.9879675 52.44578 0.6215407 27 3207231536720 1 0
1.4644412 16.146135 -1.1336823 3 3207231536720 1 0
2.0315418 14.473499 -1.1931286 56 3207231539024 1 0
1.000407 23.968975 0.6981728 25 3207231539024 1 0
7.368866 52.44881 0.9244889 22 3207231541328 1 0
0.78399765 18.725145 -1.2011226 22 3207231541328 1 0
2.8094947 14.720908 -0.872783 1 3207231543632 1 0
0 0 0 3 3207231543632 1 0
7.497934 53.266247 2.191517 53 3207231545936 1 0
1.516275 16.620884 -0.77744204 5 3207231545936 1 0
1.8710585 20.480265 2.525133 18 3207231548240 1 0
2.2175374 15.738733 -0.8329791 6 3207231548240 1 0
3.0253332 21.45165 1.7685382 5 3207231550544 1 0
0.8530036 20.12122 -0.82049596 31 3207231550544 1 0
3.041188 15.889725 -0.564953 27 3207231552848 1 0
1.7421925 19.014776 5.116335 17 3207231552848 1 0
2.597515 18.383327 3.385049 18 3207231555152 1 0
1.5178142 16.542015 -0.38654032 4 3207231555152 1 0
0.88625056 20.217503 -0.3532367 35 3207231575888 1 0
0.5840484 4.09861 -1.9305202 1 3207231575888 1 0
2.136789 14.977942 -0.44031432 22 3207231578192 1 0
0.6506123 6.987971 -1.9646653 6 3207231578192 1 0
1.4790653 10.3557415 -2.0921793 6 3207231580496 1 0
1.632531 17.504036 0 7 3207231580496 1 0
2.9270809 15.14672 -0.17959863 45 3207231582800 1 0
1.3173479 14.100235 -2.2032218 6 3207231582800 1 0
2.0439363 14.278069 -1.83594 6 3207231585104 1 0
2.3556247 52.962746 0.30812442 23 3207231585104 1 0
2.1852658 15.247945 -0.08952672 38 3207231587408 1 0
1.6786389 17.905455 -1.9371715 13 3207231587408 1 0
0 0 0 102 3207231589712 1 0
0 0 0 31 3207231589712 1 0
10.162592 52.40815 0.6214942 18 3207231592016 1 0
1.5057385 16.006073 -1.1241953 10 3207231592016 1 0
0 0 0 6 3207231594320 1 0
2.0809355 14.470508 -1.1934541 46 3207231594320 1 0
7.5763927 52.625317 0.92804915 55 3207231596624 1 0
0.853861 18.85795 -1.2098209 18 3207231596624 1 0
2.8615315 14.719017 -0.8732481 1 3207231598928 1 0
1.797612 19.010845 1.1120832 25 3207231598928 1 0
7.5938005 52.62684 2.1662786 49 3207231601232 1 0
1.4129162 14.916987 -0.6979669 3 3207231601232 1 0
2.2730334 15.73485 -0.8331884 6 3207231603536 1 0
6.462416 44.684917 3.6858106 13 3207231605840 1 0
1.9309113 20.351084 2.510021 20 3207231603536 1 0
0.9295032 20.24186 -0.82554364 31 3207231605840 1 0
3.0929663 15.85529 -0.56411546 9 3207231608144 1 0
1.789888 18.800774 5.06043 24 3207231608144 1 0
3.3130026 22.856405 4.2108636 8 3207231610448 1 0
1.5249808 15.991102 -0.37379214 15 3207231610448 1 0
0.6018824 4.110685 -1.9372821 1 3207231631184 1 0
0.9699691 20.341785 -0.35547063 35 3207231631184 1 0
2.1963859 14.985483 -0.44077978 14 3207231633488 1 0
0.67696595 6.9815974 -1.9635869 5 3207231633488 1 0
1.5179471 10.346149 -2.091395 5 3207231635792 1 0
1.6528255 17.019934 0 9 3207231635792 1 0
2.9876533 15.1511965 -0.1797849 30 3207231638096 1 0
1.3716292 14.103001 -2.2044516 7 3207231638096 1 0
2.086949 14.195647 -1.8263435 3 3207231640400 1 0
1.1705328 24.251358 0.14111327 26 3207231640400 1 0
2.2415245 15.231689 -0.08948022 33 3207231642704 1 0
0 0 0 4 3207231642704 1 0
2.8548622 14.444569 -1.3744569 110 3207231645008 1 0
5.1474204 52.68682 1.2318298 28 3207231645008 1 0
10.361522 52.38549 0.6216804 18 3207231647312 1 0
1.5608943 15.952678 -1.120847 11 3207231647312 1 0
2.1365466 14.474491 -1.1944305 32 3207231649616 1 0
0 0 0 33 3207231649616 1 0
7.8954506 53.43562 0.9428488 34 3207231651920 1 0
0.93004686 18.982239 -1.2180073 21 3207231651920 1 0
2.9135585 14.696595 -0.8725504 1 3207231654224 1 0
1.8647062 18.972282 1.1102227 10 3207231654224 1 0
7.883398 53.246925 2.1929827 35 3207231656528 1 0
1.4662315 14.8957815 -0.69722235 4 3207231656528 1 0
2.3289325 15.71456 -0.8325604 6 3207231658832 1 0
1.9902986 20.18978 2.4910095 12 3207231658832 1 0
6.617896 44.609764 3.6815796 13 3207231661136 1 0
3.126428 15.722394 -0.5597879 9 3207231663440 1 0
1.0093299 20.358086 -0.83042854 38 3207231661136 1 0
1.870783 18.921024 5.094594 14 3207231663440 1 0
2.706075 18.204563 3.3556328 3 3207231665744 1 0
1.5781548 15.93772 -0.3726755 9 3207231665744 1 0
0.6178409 4.1193147 -1.9423535 0 3207231686480 1 0
1.0440358 20.398188 -0.35651776 80 3207231686480 1 0
2.2486815 14.977725 -0.44077978 7 3207231688784 1 0
0.700947 6.975359 -1.9625087 6 3207231688784 1 0
1.5528868 10.33303 -2.0898259 5 3207231691088 1 0
1.6962051 16.854866 0 6 3207231691088 1 0
3.1877844 15.873984 -0.18849242 5 3207231693392 1 0
1.4212458 14.102059 -2.2050664 8 3207231693392 1 0
2.1311707 14.152963 -1.821798 2 3207231695696 1 0
1.2560059 24.263102 0.14120625 13 3207231695696 1 0
2.2970638 15.2395935 -0.08957321 33 3207231698000 1 0
1.6993606 16.812584 -1.8202214 23 3207231698000 1 0
0 0 0 100 3207231700304 1 0
5.3313003 52.66853 1.2318298 47 3207231700304 1 0
10.574329 52.498 0.62344986 18 3207231702608 1 0
1.6048995 15.832005 -1.1127553 6 3207231702608 1 0
2.187059 14.466946 -1.1944305 22 3207231704912 1 0
1.2785933 24.4242 0.71178716 20 3207231704912 1 0
8.081927 53.407734 0.9428488 34 3207231707216 1 0
2.9664218 14.694163 -0.8730155 1 3207231709520 1 0
0.99944055 19.038671 -1.2218448 26 3207231707216 1 0
1.9288981 18.945793 1.1090599 10 3207231709520 1 0
3.4156966 22.52762 0.9282888 25 3207231711824 1 0
0 0 0 8 3207231711824 1 0
2.3885674 15.737928 -0.83423513 6 3207231714128 1 0
2.0672145 20.245903 2.498809 18 3207231714128 1 0
3.3772058 22.230131 1.8355825 9 3207231716432 1 0
1.0825052 20.394348 -0.8320568 82 3207231716432 1 0
3.0210357 14.919939 -0.53158915 2 3207231718736 1 0
2.7725651 18.214458 3.35922 7 3207231721040 1 0
1.6329623 15.924159 -0.3724894 11 3207231721040 1 0
1.9442962 18.987406 5.1142645 19 3207231718736 1 0
0.62781435 4.0884666 -1.9288298 0 3207231741776 1 0
1.1154507 20.398413 -0.35658756 76 3207231741776 1 0
2.3025544 14.981673 -0.44112885 3 3207231744080 1 0
0.7247914 6.969049 -1.9614303 5 3207231744080 1 0
1.5850679 10.304332 -2.085119 3 3207231746384 1 0
1.7093811 16.415237 0 6 3207231746384 1 0
3.2601056 15.949113 -0.18951683 4 3207231748688 1 0
1.4698474 14.097076 -2.2050664 7 3207231748688 1 0
2.1809466 14.153407 -1.822808 3 3207231750992 1 0
1.3414859 24.298586 0.14143874 8 3207231750992 1 0
2.3503578 15.23956 -0.08961971 30 3207231753296 1 0
1.6228521 15.525114 -1.6814237 6 3207231753296 1 0
2.9863403 14.580612 -1.3893279 16 3207231755600 1 0
2.2145317 21.158667 0.4950396 5 3207231755600 1 0
10.769041 52.544147 0.6244277 18 3207231757904 1 0
1.5803564 15.080393 -1.0602984 3 3207231757904 1 0
2.23769 14.471303 -1.1954068 16 3207231760208 1 0
7.7707534 50.210503 0.8868615 20 3207231762512 1 0
1.3598881 24.399786 0.71120536 18 3207231760208 1 0
3.042069 14.813241 -0.8806899 1 3207231764816 1 0
1.9947714 18.963064 1.1104553 15 3207231764816 1 0
3.4900973 22.51217 0.928126 6 3207231767120 1 0
1.0749781 19.242458 -1.235148 22 3207231762512 1 0
1.6531852 15.696066 -0.73519176 19 3207231767120 1 0
2.4419682 15.737816 -0.83465385 4 3207231769424 1 0
3.2670403 21.037004 1.7379452 8 3207231771728 1 0
2.122266 20.124435 2.484672 23 3207231769424 1 0
1.1496078 20.386673 -0.831894 75 3207231771728 1 0
3.086992 14.992152 -0.5345207 4 3207231774032 1 0
1.9997923 18.915594 5.0966644 12 3207231774032 1 0
3.542918 22.774107 4.202254 5 3207231776336 1 0
1.6715949 15.791475 -0.36951172 73 3207231776336 1 0
0.63953257 4.0793114 -1.9254488 0 3207231797072 1 0
1.1790668 20.386822 -0.35644794 84 3207231797072 1 0
2.3463254 14.950598 -0.44043067 3 3207231799376 1 0
0.74729496 6.970546 -1.9625087 6 3207231799376 1 0
1.6180313 10.299208 -2.085119 5 3207231801680 1 0
1.7102274 15.92845 0 20 3207231801680 1 0
4.202541 20.226625 -0.24050477 48 3207231803984 1 0
1.5157797 14.096187 -2.2056816 7 3207231803984 1 0
2.2288973 14.157986 -1.8243233 3 3207231806288 1 0
3.094637 52.9207 0.30810118 71 3207231806288 1 0
2.4016833 15.239655 -0.0896662 30 3207231808592 1 0
1.5894349 14.736792 -1.5966028 2 3207231808592 1 0
3.0338628 14.56673 -1.3889562 99 3207231810896 1 0
2.2743773 21.055788 0.49280638 18 3207231810896 1 0
10.959442 52.57831 0.62526584 18 3207231813200 1 0
1.5900247 14.698146 -1.033791 14 3207231813200 1 0
2.2865076 14.46367 -1.1954068 10 3207231815504 1 0
1.4393809 24.347162 0.709809 27 3207231815504 1 0
7.9422193 50.187717 0.8869313 20 3207231817808 1 0
1.1440047 19.29846 -1.2389854 22 3207231817808 1 0
3.1263824 14.962974 -0.8902247 1 3207231820112 1 0
2.2725213 20.913248 1.2251054 8 3207231820112 1 0
3.5786452 22.567059 0.9308941 37 3207231822416 1 0
1.7165861 15.773665 -0.7391004 4 3207231822416 1 0
0 0 0 26 3207231824720 1 0
2.1873386 20.069544 2.4788225 19 3207231824720 1 0
7.058156 44.41709 3.6714904 13 3207231827024 1 0
1.2208782 20.374521 -0.8315683 75 3207231827024 1 0
0 0 0 100 3207231829328 1 0
2.0786636 19.01592 5.1256523 8 3207231829328 1 0
8.381184 52.63426 9.717487 35 3207231831632 1 0
1.723733 15.745642 -0.3685812 35 3207231831632 1 0
0.65749216 4.0911427 -1.9322107 1 3207231852368 1 0
1.2578301 20.39013 -0.35658756 86 3207231852368 1 0
2.4079418 14.969147 -0.44124523 3 3207231854672 1 0
0.7731025 6.9599795 -1.9603521 5 3207231854672 1 0
1.6553954 10.28135 -2.0827656 2 3207231856976 1 0
1.7536675 15.766773 0 86 3207231856976 1 0
4.2809496 20.218353 -0.2405979 72 3207231859280 1 0
1.5692791 14.090331 -2.2056816 7 3207231859280 1 0
2.2918987 14.208217 -1.8318994 15 3207231861584 1 0
3.2939906 52.89664 0.30803144 83 3207231861584 1 0
2.4616241 15.246294 -0.08975919 31 3207231863888 1 0
1.6096284 14.414505 -1.5623318 1 3207231863888 1 0
3.0901558 14.563035 -1.3896997 15 3207231866192 1 0
2.3498173 21.015312 0.49206194 13 3207231866192 1 0
11.160883 52.56045 0.62554526 18 3207231868496 1 0
1.6378502 14.628653 -1.0293266 56 3207231868496 1 0
2.3409824 14.458992 -1.1957324 5 3207231870800 1 0
1.5295225 24.333654 0.7095763 20 3207231870800 1 0
0 0 0 23 3207231873104 1 0
1.2203403 19.369778 -1.2438462 20 3207231873104 1 0
3.1483922 14.795091 -0.88092244 1 3207231875408 1 0
2.170009 19.305508 1.1313853 5 3207231875408 1 0
1.6718316 14.854005 -0.69629174 37 3207231877712 1 0
2.5801506 15.87765 -0.8430276 33 3207231880016 1 0
0 0 0 14 3207231877712 1 0
2.266218 20.108734 2.484672 19 3207231880016 1 0
7.187618 44.190342 3.6548922 13 3207231882320 1 0
1.2949965 20.36594 -0.8314055 75 3207231882320 1 0
4.298441 20.141891 -0.71920884 33 3207231884624 1 0
2.1499627 19.027433 5.130829 17 3207231884624 1 0
8.576809 52.634632 9.7232275 35 3207231886928 1 0
1.7290448 15.282335 -0.35788015 13 3207231886928 1 0
0.6717689 4.088823 -1.9322107 0 3207231907664 1 0
1.328477 20.377632 -0.35644794 84 3207231907664 1 0
2.4619079 14.972522 -0.4415943 3 3207231909968 1 0
0.7972915 6.95725 -1.9603521 6 3207231909968 1 0
1.6903381 10.2716875 -2.0819812 4 3207231912272 1 0
1.7954686 15.649339 0 20 3207231912272 1 0
4.353143 20.215206 -0.2407376 67 3207231914576 1 0
1.6178395 14.084838 -2.2056816 7 3207231914576 1 0
2.3419452 14.208096 -1.8329096 32 3207231916880 1 0
3.4757998 52.889015 0.3080547 95 3207231916880 1 0
2.5150228 15.245685 -0.08980569 28 3207231919184 1 0
1.6657097 14.468183 -1.5687575 1 3207231919184 1 0
3.1271024 14.494037 -1.3841231 24 3207231921488 1 0
2.4231584 21.023083 0.49243414 16 3207231921488 1 0
11.341471 52.534058 0.6256849 9 3207231923792 1 0
1.684213 14.59527 -1.0273733 57 3207231923792 1 0
2.389758 14.451011 -1.1957324 3 3207231926096 1 0
1.62378 24.511875 0.714929 9 3207231926096 1 0
8.698389 52.55694 0.9298642 33 3207231928400 1 0
1.2991587 19.572687 -1.2571493 21 3207231928400 1 0
3.1987116 14.788379 -0.881155 4 3207231930704 1 0
2.6938949 23.26487 1.3639414 10 3207231930704 1 0
8.714096 52.56641 2.1708379 33 3207231933008 1 0
0 0 0 2 3207231933008 1 0
2.6327887 15.869007 -0.8430276 13 3207231935312 1 0
2.33655 20.132658 2.488572 14 3207231935312 1 0
7.328905 44.13884 3.6526139 13 3207231937616 1 0
1.3627628 20.36953 -0.83173114 71 3207231937616 1 0
4.378179 20.190163 -0.7214424 63 3207231939920 1 0
2.1696377 18.651833 5.031442 10 3207231939920 1 0
8.749655 52.610165 9.723945 35 3207231942224 1 0
1.7600813 15.113741 -0.354065 36 3207231942224 1 0
0.68401206 4.083117 -1.9305202 0 3207231962960 1 0
1.3927612 20.377348 -0.35651776 88 3207231962960 1 0
2.5084896 14.960733 -0.44147795 3 3207231965264 1 0
0.81834424 6.947048 -1.9581954 6 3207231965264 1 0
1.7215995 10.25854 -2.0804121 3 3207231967568 1 0
1.8314911 15.528365 0 21 3207231967568 1 0
4.4200745 20.212961 -0.24087729 67 3207231969872 1 0
1.6617675 14.071763 -2.2044516 6 3207231969872 1 0
2.3834486 14.177052 -1.829879 33 3207231972176 1 0
3.6458397 52.889595 0.30812442 59 3207231972176 1 0
2.5653415 15.245411 -0.089852184 30 3207231974480 1 0
1.7122064 14.462754 -1.5687575 2 3207231974480 1 0
3.1738853 14.483864 -1.3841231 23 3207231976784 1 0
2.5004406 21.094572 0.4942952 11 3207231976784 1 0
11.503232 52.457928 0.6252193 9 3207231979088 1 0
1.7310722 14.585769 -1.0270944 56 3207231979088 1 0
2.437489 14.447079 -1.1960578 3 3207231981392 1 0
1.6820015 24.195337 0.70585275 33 3207231981392 1 0
9.000193 53.297184 0.9434771 34 3207231983696 1 0
1.3659772 19.608152 -1.2597077 22 3207231983696 1 0
3.2498753 14.789485 -0.8818527 3 3207231986000 1 0
2.8105025 23.592932 1.3837087 17 3207231986000 1 0
8.996929 53.183628 2.1975417 54 3207231988304 1 0
1.8706318 15.68371 -0.73575014 4 3207231988304 1 0
2.6720607 15.78142 -0.8388407 2 3207231990608 1 0
2.3957672 20.061726 2.4807723 21 3207231990608 1 0
3.594389 21.210028 1.7561707 2 3207231992912 1 0
1.4308794 20.368864 -0.831894 68 3207231992912 1 0
4.4405336 20.15198 -0.72060484 85 3207231995216 1 0
2.303665 19.242935 5.1929455 5 3207231995216 1 0
8.940194 52.66194 9.739012 54 3207231997520 1 0
1.8051388 15.060096 -0.35294837 78 3207231997520 1 0
0.6982606 4.080704 -1.9305202 0 3207232018256 1 0
1.4641696 20.37635 -0.35658756 82 3207232018256 1 0
2.5655305 14.979454 -0.44229248 3 3207232020560 1 0
0.8426395 6.9441433 -1.9581954 6 3207232020560 1 0
1.7562217 10.244711 -2.0788434 2 3207232022864 1 0
1.8767432 15.446405 0 23 3207232022864 1 0
4.493649 20.209024 -0.24101698 55 3207232025168 1 0
1.7121384 14.073687 -2.2056816 7 3207232025168 1 0
2.434005 14.172485 -1.8303841 42 3207232027472 1 0
3.8342876 52.908348 0.3083104 23 3207232027472 1 0
2.6224844 15.255979 -0.08996842 30 3207232029776 1 0
0 0 0 93 3207232029776 1 0
4.27322 19.176233 -1.8339723 16 3207232032080 1 0
6.5150075 53.349117 1.2506264 18 3207232032080 1 0
11.727247 52.588627 0.62726814 18 3207232034384 1 0
1.781749 14.571625 -1.0265362 56 3207232034384 1 0
2.4907756 14.450124 -1.1970341 2 3207232036688 1 0
3.8574584 52.78082 1.5401692 25 3207232036688 1 0
9.200545 53.3279 0.944594 34 3207232038992 1 0
1.4386128 19.642982 -1.262266 26 3207232038992 1 0
0 0 0 16 3207232041296 1 0
6.473101 52.7382 3.0943913 41 3207232041296 1 0
4.2312517 24.480412 1.0121459 7 3207232043600 1 0
