# .PCD v.7 - Point Cloud Data file format
VERSION .7
FIELDS x y z rgb timestamp_ns device_id active
SIZE 4 4 4 4 8 1 1
TYPE F F F F F U U
COUNT 1 1 1 1 1 1 1
WIDTH 969
HEIGHT 1
VIEWPOINT 0 0 0 1 0 0 0
POINTS 969               
DATA ascii
0 0 0 35 3201720084240 1 0
-14.23668 19.197693 2.9346137 6 3201720084240 1 0
-12.20913 18.271105 1.7939239 9 3201720086544 1 0
-16.196146 19.751457 -1.040641 3 3201720086544 1 0
-10.892134 18.168232 -0.7397297 54 3201720088848 1 0
-12.676125 17.103731 5.704372 6 3201720088848 1 0
-12.828198 19.20964 4.2115808 14 3201720091152 1 0
-18.740166 25.293552 -0.73250973 8 3201720091152 1 0
-2.2926493 3.442887 -1.9288298 3 3201720111888 1 0
-27.023235 33.063007 -0.7453574 43 3201720111888 1 0
-4.38266 5.933286 -2.0649474 4 3201720114192 1 0
-17.891224 26.875847 -0.93962425 5 3201720114192 1 0
-6.4148436 9.639291 -2.315753 2 3201720116496 1 0
-24.27909 32.879265 0 5 3201720116496 1 0
-10.623778 17.796827 -0.24129637 31 3201720118800 1 0
-9.748766 13.206007 -2.5537205 7 3201720118800 1 0
-10.259601 15.426358 -2.3581853 1 3201720121104 1 0
-27.01524 33.0925 0.24828495 22 3201720121104 1 0
-21.705242 32.64635 -0.22785026 5 3201720123408 1 0
-11.569134 15.681483 -2.0991023 52 3201720123408 1 0
-9.057168 15.187512 -1.6506866 72 3201720125712 1 0
-10.83667 18.17748 0.24637188 33 3201720128016 1 0
-24.217789 32.83621 0.94941527 6 3201720125712 1 0
-15.85604 21.505299 -1.8683574 9 3201720128016 1 0
-10.221865 15.389029 -1.5081719 45 3201720130320 1 0
-27.005228 33.11955 1.2436786 11 3201720130320 1 0
-20.955444 31.558401 0.66123676 6 3201720132624 1 0
-16.063454 19.706272 -1.6293823 2 3201720132624 1 0
-9.243935 15.521212 -1.0520837 84 3201720134928 1 0
0 0 0 3 3201720134928 1 0
-15.865011 21.543695 -1.2462896 3 3201720137232 1 0
-12.209649 18.399052 0.8996309 20 3201720137232 1 0
-12.505089 18.85021 -1.1855141 58 3201720139536 1 0
-14.108383 19.164143 2.9219394 3 3201720139536 1 0
-12.180533 18.366772 1.7991313 3 3201720141840 1 0
-16.243177 19.950441 -1.0481311 3 3201720141840 1 0
-10.838865 18.22332 -0.74042773 66 3201720144144 1 0
-12.579709 17.09808 5.6878076 4 3201720144144 1 0
-12.85672 19.398628 4.2431498 9 3201720146448 1 0
-18.609112 25.300829 -0.73083484 8 3201720146448 1 0
-2.2786186 3.4478445 -1.9271393 3 3201720167184 1 0
-25.962603 31.992582 -0.71917874 6 3201720167184 1 0
-17.83477 26.994848 -0.9416024 5 3201720169488 1 0
-4.3664775 5.954761 -2.0671039 4 3201720169488 1 0
-6.3789954 9.658352 -2.3149686 2 3201720171792 1 0
-24.126335 32.912197 0 5 3201720171792 1 0
-9.700273 13.236768 -2.5531056 7 3201720174096 1 0
-10.588087 17.878542 -0.24190171 21 3201720174096 1 0
-25.942461 32.005802 0.23945084 13 3201720176400 1 0
-10.240664 15.515063 -2.3662665 1 3201720176400 1 0
-21.569124 32.68853 -0.22761779 5 3201720178704 1 0
-11.462627 15.651184 -2.0896776 52 3201720178704 1 0
-9.000042 15.21218 -1.6499431 75 3201720181008 1 0
-24.055775 32.856014 0.94755423 6 3201720181008 1 0
-10.64284 17.994865 0.24339177 22 3201720183312 1 0
0 0 0 42 3201720183312 1 0
-10.128589 15.364701 -1.5023136 55 3201720185616 1 0
-20.728127 25.603195 0.95870763 8 3201720185616 1 0
-21.527378 32.666588 0.6828778 6 3201720187920 1 0
-16.042284 19.821178 -1.634243 2 3201720187920 1 0
-9.201887 15.574013 -1.0534791 73 3201720190224 1 0
0 0 0 3 3201720190224 1 0
-12.173927 18.484953 0.9017477 31 3201720192528 1 0
-15.813293 21.6312 -1.2481508 3 3201720192528 1 0
-12.505111 18.993835 -1.1917944 39 3201720194832 1 0
-15.1236725 20.694176 3.1471539 3 3201720194832 1 0
-19.548788 29.701782 2.9027588 7 3201720197136 1 0
-16.173439 20.007019 -1.0481311 3 3201720197136 1 0
-10.793472 18.29203 -0.7416841 40 3201720199440 1 0
-12.597429 17.24797 5.7230067 4 3201720199440 1 0
-12.8148775 19.48284 4.2517595 24 3201720201744 1 0
-18.475878 25.304268 -0.7290668 8 3201720201744 1 0
-2.270546 3.4618402 -1.9305202 3 3201720222480 1 0
-27.027628 33.5436 -0.7519195 50 3201720222480 1 0
-17.83251 27.197372 -0.94648963 5 3201720224784 1 0
-6.349543 9.68712 -2.3165374 2 3201720227088 1 0
-4.347932 5.9730806 -2.0681822 4 3201720224784 1 0
-23.919514 32.87008 0 5 3201720227088 1 0
-9.660984 13.280136 -2.5549502 8 3201720229392 1 0
-10.3675785 17.646404 -0.23826969 30 3201720229392 1 0
-10.088601 15.401349 -2.3435383 1 3201720231696 1 0
-26.999228 33.548283 0.25028425 22 3201720231696 1 0
-21.345324 32.596306 -0.2264554 5 3201720234000 1 0
-8.946887 15.243504 -1.6499431 75 3201720236304 1 0
-11.36349 15.629983 -2.0815382 53 3201720234000 1 0
-23.863354 32.83304 0.9444835 6 3201720236304 1 0
-11.52817 15.866195 -1.3714123 6 3201720238608 1 0
-10.847142 18.487274 0.24953826 18 3201720238608 1 0
-10.050885 15.363264 -1.4987336 56 3201720240912 1 0
-21.380384 32.691326 0.6818306 6 3201720243216 1 0
-15.9579935 19.858385 -1.6327081 2 3201720243216 1 0
-20.545944 25.56009 0.95440227 8 3201720240912 1 0
-9.171699 15.647379 -1.0562698 63 3201720245520 1 0
-36.06507 49.681847 3.5753171 28 3201720245520 1 0
-12.155247 18.59759 0.9051671 55 3201720247824 1 0
-15.822175 21.802687 -1.2548513 3 3201720247824 1 0
-12.547979 19.20457 -1.2022616 16 3201720250128 1 0
-15.032693 20.721132 3.143254 7 3201720250128 1 0
-19.490774 29.839933 2.9095936 7 3201720252432 1 0
-16.118513 20.082054 -1.049108 3 3201720252432 1 0
-10.780043 18.415844 -0.74517405 48 3201720254736 1 0
-12.496324 17.235535 5.704372 6 3201720254736 1 0
-12.535995 19.204523 4.181447 23 3201720257040 1 0
-18.371008 25.345942 -0.7284154 13 3201720257040 1 0
-2.2544928 3.463668 -1.9271393 4 3201720277776 1 0
-26.990324 33.737675 -0.7541534 44 3201720277776 1 0
-17.831232 27.403559 -0.9514932 5 3201720280080 1 0
-4.329312 5.9913435 -2.0692606 4 3201720280080 1 0
-6.3199673 9.715801 -2.3181064 2 3201720282384 1 0
-23.797602 32.943645 0 5 3201720282384 1 0
-10.320017 17.706675 -0.23859563 27 3201720284688 1 0
0 0 0 38 3201720286992 1 0
-26.96186 33.742317 0.25102818 15 3201720286992 1 0
-21.161665 32.56329 -0.22571148 5 3201720289296 1 0
-11.266969 15.611506 -2.0738273 50 3201720289296 1 0
-9.6215105 13.323391 -2.556795 7 3201720284688 1 0
-23.708824 32.861004 0.9429016 6 3201720291600 1 0
-10.875098 18.684038 0.25168023 13 3201720293904 1 0
-11.444706 15.867503 -1.3680639 4 3201720293904 1 0
-8.899634 15.284966 -1.6510584 71 3201720291600 1 0
-9.960291 15.341411 -1.4932008 30 3201720296208 1 0
-21.181223 32.634926 0.679108 6 3201720298512 1 0
-20.436644 25.606653 0.95347136 12 3201720296208 1 0
-16.105173 20.185438 -1.6549653 2 3201720298512 1 0
-35.716335 49.564453 3.5578756 28 3201720300816 1 0
-9.14111 15.720723 -1.0590605 39 3201720300816 1 0
-12.116354 18.680143 0.90712106 112 3201720303120 1 0
-15.858078 22.013401 -1.2637854 3 3201720303120 1 0
-10.474975 16.154726 -1.0090373 2 3201720305424 1 0
0 0 0 25 3201720307728 1 0
-16.162893 20.281973 -1.0565982 3 3201720307728 1 0
0 0 0 19 3201720305424 1 0
-14.259742 19.812893 6.540875 9 3201720310032 1 0
-12.614367 19.472748 4.230235 24 3201720312336 1 0
-18.266075 25.387192 -0.72776407 13 3201720312336 1 0
-12.38588 21.329569 -0.8613196 43 3201720310032 1 0
-2.2423885 3.4715166 -1.9271393 4 3201720333072 1 0
-17.865604 27.667168 -0.95847493 6 3201720335376 1 0
-4.301636 5.9970293 -2.0660255 4 3201720335376 1 0
-6.292396 9.747689 -2.3204598 1 3201720337680 1 0
-23.5799 32.883484 0 5 3201720337680 1 0
-10.270158 17.763367 -0.23887503 22 3201720339984 1 0
-9.5749445 13.356895 -2.556795 7 3201720339984 1 0
-9.86898 15.298018 -2.3172743 6 3201720342288 1 0
-26.948324 33.967834 0.25200456 15 3201720342288 1 0
-26.97438 33.960083 -0.7570156 51 3201720333072 1 0
-21.039198 32.623512 -0.2256185 5 3201720344592 1 0
-11.159135 15.576383 -2.0639744 55 3201720344592 1 0
-8.858178 15.336632 -1.6532891 65 3201720346896 1 0
-10.583816 18.330475 0.24641845 16 3201720349200 1 0
-23.510149 32.826523 0.9395517 6 3201720346896 1 0
0 0 0 1 3201720349200 1 0
-9.87213 15.322463 -1.4879935 32 3201720351504 1 0
-20.237877 25.53995 0.9483514 12 3201720351504 1 0
-21.043356 32.671677 0.67834014 6 3201720353808 1 0
-16.00487 20.203983 -1.6518953 2 3201720353808 1 0
0 0 0 36 3201720356112 1 0
0 0 0 3 3201720356112 1 0
-12.064054 18.742487 0.90809804 96 3201720358416 1 0
-17.756687 24.831263 -1.4219911 4 3201720358416 1 0
-10.373128 16.12065 -1.004641 7 3201720360720 1 0
-13.864833 19.394785 2.9273016 15 3201720360720 1 0
-11.8344755 18.397577 1.7857875 5 3201720363024 1 0
-16.082077 20.325731 -1.0559468 3 3201720363024 1 0
-12.377197 21.486984 -0.8659263 40 3201720365328 1 0
-12.493118 19.433908 4.2122984 17 3201720367632 1 0
-12.398153 17.353792 5.7147245 20 3201720365328 1 0
-18.177345 25.450798 -0.72776407 13 3201720367632 1 0
-2.2322133 3.482375 -1.9288298 4 3201720388368 1 0
-26.962164 34.189068 -0.7600174 36 3201720388368 1 0
-20.840782 32.52317 -1.1241746 8 3201720390672 1 0
-4.2784424 6.0088706 -2.0649474 5 3201720390672 1 0
-6.2519846 9.7596855 -2.3181064 1 3201720392976 1 0
-23.353632 32.809174 0 5 3201720392976 1 0
-10.679691 18.621407 -0.24991077 21 3201720395280 1 0
-9.537428 13.403118 -2.5592546 4 3201720395280 1 0
-9.819798 15.339058 -2.3182845 35 3201720397584 1 0
-26.933544 34.19367 0.25298098 15 3201720397584 1 0
-20.849728 32.57884 -0.22480482 5 3201720399888 1 0
-11.067818 15.563384 -2.05712 57 3201720399888 1 0
-8.820428 15.395104 -1.6562634 63 3201720402192 1 0
-23.351397 32.846462 0.9377837 6 3201720402192 1 0
-10.533681 18.391603 0.2467444 15 3201720404496 1 0
-9.79711 15.32324 -1.484739 32 3201720406800 1 0
0 0 0 1 3201720404496 1 0
-20.126352 25.582155 0.9473041 12 3201720406800 1 0
-20.860258 32.637096 0.6761062 6 3201720409104 1 0
-15.956457 20.287968 -1.6541978 2 3201720409104 1 0
-9.10253 15.908933 -1.0674324 3 3201720411408 1 0
0 0 0 29 3201720413712 1 0
-17.804045 25.082073 -1.4327863 4 3201720413712 1 0
-10.273798 16.089426 -1.0004542 7 3201720416016 1 0
-13.693656 19.297363 2.9053652 27 3201720416016 1 0
-11.722992 18.364845 1.7786274 17 3201720418320 1 0
0 0 0 3 3201720411408 1 0
-16.139414 20.545176 -1.064414 3 3201720418320 1 0
-12.397315 21.696661 -0.872627 27 3201720420624 1 0
-12.223514 17.23623 5.6619253 18 3201720420624 1 0
-18.083769 25.50757 -0.727578 8 3201720422928 1 0
-12.412507 19.457493 4.2079935 25 3201720422928 1 0
-2.2180984 3.4870868 -1.9271393 4 3201720443664 1 0
-26.951143 34.42153 -0.763089 44 3201720443664 1 0
-20.767893 32.65983 -1.1263855 8 3201720445968 1 0
-4.266334 6.0363507 -2.0692606 5 3201720445968 1 0
-6.2220874 9.78807 -2.3196752 1 3201720448272 1 0
-23.215881 32.857826 0 5 3201720448272 1 0
-10.468271 18.401308 -0.24646501 22 3201720450576 1 0
-9.481463 13.423415 -2.556795 5 3201720450576 1 0
-9.734281 15.323003 -2.3107085 8 3201720452880 1 0
-26.919975 34.422962 0.25398064 15 3201720452880 1 0
-20.695137 32.587265 -0.22436312 5 3201720455184 1 0
-10.972141 15.54344 -2.0494092 57 3201720455184 1 0
-23.236599 32.927776 0.9377837 6 3201720457488 1 0
-8.792217 15.470813 -1.6610963 56 3201720457488 1 0
-10.412122 18.327408 0.24539404 22 3201720459792 1 0
0 0 0 1 3201720459792 1 0
-9.705117 15.296751 -1.4788806 32 3201720462096 1 0
-19.940943 25.529366 0.942766 11 3201720462096 1 0
-20.705505 32.645546 0.67477983 6 3201720464400 1 0
-15.929764 20.400173 -1.6588027 2 3201720464400 1 0
-9.078478 15.996176 -1.0711533 3 3201720466704 1 0
0 0 0 3 3201720466704 1 0
0 0 0 72 3201720469008 1 0
-17.817648 25.287785 -1.4409758 4 3201720469008 1 0
-10.18764 16.077951 -0.9975233 7 3201720471312 1 0
-13.548479 19.234688 2.8887908 24 3201720471312 1 0
-11.660949 18.409021 1.7789528 8 3201720473616 1 0
-16.07989 20.617146 -1.0652281 3 3201720473616 1 0
-12.516645 22.084108 -0.8864472 10 3201720475920 1 0
-11.969782 17.003927 5.5718565 8 3201720475920 1 0
-12.355036 19.517328 4.2115808 25 3201720478224 1 0
-18.019936 25.606512 -0.7286016 8 3201720478224 1 0
-2.2078476 3.4978738 -1.9288298 3 3201720498960 1 0
-19.89914 25.59842 -0.56594664 23 3201720498960 1 0
-20.645227 32.718597 -1.12592 8 3201720501264 1 0
-4.240813 6.0448995 -2.0671039 4 3201720501264 1 0
-6.18579 9.806413 -2.3188908 1 3201720503568 1 0
-23.018362 32.820766 0 5 3201720503568 1 0
-10.405941 18.441221 -0.24651158 29 3201720505872 1 0
-9.439087 13.462902 -2.558025 8 3201720505872 1 0
-9.62995 15.276328 -2.2985868 4 3201720508176 1 0
-19.886938 25.61346 0.18846874 13 3201720508176 1 0
-11.106331 17.624046 -0.12107378 4 3201720510480 1 0
-10.872174 15.516505 -2.0408413 59 3201720510480 1 0
-8.767496 15.553451 -1.6666731 35 3201720512784 1 0
-23.022865 32.867847 0.93378246 6 3201720512784 1 0
-10.297031 18.273043 0.24418336 14 3201720515088 1 0
0 0 0 1 3201720515088 1 0
-9.615554 15.273181 -1.4733479 32 3201720517392 1 0
-19.856607 25.605135 0.94299877 7 3201720517392 1 0
-20.506214 32.58223 0.6719875 6 3201720519696 1 0
-15.944059 20.566072 -1.6677568 2 3201720519696 1 0
-9.081352 16.13216 -1.07813 1 3201720522000 1 0
0 0 0 3 3201720522000 1 0
-17.722397 25.340004 -1.4404174 4 3201720524304 1 0
0 0 0 29 3201720524304 1 0
-10.101688 16.066072 -0.9945925 7 3201720526608 1 0
-13.456231 19.246073 2.8834286 24 3201720526608 1 0
-11.615712 18.479992 1.7818819 8 3201720528912 1 0
-16.117935 20.815351 -1.0725554 3 3201720528912 1 0
-11.23863 19.99156 -0.80087364 6 3201720531216 1 0
-12.286564 17.58402 5.7478533 19 3201720531216 1 0
-12.305671 19.590326 4.218038 11 3201720533520 1 0
-18.008303 25.78072 -0.73176533 8 3201720533520 1 0
-2.1898513 3.4963422 -1.9237583 3 3201720554256 1 0
-19.780342 25.629732 -0.5651089 4 3201720554256 1 0
-20.43753 32.641354 -1.1208001 7 3201720556560 1 0
-4.2174854 6.0565047 -2.0660255 4 3201720556560 1 0
-6.1452785 9.81797 -2.3165374 1 3201720558864 1 0
0 0 0 11 3201720558864 1 0
-10.347365 18.487902 -0.24665128 32 3201720561168 1 0
-9.380747 13.479548 -2.5549502 9 3201720561168 1 0
-9.553419 15.272845 -2.293031 21 3201720563472 1 0
-25.40183 32.953213 0.24182211 6 3201720563472 1 0
0 0 0 27 3201720565776 1 0
-10.783884 15.505386 -2.0344155 59 3201720565776 1 0
-8.753966 15.656961 -1.6744803 53 3201720568080 1 0
-13.25171 19.059612 0.54017013 7 3201720568080 1 0
-10.363928 18.542799 0.24730317 16 3201720570384 1 0
0 0 0 1 3201720570384 1 0
-9.541059 15.2728405 -1.4700933 32 3201720572688 1 0
-25.25526 32.80252 1.2048136 5 3201720572688 1 0
-20.328802 32.55184 0.66989315 6 3201720574992 1 0
-15.933042 20.700686 -1.6741525 2 3201720574992 1 0
0 0 0 9 3201720577296 1 0
-9.038612 16.18817 -1.0797579 1 3201720577296 1 0
-36.099754 57.842796 2.777865 29 3201720579600 1 0
-10.01383 16.050402 -0.99145234 7 3201720581904 1 0
-13.243036 19.076721 -1.0817555 5 3201720579600 1 0
-13.25089 19.093962 2.8536925 6 3201720581904 1 0
-11.59333 18.588081 1.7883911 11 3201720584208 1 0
-16.042742 20.868319 -1.0723926 3 3201720584208 1 0
-12.514015 22.443287 -0.8973359 7 3201720586512 1 0
-12.002715 17.30614 5.6432905 22 3201720586512 1 0
-12.293414 19.72333 4.23741 27 3201720588816 1 0
-13.283711 19.1591 -0.54249644 7 3201720588816 1 0
-2.1814606 3.510123 -1.9271393 4 3201720609552 1 0
0 0 0 58 3201720609552 1 0
-11.294801 18.180023 -0.62288654 2 3201720611856 1 0
-4.1963186 6.07119 -2.0660255 4 3201720611856 1 0
-6.1130395 9.842694 -2.317322 1 3201720614160 1 0
-13.229343 19.14603 0 10 3201720614160 1 0
-9.78775 17.63216 -0.23477736 18 3201720616464 1 0
-9.474938 15.265643 -2.2869701 4 3201720618768 1 0
-9.3291445 13.505707 -2.5537205 7 3201720616464 1 0
-25.13593 32.844738 0.24038075 6 3201720618768 1 0
-11.037853 17.789522 -0.121678226 32 3201720621072 1 0
-10.684507 15.477477 -2.0258477 55 3201720621072 1 0
-8.724369 15.732702 -1.6793134 49 3201720623376 1 0
0 0 0 10 3201720623376 1 0
-10.339862 18.652325 0.24828102 28 3201720625680 1 0
-9.458282 15.258612 -1.4655368 32 3201720627984 1 0
0 0 0 1 3201720625680 1 0
-25.104183 32.842827 1.2030681 5 3201720627984 1 0
-19.627306 31.674116 0.65041625 12 3201720630288 1 0
-8.968508 16.195168 -1.07813 1 3201720632592 1 0
0 0 0 3 3201720632592 1 0
-15.964905 20.892563 -1.6851532 2 3201720630288 1 0
0 0 0 100 3201720634896 1 0
-9.934614 16.047897 -0.9891496 7 3201720637200 1 0
-19.600607 31.65159 1.5167533 7 3201720634896 1 0
-14.224658 20.650644 3.078907 6 3201720637200 1 0
-11.532571 18.635216 1.789042 14 3201720639504 1 0
-16.091042 21.083044 -1.0805341 3 3201720639504 1 0
-9.953508 17.998562 -0.7182316 8 3201720641808 1 0
-11.91156 17.303377 5.6287966 24 3201720641808 1 0
-12.160326 19.66237 4.2151685 25 3201720644112 1 0
-13.180481 19.152643 -0.5410076 17 3201720644112 1 0
-2.1672919 3.5146306 -1.9254488 3 3201720665296 1 0
-24.961828 32.814583 -0.71966743 20 3201720665296 1 0
-19.472713 31.588581 -1.079957 22 3201720667600 1 0
-4.1751003 6.0858006 -2.0660255 4 3201720667600 1 0
-6.0827603 9.870651 -2.3188908 1 3201720669904 1 0
-12.585528 18.350912 0 4 3201720669904 1 0
-9.728072 17.669722 -0.23482393 31 3201720672208 1 0
-9.281944 13.538189 -2.5537205 8 3201720672208 1 0
-9.361253 15.200642 -2.272323 3 3201720674512 1 0
-24.934013 32.817623 0.23954384 6 3201720674512 1 0
-10.893906 17.695103 -0.120771565 10 3201720676816 1 0
-10.594449 15.462187 -2.0189936 59 3201720676816 1 0
-8.703945 15.825875 -1.6860054 26 3201720679120 1 0
-10.232296 18.611195 0.2472566 24 3201720681424 1 0
0 0 0 1 3201720679120 1 0
-10.692899 15.61561 -1.3234198 1 3201720681424 1 0
-9.375722 15.243993 -1.4609805 31 3201720683728 1 0
-24.982136 32.920704 1.2027191 5 3201720683728 1 0
-13.150731 21.388752 0.43826482 6 3201720686032 1 0
-15.879816 20.932262 -1.6838741 2 3201720686032 1 0
-9.004193 16.394379 -1.0892926 2 3201720688336 1 0
-19.46071 31.672144 1.5144737 7 3201720690640 1 0
-12.574957 18.387054 -1.037644 23 3201720690640 1 0
-9.872264 16.072268 -0.9885215 5 3201720692944 1 0
-12.450473 18.19935 1.2841747 3 3201720688336 1 0
-11.298475 18.400171 1.7626799 5 3201720695248 1 0
-13.233786 19.35643 2.8790414 9 3201720692944 1 0
-15.981144 21.091301 -1.0780916 3 3201720695248 1 0
-9.863708 17.984127 -0.71627724 24 3201720697552 1 0
-11.866345 17.367182 5.6360435 29 3201720697552 1 0
-12.118374 19.7483 4.2244954 12 3201720699856 1 0
-12.53839 18.356495 -0.5172792 22 3201720699856 1 0
-24.762774 32.789814 -0.7172241 13 3201720720592 1 0
-2.1587944 3.5283592 -1.9288298 4 3201720720592 1 0
-4.160424 6.1098285 -2.0692606 4 3201720722896 1 0
-19.385738 31.6936 -1.081237 7 3201720722896 1 0
-6.048556 9.891647 -2.3188908 1 3201720725200 1 0
-12.4836645 18.338156 0 22 3201720725200 1 0
-9.676691 17.720701 -0.23505676 22 3201720727504 1 0
-9.228551 13.560302 -2.5518756 9 3201720727504 1 0
-9.292468 15.205599 -2.2682824 3 3201720729808 1 0
-24.760998 32.82318 0.23896265 6 3201720729808 1 0
-10.770802 17.629833 -0.12007414 22 3201720732112 1 0
-10.507988 15.448981 -2.0125678 60 3201720732112 1 0
-8.678644 15.907849 -1.6915821 27 3201720734416 1 0
-12.461691 18.326498 0.5156973 10 3201720734416 1 0
-10.628702 15.635257 -1.3220247 1 3201720736720 1 0
-9.297228 15.231305 -1.4567496 37 3201720739024 1 0
-10.065752 18.456146 0.24474213 29 3201720736720 1 0
-24.74338 32.835575 1.1965518 5 3201720739024 1 0
-20.066097 32.883224 0.6724063 13 3201720741328 1 0
-16.188902 21.48925 -1.7242953 5 3201720741328 1 0
-9.04101 16.592718 -1.1004554 2 3201720743632 1 0
-12.526385 18.4424 1.2983606 3 3201720743632 1 0
-89.4235 146.62866 6.997093 29 3201720745936 1 0
-12.495689 18.40239 -1.0361551 10 3201720745936 1 0
-14.217556 20.94408 3.1081557 7 3201720748240 1 0
-9.833468 16.12879 -0.98998696 5 3201720748240 1 0
-11.310286 18.556522 1.774071 8 3201720750544 1 0
-16.06042 21.341944 -1.088187 3 3201720750544 1 0
-12.565709 23.090271 -0.91799635 25 3201720752848 1 0
-11.815702 17.415686 5.639149 22 3201720752848 1 0
-12.211314 20.046627 4.2797413 30 3201720755152 1 0
-12.451315 18.357714 -0.5161626 45 3201720755152 1 0
-2.1420522 3.525829 -1.9237583 3 3201720775888 1 0
-24.587635 32.771473 -0.7151298 20 3201720775888 1 0
-10.921188 17.982521 -0.61229753 5 3201720778192 1 0
-4.1367598 6.1165776 -2.0671039 4 3201720778192 1 0
-6.0170183 9.910863 -2.3188908 1 3201720780496 1 0
-10.067642 18.578037 -0.24599937 22 3201720782800 1 0
-12.416228 18.364573 0 18 3201720780496 1 0
-9.176163 13.576729 -2.549416 9 3201720782800 1 0
-9.241265 15.232131 -2.2677772 3 3201720785104 1 0
-24.582932 32.80693 0.23826522 6 3201720785104 1 0
-10.68647 17.62029 -0.11977192 24 3201720787408 1 0
-10.422097 15.430327 -2.0057135 59 3201720787408 1 0
-8.664458 16.006214 -1.6990175 24 3201720789712 1 0
-12.37256 18.324097 0.5144876 20 3201720789712 1 0
-9.987765 18.457546 0.24432306 28 3201720792016 1 0
-10.492306 15.544507 -1.3114218 1 3201720792016 1 0
0 0 0 38 3201720794320 1 0
-24.646336 32.93345 1.1971337 5 3201720794320 1 0
0 0 0 65 3201720796624 1 0
0 0 0 22 3201720796624 1 0
0 0 0 29 3201720798928 1 0
0 0 0 12 3201720798928 1 0
-87.83657 145.12828 6.911282 29 3201720801232 1 0
-12.449023 18.467731 -1.037458 5 3201720801232 1 0
-9.8054 16.206594 -0.99270844 7 3201720803536 1 0
-12.925929 19.181526 2.840043 25 3201720803536 1 0
-11.186826 18.496225 1.7646327 11 3201720805840 1 0
-15.994402 21.406435 -1.0886755 3 3201720805840 1 0
-12.470852 23.105307 -0.9168796 25 3201720808144 1 0
-11.630426 17.270435 5.5791035 14 3201720808144 1 0
-12.149844 20.102335 4.282611 9 3201720810448 1 0
0 0 0 4 3201720810448 1 0
-2.1328568 3.5398667 -1.9271393 3 3201720831184 1 0
-24.41242 32.78759 -0.71352416 20 3201720831184 1 0
0 0 0 16 3201720833488 1 0
-4.1186953 6.138036 -2.0692606 5 3201720833488 1 0
0 0 0 3 3201720835792 1 0
-9.99083 18.59676 -0.24576655 24 3201720838096 1 0
-9.129135 13.613154 -2.550031 7 3201720838096 1 0
-9.159665 15.221167 -2.2612114 3 3201720840400 1 0
-5.982965 9.936036 -2.3196752 1 3201720835792 1 0
-24.357021 32.750957 0.23721907 6 3201720840400 1 0
-10.324529 15.404899 -1.9975741 59 3201720842704 1 0
-10.621039 17.65514 -0.11974867 40 3201720842704 1 0
-8.644802 16.107296 -1.7064531 39 3201720845008 1 0
-12.318048 18.38486 0.5149529 12 3201720845008 1 0
-9.908694 18.468348 0.2439971 19 3201720847312 1 0
-11.409473 17.033888 -1.433635 1 3201720847312 1 0
-9.163695 15.246932 -1.4521931 1 3201720849616 1 0
-24.410091 32.860226 1.1913155 5 3201720849616 1 0
-10.869373 18.090569 0.3683854 29 3201720851920 1 0
-16.13366 21.724981 -1.7342726 8 3201720851920 1 0
-12.380724 23.098825 -1.5262656 60 3201720854224 1 0
-12.265963 18.32902 1.2844073 12 3201720854224 1 0
0 0 0 52 3201720856528 1 0
-9.746713 16.237297 -0.99249905 7 3201720858832 1 0
0 0 0 14 3201720856528 1 0
-12.205576 18.249691 2.6957498 7 3201720858832 1 0
-11.130669 18.548674 1.7659345 11 3201720861136 1 0
-16.027042 21.606352 -1.0960028 3 3201720861136 1 0
-11.819634 17.683207 5.6991954 15 3201720863440 1 0
-9.817555 18.341038 -0.7264679 13 3201720863440 1 0
-12.335168 18.46001 -0.5166278 2 3201720865744 1 0
-2.1211066 3.54692 -1.9271393 3 3201720886480 1 0
-24.210825 32.74295 -0.7108016 13 3201720886480 1 0
-10.873342 18.188736 -0.6167193 37 3201720888784 1 0
-4.0896864 6.138897 -2.0649474 4 3201720888784 1 0
-12.594542 21.001293 4.46485 6 3201720865744 1 0
-5.949693 9.955996 -2.3196752 1 3201720891088 1 0
-9.980964 18.729055 -0.24707034 26 3201720893392 1 0
-12.320976 18.500744 0 2 3201720891088 1 0
-9.089917 13.65362 -2.5518756 8 3201720893392 1 0
-9.163183 15.343969 -2.2748482 4 3201720895696 1 0
-24.21548 32.791126 0.23691685 6 3201720895696 1 0
-10.544745 17.663557 -0.119562685 26 3201720898000 1 0
-10.237018 15.386821 -1.9907199 56 3201720898000 1 0
-8.621748 16.19639 -1.7127733 42 3201720900304 1 0
-12.304126 18.49993 0.517 2 3201720900304 1 0
-10.1367445 19.049402 0.25121456 20 3201720902608 1 0
-11.375488 17.109335 -1.4367043 1 3201720902608 1 0
0 0 0 89 3201720904912 1 0
-24.173748 32.776493 1.1852647 5 3201720904912 1 0
-10.829477 18.165716 0.3691533 21 3201720907216 1 0
-16.05394 21.774038 -1.733761 11 3201720907216 1 0
-9.463079 17.803085 -1.1741756 21 3201720909520 1 0
0 0 0 3 3201720909520 1 0
-82.71797 138.85022 6.5846467 29 3201720911824 1 0
-12.520922 18.857103 -1.0543953 77 3201720911824 1 0
-12.106668 18.239262 2.6879501 13 3201720914128 1 0
-9.659316 16.21974 -0.9893589 7 3201720914128 1 0
-11.102292 18.649237 1.7717928 11 3201720916432 1 0
-15.910923 21.607687 -1.0932348 3 3201720916432 1 0
-9.820408 18.502598 -0.7314935 34 3201720918736 1 0
-11.54161 17.399506 5.5946326 22 3201720918736 1 0
-12.057495 20.267834 4.2998304 21 3201720921040 1 0
-17.865534 26.942043 -0.7522369 4 3201720921040 1 0
-2.1099415 3.5577886 -1.9288298 3 3201720941776 1 0
-24.0386 32.76053 -0.70926577 20 3201720941776 1 0
-10.821142 18.252384 -0.61753386 17 3201720944080 1 0
-4.071496 6.160213 -2.0671039 5 3201720944080 1 0
-5.9034543 9.960691 -2.315753 1 3201720946384 1 0
-21.631824 32.738995 0 5 3201720946384 1 0
-9.91307 18.76508 -0.24707034 26 3201720948688 1 0
-9.042589 13.689748 -2.5524905 8 3201720948688 1 0
-10.456553 17.654099 -2.611732 24 3201720950992 1 0
-24.0001 32.745987 0.2359637 6 3201720950992 1 0
-10.485297 17.708208 -0.119609185 26 3201720953296 1 0
-10.137855 15.357117 -1.9821522 53 3201720953296 1 0
-8.604638 16.304625 -1.7209524 31 3201720955600 1 0
-10.081864 19.110165 0.2515405 31 3201720957904 1 0
-21.570433 32.68534 0.9112637 5 3201720955600 1 0
0 0 0 1 3201720957904 1 0
-9.065148 15.32426 -1.4534949 18 3201720960208 1 0
-24.057278 32.862076 1.1852647 5 3201720960208 1 0
-10.714313 18.117815 0.36740807 34 3201720962512 1 0
-12.263846 23.269478 -1.5318469 50 3201720964816 1 0
-15.908515 21.737225 -1.726342 5 3201720962512 1 0
0 0 0 21 3201720964816 1 0
-12.487725 18.950922 -1.0571871 52 3201720967120 1 0
-9.549811 16.163942 -0.983916 22 3201720969424 1 0
-12.0494795 18.291357 2.6894126 7 3201720969424 1 0
-11.059701 18.725477 1.7753729 17 3201720971728 1 0
-82.10063 138.9191 6.574226 29 3201720967120 1 0
-15.897039 21.746754 -1.0974683 3 3201720971728 1 0
-12.281023 23.333326 -0.92078835 32 3201720974032 1 0
-11.474937 17.429672 5.5915265 18 3201720974032 1 0
-12.039566 20.397385 4.318485 9 3201720976336 1 0
-17.87149 27.153782 -0.75642425 4 3201720976336 1 0
-2.096293 3.5616415 -1.9271393 3 3201720997072 1 0
-23.870949 32.759254 -0.70752054 13 3201720997072 1 0
-10.896136 18.51921 -0.6253301 17 3201720999376 1 0
-5.8820314 10.0006695 -2.3204598 1 3201721001680 1 0
-21.447592 32.697456 0 5 3201721001680 1 0
-4.048843 6.1705194 -2.0660255 4 3201720999376 1 0
-9.744154 18.596336 -0.24441618 27 3201721003984 1 0
-8.992209 13.713441 -2.5512607 9 3201721003984 1 0
-10.400945 17.696123 -2.6127422 16 3201721006288 1 0
-23.872992 32.804142 0.23580097 6 3201721006288 1 0
-10.950034 18.636856 -0.12563032 27 3201721008592 1 0
-10.053057 15.341488 -1.9757264 9 3201721008592 1 0
-21.371416 32.62476 0.90754163 5 3201721010896 1 0
-8.593422 16.4185 -1.729875 30 3201721010896 1 0
-9.955298 19.027561 0.2500039 39 3201721013200 1 0
0 0 0 1 3201721013200 1 0
-23.826801 32.782745 1.1794466 5 3201721015504 1 0
-10.645724 18.14429 0.36719865 32 3201721017808 1 0
0 0 0 81 3201721017808 1 0
-9.194293 17.592669 -1.1560363 54 3201721020112 1 0
0 0 0 19 3201721015504 1 0
0 0 0 6 3201721020112 1 0
-12.535495 19.168108 -1.0668656 49 3201721022416 1 0
-9.4145565 16.062777 -0.9757516 55 3201721024720 1 0
-81.54244 139.07608 6.568201 29 3201721022416 1 0
-12.569954 19.227207 2.820544 71 3201721024720 1 0
-11.266075 19.228502 1.8193096 9 3201721027024 1 0
-15.898176 21.90909 -1.1028416 3 3201721027024 1 0
-12.202518 23.383495 -0.92106754 14 3201721029328 1 0
-13.501383 20.665716 6.6143794 15 3201721029328 1 0
-12.5778 21.482344 4.5387497 13 3201721031632 1 0
-17.86069 27.347353 -0.76005334 4 3201721031632 1 0
-2.0868795 3.5755627 -1.9305202 3 3201721052368 1 0
-10.763844 18.448433 -0.6216065 28 3201721054672 1 0
-4.030447 6.191745 -2.0681822 4 3201721054672 1 0
-5.849436 10.028852 -2.3220286 1 3201721056976 1 0
-21.295359 32.725246 0 5 3201721056976 1 0
0 0 0 36 3201721052368 1 0
-9.685554 18.649462 -0.24464901 26 3201721059280 1 0
-8.940031 13.742799 -2.5506458 8 3201721059280 1 0
-10.266596 17.61384 -2.5950646 11 3201721061584 1 0
-23.643488 32.738323 0.23470832 6 3201721061584 1 0
-10.892402 18.69375 -0.12574656 27 3201721063888 1 0
-10.010325 15.397874 -1.9782966 6 3201721063888 1 0
-8.587092 16.552038 -1.7406565 20 3201721066192 1 0
-21.224796 32.658356 0.90633196 5 3201721066192 1 0
-9.794393 18.885887 0.24767569 31 3201721068496 1 0
0 0 0 1 3201721068496 1 0
-23.701382 32.858746 1.1790975 5 3201721070800 1 0
-8.94301 15.363575 -1.4512167 3 3201721070800 1 0
-10.618559 18.248175 0.36852503 25 3201721073104 1 0
-11.416965 15.832924 -1.2510095 7 3201721073104 1 0
-9.088785 17.544035 -1.1506875 62 3201721075408 1 0
-12.237962 18.854414 1.3090582 39 3201721075408 1 0
-80.51491 138.45888 6.5253773 29 3201721077712 1 0
-12.508017 19.276611 -1.070402 35 3201721077712 1 0
-9.348994 16.082544 -0.9749142 35 3201721080016 1 0
-12.518365 19.298706 2.8244438 28 3201721080016 1 0
-11.127236 19.147963 1.8079185 9 3201721082320 1 0
-17.863602 24.803455 -1.2453171 4 3201721082320 1 0
-9.064541 17.522188 -0.6889161 36 3201721084624 1 0
-13.618911 21.008724 6.7085896 13 3201721084624 1 0
-12.513185 21.547354 4.5430546 10 3201721086928 1 0
-17.826395 27.508013 -0.7627518 4 3201721086928 1 0
-2.0689363 3.5734136 -1.9254488 3 3201721107664 1 0
-25.298712 35.24581 -0.75729483 14 3201721107664 1 0
-10.428992 18.018728 -0.60589767 55 3201721109968 1 0
-4.0108995 6.2090116 -2.0692606 5 3201721109968 1 0
-21.115896 32.698574 0 5 3201721112272 1 0
-9.5819435 18.608482 -0.24367115 21 3201721114576 1 0
-8.898437 13.783883 -2.5524905 8 3201721114576 1 0
-10.183201 17.611784 -2.5895088 5 3201721116880 1 0
-5.802607 10.02884 -2.317322 1 3201721112272 1 0
-23.496439 32.775143 0.23438285 6 3201721116880 1 0
-9.97592 15.462799 -1.9821522 19 3201721119184 1 0
-7.585615 14.747347 -1.5480764 15 3201721121488 1 0
-21.101997 32.718803 0.9059597 5 3201721121488 1 0
-9.865583 19.186739 0.251168 22 3201721123792 1 0
-10.63492 18.399204 -0.12351479 23 3201721119184 1 0
-9.961428 15.450201 -1.2854723 1 3201721123792 1 0
-8.899295 15.411961 -1.452844 1 3201721126096 1 0
-23.472483 32.781986 1.1733958 5 3201721126096 1 0
-10.816717 18.73888 0.37767008 29 3201721128400 1 0
-11.319806 15.814254 -1.2464045 28 3201721128400 1 0
-8.985527 17.493956 -1.1453387 64 3201721130704 1 0
-12.161262 18.880232 1.3078954 22 3201721130704 1 0
-79.951225 138.6006 6.5188637 29 3201721133008 1 0
-9.456426 16.398832 -0.9920804 10 3201721135312 1 0
-12.453073 19.345623 2.8249314 23 3201721135312 1 0
-10.877152 18.868923 1.7779765 25 3201721137616 1 0
-17.776913 24.86566 -1.2453171 4 3201721137616 1 0
-12.00801 18.648268 -1.033177 18 3201721133008 1 0
-8.968658 17.48614 -0.6862637 49 3201721139920 1 0
-13.486963 20.965153 6.679602 18 3201721139920 1 0
0 0 0 13 3201721142224 1 0
-17.818949 27.707973 -0.766567 4 3201721142224 1 0
-2.0564504 3.5806139 -1.9254488 3 3201721162960 1 0
-25.24515 35.43162 -0.7593891 14 3201721162960 1 0
-10.441681 18.186787 -0.6103194 27 3201721165264 1 0
-3.9829652 6.213246 -2.0660255 4 3201721165264 1 0
-5.773422 10.059239 -2.3196752 2 3201721167568 1 0
-9.544209 18.695251 -0.24436961 34 3201721169872 1 0
-20.96494 32.71483 0 5 3201721167568 1 0
-8.850267 13.81486 -2.5524905 7 3201721169872 1 0
-10.09205 17.595592 -2.5819325 5 3201721172176 1 0
-23.286802 32.723343 0.2334297 6 3201721172176 1 0
-10.676078 18.620127 -0.12474692 27 3201721174480 1 0
-9.814667 15.330059 -1.9607328 2 3201721174480 1 0
-7.51057 14.7276125 -1.5432433 23 3201721176784 1 0
-20.910055 32.67101 0.9026098 5 3201721176784 1 0
-9.760402 19.146227 0.25019017 28 3201721179088 1 0
0 0 0 1 3201721179088 1 0
0 0 0 13 3201721181392 1 0
-23.26757 32.73662 1.1688577 5 3201721181392 1 0
-10.70752 18.700167 0.37613428 12 3201721183696 1 0
0 0 0 9 3201721183696 1 0
-8.891789 17.461164 -1.1411527 60 3201721186000 1 0
-12.18346 19.060516 1.3174303 9 3201721186000 1 0
0 0 0 14 3201721188304 1 0
-11.897661 18.619362 -1.0292685 10 3201721188304 1 0
-9.411026 16.452547 -0.99333644 5 3201721190608 1 0
-12.398292 19.40905 2.8278563 8 3201721190608 1 0
-10.975477 19.194029 1.8049895 9 3201721192912 1 0
-17.810284 25.097048 -1.2537843 4 3201721192912 1 0
-8.880387 17.46389 -0.6841697 52 3201721195216 1 0
-13.303513 20.839499 6.6247325 21 3201721195216 1 0
-11.618596 20.332445 4.269696 15 3201721197520 1 0
-20.839304 32.65453 -0.90140015 5 3201721197520 1 0
-2.0457337 3.5909202 -1.9271393 3 3201721218256 1 0
-10.730612 18.841408 -0.6310319 30 3201721220560 1 0
-25.232166 35.67626 -0.76273996 14 3201721218256 1 0
-3.9613433 6.2270536 -2.0660255 5 3201721220560 1 0
0 0 0 73 3201721222864 1 0
-20.763561 32.64882 0 5 3201721222864 1 0
-8.864092 13.942013 -2.570323 10 3201721225168 1 0
-10.055142 17.671515 -2.5879936 22 3201721227472 1 0
-23.091255 32.685474 0.23259279 6 3201721227472 1 0
-10.592596 18.621738 -0.12451444 68 3201721229776 1 0
-9.70889 15.279598 -1.950023 2 3201721229776 1 0
-7.4316463 14.696222 -1.5372949 22 3201721232080 1 0
-9.5212555 18.810118 -0.2454406 21 3201721225168 1 0
-20.732271 32.63735 0.8997252 5 3201721232080 1 0
-9.599825 18.990007 0.24772225 22 3201721234384 1 0
-9.822817 15.467837 -1.281287 1 3201721234384 1 0
-8.854348 15.580139 -1.4629332 9 3201721236688 1 0
-23.071678 32.694073 1.1645522 5 3201721236688 1 0
-10.532021 18.537827 0.3721551 14 3201721238992 1 0
-11.81641 16.749277 -1.3136878 1 3201721238992 1 0
-8.799126 17.423086 -1.1367341 60 3201721241296 1 0
-12.153861 19.155115 1.3211511 19 3201721241296 1 0
-35.27599 62.12853 2.9107335 87 3201721243600 1 0
-11.777793 18.567785 -1.0242431 12 3201721243600 1 0
-12.531593 19.761875 2.8731916 30 3201721245904 1 0
-12.54292 22.097488 -1.3316361 7 3201721245904 1 0
-10.868761 19.15388 1.7978294 30 3201721248208 1 0
-17.830929 25.302727 -1.2611115 4 3201721248208 1 0
-8.840937 17.528679 -0.6855657 52 3201721250512 1 0
-13.1997795 20.827635 6.6071324 15 3201721250512 1 0
-11.782997 20.777697 4.355076 18 3201721252816 1 0
-20.72377 32.70904 -0.9010279 5 3201721252816 1 0
-2.0326576 3.594174 -1.9254488 3 3201721273552 1 0
-25.188934 35.85353 -0.7648343 7 3201721273552 1 0
-10.720562 18.96204 -0.63394094 12 3201721275856 1 0
-3.9397035 6.2362113 -2.0649474 4 3201721275856 1 0
-20.6438 32.686832 0 5 3201721278160 1 0
-5.7126637 10.107387 -2.3220286 18 3201721278160 1 0
-8.912806 17.746212 -0.23119192 19 3201721280464 1 0
-8.86034 14.03329 -2.5820062 8 3201721280464 1 0
-9.499988 16.818556 -2.458695 5 3201721282768 1 0
-10.49274 18.581781 -0.12402624 31 3201721285072 1 0
-9.626883 15.25621 -1.9431689 4 3201721285072 1 0
-7.3604355 14.669661 -1.5320901 22 3201721287376 1 0
-20.584831 32.63129 0.8977711 5 3201721287376 1 0
-22.933313 32.679276 0.23203485 6 3201721282768 1 0
-8.896339 17.736576 0.23100565 15 3201721289680 1 0
-9.703934 15.387241 -1.2720791 1 3201721289680 1 0
0 0 0 19 3201721291984 1 0
-13.357187 19.054798 0.6772276 6 3201721291984 1 0
-10.479625 18.581272 0.37236455 46 3201721294288 1 0
-11.788932 16.822275 -1.316502 3 3201721294288 1 0
-8.724668 17.411371 -1.134176 68 3201721296592 1 0
-12.106396 19.213472 1.3225465 26 3201721296592 1 0
-11.070142 19.640326 0.9185191 6 3201721298896 1 0
-11.664032 18.516792 -1.0194038 17 3201721298896 1 0
-10.169352 18.047691 -1.0856571 17 3201721301200 1 0
0 0 0 84 3201721301200 1 0
-10.810491 19.191402 1.7981548 12 3201721303504 1 0
-17.783438 25.404457 -1.2633911 4 3201721303504 1 0
-8.819817 17.62429 -0.68821806 55 3201721305808 1 0
-13.045788 20.728392 6.562616 9 3201721305808 1 0
-11.412658 20.272814 4.241715 9 3201721308112 1 0
-20.535727 32.638596 -0.89730585 5 3201721308112 1 0
-2.0212438 3.6047618 -1.9271393 3 3201721328296 1 0
0 0 0 36 3201721328296 1 0
-9.956826 17.76313 -0.59263235 26 3201721330600 1 0
-3.9188201 6.2539015 -2.0660255 5 3201721330600 1 0
-5.671598 10.121495 -2.3204598 19 3201721332904 1 0
-20.438444 32.626984 0 5 3201721332904 1 0
-9.285671 18.659843 -0.24264674 16 3201721335208 1 0
-8.814833 14.075912 -2.583851 7 3201721335208 1 0
-9.414525 16.811993 -2.452634 19 3201721337512 1 0
0 0 0 21 3201721337512 1 0
-10.455149 18.676338 -0.1243982 31 3201721339816 1 0
-9.534477 15.23443 -1.9358863 2 3201721339816 1 0
-7.2811575 14.64693 -1.5268852 22 3201721342120 1 0
-20.372461 32.561638 0.89376986 5 3201721342120 1 0
-9.367915 18.851229 0.24506809 17 3201721344424 1 0
0 0 0 1 3201721344424 1 0
0 0 0 50 3201721346728 1 0
0 0 0 181 3201721346728 1 0
-10.537091 18.847145 0.37690216 27 3201721349032 1 0
-11.737486 16.882526 -1.3177811 4 3201721349032 1 0
-8.687934 17.501091 -1.1378969 62 3201721351336 1 0
-12.042957 19.272137 1.3234767 26 3201721351336 1 0
0 0 0 17 3201721353640 1 0
-11.554379 18.49596 -1.0158675 30 3201721353640 1 0
0 0 0 8 3201721355944 1 0
0 0 0 100 3201721355944 1 0
-10.897633 19.517344 1.8248425 9 3201721358248 1 0
0 0 0 26 3201721358248 1 0
-8.771119 17.693205 -0.68961406 18 3201721360552 1 0
-12.932835 20.721668 6.545016 33 3201721360552 1 0
0 0 0 18 3201721362856 1 0
-11.301645 18.11366 -0.49680763 2 3201721362856 1 0
-2.0092788 3.6114447 -1.9271393 4 3201721383592 1 0
-13.233811 19.11918 -0.40587315 7 3201721383592 1 0
-11.215363 20.16521 -0.6715259 19 3201721385896 1 0
-3.9000487 6.2701616 -2.0671039 5 3201721385896 1 0
-5.639761 10.143758 -2.3212442 21 3201721388200 1 0
-20.312763 32.6677 0 5 3201721388200 1 0
-9.202095 18.647694 -0.24208796 34 3201721390504 1 0
-8.765713 14.1019 -2.583236 8 3201721390504 1 0
-9.356306 16.839922 -2.452129 14 3201721392808 1 0
0 0 0 1 3201721392808 1 0
-9.451873 15.215635 -1.9294604 4 3201721395112 1 0
-10.43909 18.795206 -0.124956146 40 3201721395112 1 0
-13.159841 21.1916 0.58046186 5 3201721397416 1 0
-9.292014 18.85755 0.24474213 14 3201721399720 1 0
-7.210776 14.628443 -1.5224239 23 3201721397416 1 0
-8.746582 15.764108 -1.4717206 65 3201721402024 1 0
0 0 0 1 3201721399720 1 0
-12.371971 17.918577 0.6337082 111 3201721402024 1 0
-10.362726 18.683315 0.37292302 40 3201721404328 1 0
-7.2530823 14.735882 -0.95650315 21 3201721406632 1 0
-11.315248 16.393202 -1.2765925 2 3201721404328 1 0
-12.202776 19.675951 1.3483602 23 3201721406632 1 0
-10.813352 19.50914 0.90874934 12 3201721408936 1 0
-11.440968 18.45359 -1.0114005 30 3201721408936 1 0
-11.67488 18.836994 2.7210987 28 3201721411240 1 0
-9.972187 17.99771 -1.07833 8 3201721411240 1 0
-12.64655 18.344774 -0.90777236 15 3201721413544 1 0
-10.902475 19.683437 1.8368844 25 3201721413544 1 0
-10.182931 20.718784 -0.8061784 18 3201721415848 1 0
-12.115283 19.560272 6.1650696 8 3201721415848 1 0
-11.550356 20.867447 4.3486185 15 3201721418152 1 0
-1.9931574 3.6120882 -1.9237583 4 3201721438888 1 0
0 0 0 6 3201721418152 1 0
-12.584964 18.318083 -0.3879321 20 3201721438888 1 0
-9.976271 18.08628 -0.6011268 5 3201721441192 1 0
-3.8760238 6.2805157 -2.0660255 6 3201721441192 1 0
-5.6040225 10.163546 -2.3212442 21 3201721443496 1 0
0 0 0 27 3201721443496 1 0
-9.122072 18.651356 -0.24171545 22 3201721445800 1 0
-8.713743 14.129429 -2.582621 9 3201721445800 1 0
-12.550049 18.292334 0.1289315 8 3201721448104 1 0
-10.36626 18.821775 -0.1248864 44 3201721450408 1 0
-9.307974 16.893873 -2.4551594 7 3201721448104 1 0
-9.3975935 15.249219 -1.9294604 4 3201721450408 1 0
-7.1391616 14.614784 -1.5183343 33 3201721452712 1 0
0 0 0 15 3201721452712 1 0
-9.217189 18.876432 0.24455588 17 3201721455016 1 0
-8.705037 15.823499 -1.4743242 48 3201721457320 1 0
0 0 0 100 3201721457320 1 0
-10.23718 18.61559 0.37082872 38 3201721459624 1 0
-10.703165 15.62719 -1.2139142 1 3201721459624 1 0
-9.495175 15.418607 -1.2662195 2 3201721455016 1 0
-7.1959524 14.754978 -0.95603806 12 3201721461928 1 0
-11.934476 19.400478 1.3264999 10 3201721461928 1 0
-10.308989 18.760382 0.87211275 27 3201721464232 1 0
-11.260501 18.31144 -1.0013498 47 3201721464232 1 0
-9.863846 17.957113 -1.0737245 8 3201721466536 1 0
-11.815754 19.221266 2.770334 19 3201721466536 1 0
-10.839565 19.740894 1.8385116 15 3201721468840 1 0
-12.54286 18.338404 -0.9051671 40 3201721468840 1 0
-10.06432 20.670002 -0.802828 37 3201721471144 1 0
-11.19652 20.406448 4.2438674 9 3201721473448 1 0
-11.701166 19.04852 5.990108 7 3201721471144 1 0
-19.410513 31.610027 -0.86315554 11 3201721473448 1 0
-1.9792733 3.6197147 -1.9237583 3 3201721494184 1 0
-12.503274 18.349747 -0.38758305 22 3201721494184 1 0
-9.922357 18.152376 -0.6020577 27 3201721496488 1 0
-3.8519711 6.295296 -2.0660255 4 3201721496488 1 0
-5.5633717 10.181384 -2.3204598 27 3201721498792 1 0
-10.703242 17.49808 0 35 3201721498792 1 0
-9.075616 18.736244 -0.24236736 27 3201721501096 1 0
-8.664167 14.169148 -2.583851 7 3201721501096 1 0
-9.156546 16.768751 -2.431926 26 3201721503400 1 0
-12.458282 18.306595 0.12869902 17 3201721503400 1 0
-9.2882395 15.199673 -1.9187508 2 3201721505704 1 0
-10.274204 18.822071 -0.124630675 42 3201721505704 1 0
-7.054781 14.580524 -1.5120142 31 3201721508008 1 0
-10.952834 17.929546 0.48889816 24 3201721508008 1 0
-9.263249 19.151999 0.24767569 22 3201721510312 1 0
0 0 0 100 3201721510312 1 0
-8.682323 15.922304 -1.480508 47 3201721512616 1 0
-12.334688 18.14767 0.6385954 112 3201721512616 1 0
-10.055132 18.446245 0.36670998 34 3201721514920 1 0
-10.64962 15.673382 -1.2144258 1 3201721514920 1 0
-12.788199 20.961401 1.4299873 7 3201721517224 1 0
-7.106652 14.70955 -0.9513869 1 3201721517224 1 0
-10.17106 18.671839 0.86625093 49 3201721519528 1 0
-11.116065 18.226534 -0.99446315 61 3201721519528 1 0
-9.746385 17.898426 -1.0680722 19 3201721521832 1 0
-12.2412405 20.078003 2.8873284 24 3201721521832 1 0
-10.803642 19.846863 1.8446953 6 3201721524136 1 0
-12.478073 18.387377 -0.90532994 6 3201721524136 1 0
-9.9995165 20.728062 -0.80366564 25 3201721526440 1 0
-11.00058 18.054893 5.6650314 6 3201721526440 1 0
-19.304228 31.693777 -0.8635278 5 3201721528744 1 0
-11.288018 20.75106 4.307005 36 3201721528744 1 0
-1.9683542 3.6297884 -1.9254488 3 3201721549480 1 0
-12.430183 18.380028 -0.3873038 4 3201721549480 1 0
-9.963867 18.380157 -0.6084576 8 3201721551784 1 0
-5.5260777 10.197213 -2.3196752 23 3201721554088 1 0
-3.82802 6.305383 -2.0649474 4 3201721551784 1 0
-10.930825 18.010489 0 40 3201721554088 1 0
-8.9949875 18.735163 -0.24194828 27 3201721556392 1 0
-8.6149645 14.199119 -2.583851 8 3201721556392 1 0
0 0 0 15 3201721558696 1 0
-12.397077 18.352924 0.12872227 6 3201721558696 1 0
-10.2167425 18.87152 -0.124723665 44 3201721561000 1 0
0 0 0 95 3201721561000 1 0
-6.9838123 14.561664 -1.5075527 31 3201721563304 1 0
-10.795613 17.809889 0.48461774 24 3201721563304 1 0
-8.8463 18.4516 0.23822312 14 3201721565608 1 0
-9.318089 15.377159 -1.2572907 63 3201721565608 1 0
-8.663655 16.01864 -1.4866916 40 3201721567912 1 0
-12.303631 18.236305 0.64022446 198 3201721567912 1 0
-10.060368 18.607231 0.36922312 38 3201721570216 1 0
-10.591409 15.703149 -1.2139142 1 3201721570216 1 0
-7.132227 14.8922205 -0.96161944 1 3201721572520 1 0
-11.849964 19.573683 1.3325464 6 3201721572520 1 0
-10.149114 18.783777 0.8698332 33 3201721574824 1 0
-11.01039 18.192554 -0.9905546 49 3201721574824 1 0
-12.479794 23.104986 -1.3762263 65 3201721577128 1 0
-11.897442 19.664371 2.8220065 25 3201721577128 1 0
-12.440119 18.46611 -0.90712106 4 3201721579432 1 0
-10.637681 19.701023 1.8277715 24 3201721579432 1 0
-12.154104 25.414038 -0.983747 31 3201721581736 1 0
0 0 0 57 3201721581736 1 0
-10.025554 18.579641 3.8492558 16 3201721584040 1 0
-22.895666 37.877934 -1.0299058 15 3201721584040 1 0
-1.9597417 3.642681 -1.9288298 3 3201721604776 1 0
-12.387001 18.447708 -0.3878623 2 3201721604776 1 0
-9.900834 18.409649 -0.6083413 33 3201721607080 1 0
-3.8110197 6.324669 -2.0671039 5 3201721607080 1 0
-5.488369 10.2086525 -2.3181064 15 3201721609384 1 0
-10.594209 17.58766 0 20 3201721609384 1 0
-8.932401 18.765083 -0.24194828 25 3201721611688 1 0
-8.571599 14.234568 -2.5850809 8 3201721611688 1 0
-8.995245 16.743301 -2.4192991 3 3201721613992 1 0
-12.32893 18.384325 0.12865253 4 3201721613992 1 0
-10.104214 18.814043 -0.12411923 38 3201721616296 1 0
-9.139452 15.187576 -1.9093262 86 3201721616296 1 0
-6.9177475 14.549077 -1.5038351 27 3201721618600 1 0
-10.75633 17.880325 0.48554826 26 3201721618600 1 0
-9.249809 15.38109 -1.2550585 59 3201721620904 1 0
-8.624443 18.145323 0.23389265 11 3201721620904 1 0
-8.645365 16.11453 -1.4928753 34 3201721623208 1 0
-9.978486 18.605898 0.36852503 31 3201721625512 1 0
-12.262052 18.307615 0.6412717 209 3201721623208 1 0
0 0 0 4 3201721625512 1 0
-11.795903 19.634266 1.3339417 33 3201721627816 1 0
-6.9978 14.739546 -0.95022416 1 3201721627816 1 0
-10.200427 19.03302 0.87976575 27 3201721630120 1 0
-10.903284 18.154484 -0.98645985 45 3201721630120 1 0
-12.378449 23.105074 -1.3737142 54 3201721632424 1 0
-11.487122 19.132906 2.7401104 22 3201721632424 1 0
-10.547839 19.695017 1.823866 18 3201721634728 1 0
0 0 0 31 3201721634728 1 0
0 0 0 10 3201721637032 1 0
-10.690574 17.81792 5.567715 8 3201721637032 1 0
-9.972998 18.63469 3.8535607 26 3201721639336 1 0
0 0 0 66 3201721639336 1 0
-1.9384824 3.633507 -1.9203774 4 3201721660072 1 0
-18.184383 27.28696 -0.5723691 4 3201721660072 1 0
-9.4715 17.759676 -0.585767 23 3201721662376 1 0
-3.7889192 6.337933 -2.0671039 5 3201721662376 1 0
-5.469308 10.258899 -2.3251667 3 3201721664680 1 0
-8.921452 18.911905 -0.24343833 27 3201721666984 1 0
-8.519832 14.261008 -2.584466 8 3201721666984 1 0
-11.513593 19.265781 0 9 3201721664680 1 0
-8.968463 16.834133 -2.4278853 3 3201721669288 1 0
-21.736898 32.65892 0.228013 5 3201721669288 1 0
-10.023437 18.820955 -0.12393325 31 3201721671592 1 0
-9.065995 15.18524 -1.9050423 73 3201721671592 1 0
-6.8448505 14.5263 -1.499002 42 3201721673896 1 0
-10.751233 18.01391 0.48815373 28 3201721673896 1 0
-8.52526 18.09933 0.23291479 13 3201721676200 1 0
-9.177663 15.382443 -1.2525473 63 3201721676200 1 0
-8.632129 16.225563 -1.5003608 34 3201721678504 1 0
-12.233485 18.403584 0.6431335 212 3201721678504 1 0
-9.907845 18.630024 0.36831558 36 3201721680808 1 0
0 0 0 4 3201721680808 1 0
-6.9310064 14.731363 -0.94813114 1 3201721683112 1 0
-12.500118 20.971918 1.4218479 7 3201721683112 1 0
-9.982002 18.782642 0.8665766 38 3201721685416 1 0
-10.796896 18.12035 -0.9825512 52 3201721685416 1 0
-12.322085 23.194 -1.3764356 38 3201721687720 1 0
-10.477157 19.728193 1.8235406 9 3201721690024 1 0
-11.347124 19.050093 2.7225611 23 3201721687720 1 0
-12.50687 18.844564 -0.92145 42 3201721690024 1 0
-12.299497 26.181236 -1.010131 12 3201721692328 1 0
-10.64017 17.87505 5.573927 23 3201721692328 1 0
-9.911579 18.67634 3.8549955 19 3201721694632 1 0
-10.793081 18.137936 -0.49113142 50 3201721694632 1 0
-1.9291778 3.6466603 -1.9237583 4 3201721715368 1 0
-18.100054 27.36695 -0.57271814 4 3201721715368 1 0
-9.465525 17.898663 -0.58925784 36 3201721717672 1 0
-3.7628427 6.3444943 -2.0649474 4 3201721717672 1 0
-5.44263 10.295266 -2.329089 2 3201721719976 1 0
-11.458512 19.326498 0 31 3201721719976 1 0
-9.006134 19.265411 -0.24758255 9 3201721722280 1 0
-8.469999 14.290661 -2.584466 8 3201721722280 1 0
-9.285901 17.57756 -2.5304153 31 3201721724584 1 0
-21.512535 32.567722 0.22685061 5 3201721724584 1 0
-10.002507 18.940716 -0.12449119 31 3201721726888 1 0
-8.996719 15.189419 -1.9016151 71 3201721726888 1 0
-6.777252 14.514018 -1.4952842 22 3201721729192 1 0
0 0 0 1 3201721729192 1 0
-8.563533 18.34644 0.23570865 13 3201721731496 1 0
-9.1137495 15.397217 -1.2511522 20 3201721731496 1 0
-8.6219425 16.34375 -1.5084974 30 3201721733800 1 0
-12.204399 18.499573 0.64499533 198 3201721733800 1 0
-9.840888 18.660957 0.36824578 38 3201721736104 1 0
0 0 0 4 3201721736104 1 0
-6.887979 14.773563 -0.9492939 1 3201721738408 1 0
-12.361795 20.905432 1.4144061 10 3201721738408 1 0
-9.880976 18.75019 0.86348283 30 3201721740712 1 0
-10.719346 18.13385 -0.9812483 66 3201721740712 1 0
-11.284597 19.096422 2.723536 23 3201721743016 1 0
-12.252218 23.258076 -1.3776917 32 3201721743016 1 0
-10.627427 20.180893 1.8619446 25 3201721745320 1 0
-12.5069685 18.988237 -0.92633486 42 3201721745320 1 0
-12.26202 26.339981 -1.0145981 8 3201721747624 1 0
-10.522699 17.81893 5.544939 25 3201721747624 1 0
-9.994762 18.992897 3.9131112 22 3201721749928 1 0
-10.80492 18.302916 -0.49457437 36 3201721749928 1 0
-1.9181209 3.6565826 -1.9254488 4 3201721770664 1 0
