# .PCD v.7 - Point Cloud Data file format
VERSION .7
FIELDS x y z rgb timestamp_ns device_id active
SIZE 4 4 4 4 8 1 1
TYPE F F F F F U U
COUNT 1 1 1 1 1 1 1
WIDTH 933
HEIGHT 1
VIEWPOINT 0 0 0 1 0 0 0
POINTS 933               
DATA ascii
-1.5315679 10.934596 -2.2082808 2 3199327236904 1 0
-3.8005412 19.973635 0 22 3199327236904 1 0
-1.9343092 21.3993 -0.2501436 19 3199327239208 1 0
-2.6333165 13.85029 -2.1933832 24 3199327239208 1 0
-2.09929 15.019638 -1.9303886 94 3199327241512 1 0
-2.788232 19.96995 -0.11719143 33 3199327243816 1 0
-5.003097 20.748976 0.124049485 20 3199327241512 1 0
-3.2619586 17.183958 -1.8840513 63 3199327243816 1 0
-1.4208069 15.7952795 -1.4804131 22 3199327246120 1 0
-3.895205 20.536194 0.48638573 31 3199327246120 1 0
-1.8442265 20.53596 0.24003914 15 3199327248424 1 0
-2.9327168 15.474082 -1.1013153 3 3199327248424 1 0
-2.1581357 15.506458 -1.2780732 48 3199327250728 1 0
-5.05164 21.00391 0.6287046 24 3199327250728 1 0
-6.3874693 26.575071 -1.751669 24 3199327253032 1 0
-1.4786242 16.545916 -0.96743333 56 3199327255336 1 0
-2.7850494 20.032246 0.35302728 15 3199327253032 1 0
-3.9667618 20.980112 1.2434773 9 3199327255336 1 0
-3.0761101 22.173069 0.9120059 9 3199327257640 1 0
-2.9306457 15.512477 -0.7353779 4 3199327257640 1 0
0 0 0 157 3199327259944 1 0
-4.4960265 23.817331 2.9760494 22 3199327259944 1 0
-2.011279 14.528652 1.1973596 3 3199327262248 1 0
-6.215797 25.927202 -1.086233 10 3199327262248 1 0
-3.6989036 19.625957 5.3513427 14 3199327264552 1 0
-1.9977634 14.461991 2.661834 10 3199327266856 1 0
-1.4691765 16.548786 -0.58016926 49 3199327264552 1 0
-3.8735003 20.568785 -0.4870371 30 3199327266856 1 0
-0.5567261 4.069482 -1.915306 3 3199327287592 1 0
-4.9948425 20.982397 -0.37648332 23 3199327287592 1 0
-2.1281056 15.572608 -0.45741954 39 3199327289896 1 0
-1.3340694 7.1411734 -2.0336766 6 3199327289896 1 0
-1.4933897 10.939876 -2.2082808 2 3199327292200 1 0
-3.7263932 19.963188 0 35 3199327292200 1 0
-2.589302 13.88271 -2.1970727 15 3199327294504 1 0
-2.0425644 14.995421 -1.926348 93 3199327296808 1 0
-4.9306393 20.766314 0.124049485 20 3199327296808 1 0
-2.7217426 20.003342 -0.117330916 9 3199327299112 1 0
0 0 0 84 3199327294504 1 0
-2.9799008 16.002756 -1.7533929 87 3199327299112 1 0
-1.3646336 15.7882395 -1.4792978 20 3199327301416 1 0
-3.759857 20.20763 0.47829017 24 3199327301416 1 0
-3.849429 20.705786 -1.4726987 18 3199327303720 1 0
-1.7787206 20.614 0.24087729 14 3199327303720 1 0
0 0 0 223 3199327306024 1 0
-4.9626284 20.955273 0.62672645 22 3199327306024 1 0
-1.9505602 14.398264 0.25361836 7 3199327308328 1 0
-3.7232943 15.732245 -1.0361122 12 3199327308328 1 0
-1.426324 16.614634 -0.9711542 59 3199327310632 1 0
-3.896416 21.009537 1.2444077 6 3199327310632 1 0
-1.9471964 14.40493 0.5922095 4 3199327312936 1 0
-3.785071 20.425732 -0.96766126 96 3199327312936 1 0
-10.572793 78.30099 -4.140821 248 3199327315240 1 0
-4.533573 24.48482 3.0574582 13 3199327315240 1 0
-1.945098 14.421007 1.1879213 16 3199327317544 1 0
-7.734846 32.767532 -1.3716725 10 3199327317544 1 0
-1.4175144 16.62551 -0.582682 49 3199327319848 1 0
-3.6275644 19.623552 5.3472013 16 3199327319848 1 0
-1.9446452 14.449376 2.6582465 26 3199327322152 1 0
-3.7871513 20.503532 -0.48517606 31 3199327322152 1 0
-0.54060227 4.0570264 -1.9085441 3 3199327342888 1 0
-4.898755 20.902357 -0.37473807 17 3199327342888 1 0
-1.9100945 14.3513155 -0.4213473 14 3199327345192 1 0
-1.3083878 7.1420074 -2.0325983 6 3199327345192 1 0
-1.4571017 10.960596 -2.2114186 2 3199327347496 1 0
-4.429446 53.15214 -0.6209354 59 3199327349800 1 0
-2.6144712 14.296068 -2.2610233 8 3199327349800 1 0
-1.894822 14.286613 -1.8344247 17 3199327352104 1 0
-3.6520743 19.952518 0 36 3199327347496 1 0
-4.8320274 20.67448 0.12339855 20 3199327352104 1 0
-1.901575 14.354349 -0.08415651 22 3199327354408 1 0
-2.8184452 15.438054 -1.6904198 38 3199327354408 1 0
-1.3025751 15.717551 -1.472234 23 3199327356712 1 0
-3.6912844 20.236528 0.47866237 33 3199327356712 1 0
-1.7294445 20.907171 0.24422993 7 3199327359016 1 0
-2.8145273 15.443291 -1.0976878 11 3199327359016 1 0
-1.8908342 14.323674 -1.1794595 200 3199327361320 1 0
-4.890953 20.984434 0.62707555 19 3199327361320 1 0
-1.8930726 14.357529 0.25278065 27 3199327363624 1 0
-6.18465 26.553331 -1.7473199 18 3199327363624 1 0
-1.3736583 16.699207 -0.97580534 54 3199327365928 1 0
0 0 0 55 3199327365928 1 0
-1.893664 14.395941 0.5915582 60 3199327368232 1 0
-3.6999757 20.372282 -0.96449715 24 3199327368232 1 0
-10.279041 78.23534 -4.135378 255 3199327370536 1 0
-4.3374844 23.903206 2.9828742 9 3199327370536 1 0
-1.8897524 14.400218 1.1856431 46 3199327372840 1 0
-7.6010423 32.724976 -1.3687416 10 3199327372840 1 0
-1.3646101 16.714165 -0.58561355 47 3199327375144 1 0
-4.1513767 22.917439 6.240645 16 3199327375144 1 0
-1.8900645 14.436774 2.6546593 20 3199327377448 1 0
-3.7140317 20.520967 -0.4852691 30 3199327377448 1 0
-0.5266602 4.066171 -1.911925 3 3199327398184 1 0
-4.777196 20.725311 -0.3712476 29 3199327398184 1 0
-1.2816778 7.1429353 -2.03152 7 3199327400488 1 0
-1.8542032 14.330422 -0.42053276 27 3199327400488 1 0
-1.4163922 10.958021 -2.2098496 2 3199327402792 1 0
-3.5974395 20.064045 0 28 3199327402792 1 0
-4.2358594 53.13983 -0.6206094 73 3199327405096 1 0
-2.582509 14.414322 -2.278241 7 3199327405096 1 0
-1.841663 14.27756 -1.8324045 21 3199327407400 1 0
-4.7571287 20.687738 0.123375304 18 3199327407400 1 0
-1.8500062 14.357053 -0.08413326 25 3199327409704 1 0
-2.7285113 15.252236 -1.6690004 54 3199327409704 1 0
-1.2479614 15.733968 -1.4733493 21 3199327412008 1 0
-1.6547351 20.897167 0.24404366 24 3199327414312 1 0
-3.6260726 20.284876 0.47949985 22 3199327412008 1 0
-2.7230787 15.244892 -1.0828995 58 3199327414312 1 0
0 0 0 18 3199327416616 1 0
-4.7354274 20.642847 0.61637026 21 3199327416616 1 0
-1.8432573 14.364009 0.25278065 26 3199327418920 1 0
-3.596629 15.687978 -1.0315073 18 3199327418920 1 0
-1.3214198 16.771519 -0.9797588 59 3199327421224 1 0
-4.00056 22.447668 1.3278953 23 3199327421224 1 0
-1.8407903 14.374593 0.5904184 45 3199327423528 1 0
-2.717377 15.259124 -0.72197694 45 3199327423528 1 0
-10.022855 78.34911 -4.139565 255 3199327425832 1 0
-3.7094007 20.845528 2.599717 30 3199327425832 1 0
-1.8400356 14.398617 1.1849922 46 3199327428136 1 0
-7.4849906 32.727116 -1.3677646 16 3199327428136 1 0
-1.3137493 16.786406 -0.5879867 49 3199327430440 1 0
-4.0871987 23.003534 6.260315 16 3199327430440 1 0
-1.8443539 14.46252 2.6582465 17 3199327432744 1 0
-3.6469114 20.541124 -0.48545521 31 3199327432744 1 0
-0.513429 4.064209 -1.9102346 4 3199327453480 1 0
-4.760795 20.954718 -0.3750871 17 3199327453480 1 0
-1.810467 14.3481045 -0.42088184 30 3199327455784 1 0
-1.2577908 7.139358 -2.0293634 7 3199327455784 1 0
-1.3811502 10.958565 -2.2090652 2 3199327458088 1 0
-3.4977458 19.870499 0 26 3199327458088 1 0
-4.0653553 53.1371 -0.6204232 51 3199327460392 1 0
-1.7954737 14.279443 -1.8318994 25 3199327462696 1 0
-4.724497 20.851093 0.12425871 20 3199327462696 1 0
0 0 0 188 3199327465000 1 0
-2.5290523 14.379655 -2.2714767 6 3199327460392 1 0
-2.6719065 15.21784 -1.6642882 76 3199327465000 1 0
-3.5501924 20.237398 0.47810405 26 3199327467304 1 0
-1.1989647 15.761743 -1.47558 20 3199327467304 1 0
-1.5851319 20.878494 0.24376428 15 3199327469608 1 0
-2.6667302 15.214341 -1.0801092 69 3199327469608 1 0
-4.6628613 20.634766 0.61567205 22 3199327471912 1 0
0 0 0 113 3199327471912 1 0
0 0 0 181 3199327474216 1 0
-5.9984717 26.56327 -1.7452734 15 3199327474216 1 0
-1.2713938 16.843464 -0.98371226 54 3199327476520 1 0
-3.9494462 22.590506 1.3355696 20 3199327476520 1 0
-1.7824409 14.293341 0.58683616 105 3199327478824 1 0
-2.6614828 15.236524 -0.7204879 86 3199327478824 1 0
-1.7843342 14.325491 -0.7565686 218 3199327481128 1 0
-3.6238718 20.76385 2.5880175 21 3199327481128 1 0
0 0 0 146 3199327483432 1 0
-1.2635593 16.870436 -0.5907787 49 3199327485736 1 0
-7.371556 32.73237 -1.3669505 16 3199327483432 1 0
-4.0102243 23.017078 6.260315 22 3199327485736 1 0
-1.7996305 14.499876 2.6639864 5 3199327488040 1 0
-0.5001227 4.073173 -1.9136155 3 3199327508776 1 0
-2.6520324 15.234706 -0.35983425 21 3199327488040 1 0
-4.6186976 20.662867 -0.36957216 31 3199327508776 1 0
-1.7632918 14.378148 -0.42158002 19 3199327511080 1 0
-1.2335172 7.1475005 -2.0304415 6 3199327511080 1 0
-3.4215665 19.84317 0 36 3199327513384 1 0
-1.3428893 10.96332 -2.2090652 2 3199327513384 1 0
-1.5578792 21.341766 -0.24911918 9 3199327515688 1 0
-2.4660926 14.314388 -2.2597935 6 3199327515688 1 0
-1.748506 14.309256 -1.8349298 26 3199327517992 1 0
-4.5637856 20.473143 0.1219107 30 3199327517992 1 0
-1.7507943 14.345312 -0.08399378 199 3199327520296 1 0
-2.6133773 15.195719 -1.660861 75 3199327520296 1 0
-1.1571968 15.948555 -1.4926817 35 3199327522600 1 0
-3.482238 20.26543 0.47847626 21 3199327522600 1 0
-2.609555 15.199961 -1.0784351 70 3199327524904 1 0
-1.5139759 20.907837 0.24404366 5 3199327524904 1 0
-1.7445551 14.346241 -1.1797849 217 3199327527208 1 0
-4.59601 20.674335 0.61637026 15 3199327527208 1 0
-1.7359436 14.292772 0.25131464 136 3199327529512 1 0
-5.899652 26.556768 -1.7434825 8 3199327529512 1 0
-1.2188979 16.935423 -0.9888285 56 3199327531816 1 0
-3.8739362 22.623833 1.3367324 10 3199327531816 1 0
-1.7392671 14.355022 0.58911574 117 3199327534120 1 0
-2.6028907 15.214214 -0.7189989 79 3199327534120 1 0
-1.7367175 14.35146 -0.7576153 211 3199327536424 1 0
-3.5580597 20.815506 2.5928922 21 3199327536424 1 0
-1.7441677 14.430623 1.1866195 180 3199327538728 1 0
-7.245151 32.703274 -1.3646709 16 3199327538728 1 0
-1.2100713 16.950504 -0.59343106 52 3199327541032 1 0
-3.9506516 23.152813 6.2934437 5 3199327541032 1 0
-2.4193084 20.065493 3.684954 27 3199327543336 1 0
-0.4854724 4.071294 -1.911925 3 3199327564072 1 0
-4.635 21.08119 -0.37676254 59 3199327564072 1 0
-2.5934608 15.212335 -0.35908982 90 3199327543336 1 0
-1.9022272 15.972315 -0.46812487 42 3199327566376 1 0
-1.2085602 7.151763 -2.0304415 7 3199327566376 1 0
-1.3027588 10.952361 -2.2059274 2 3199327568680 1 0
-3.3596053 19.898378 0 31 3199327568680 1 0
-1.4878094 21.410915 -0.2498642 19 3199327570984 1 0
-2.4108515 14.291731 -2.2548742 9 3199327570984 1 0
-1.7700791 14.918144 -1.9122059 79 3199327573288 1 0
-4.5008593 20.528019 0.12214318 20 3199327573288 1 0
-1.7162429 14.482416 -0.08476095 115 3199327575592 1 0
-2.5550356 15.173374 -1.6574339 77 3199327575592 1 0
-1.1706553 16.953749 -1.5863694 20 3199327577896 1 0
-3.307315 19.658335 0.463867 13 3199327577896 1 0
-3.434608 49.846424 0.58168167 25 3199327580200 1 0
-2.5511897 15.177497 -1.0762029 70 3199327580200 1 0
0 0 0 22 3199327582504 1 0
-4.511005 20.631662 0.6146248 30 3199327582504 1 0
-1.7089908 14.493366 0.25473532 117 3199327584808 1 0
-3.4134269 15.622636 -1.0248556 7 3199327584808 1 0
-1.1646845 17.011286 -0.99301445 57 3199327587112 1 0
-3.7724934 22.503317 1.3288255 37 3199327587112 1 0
-1.7068893 14.511841 0.5953033 117 3199327589416 1 0
-2.5431669 15.183799 -0.7171377 82 3199327589416 1 0
0 0 0 20 3199327591720 1 0
-3.4434412 20.577192 2.5616937 19 3199327591720 1 0
-1.7091153 14.567289 1.1973596 138 3199327594024 1 0
-4.563945 20.946777 -0.8734154 6 3199327594024 1 0
0 0 0 100 3199327596328 1 0
-2.3332427 19.93702 3.6598423 25 3199327598632 1 0
-1.1554981 17.022427 -0.5958042 49 3199327596328 1 0
-2.5337613 15.18185 -0.3581593 90 3199327598632 1 0
-0.47084132 4.0693626 -1.9102346 3 3199327619368 1 0
-4.4050283 20.374063 -0.36384776 38 3199327619368 1 0
-1.8515105 16.022549 -0.46940485 60 3199327621672 1 0
-1.1848457 7.1635385 -2.0325983 7 3199327621672 1 0
-1.2640704 10.952945 -2.2051427 2 3199327623976 1 0
-3.275127 19.819216 0 24 3199327623976 1 0
-1.417539 21.483826 -0.2506558 8 3199327626280 1 0
-2.3564425 14.272761 -2.2505698 11 3199327626280 1 0
-4.3895545 20.35983 0.12105054 17 3199327628584 1 0
-1.6807554 14.619452 -0.08552812 110 3199327630888 1 0
-1.7120953 14.872987 -1.90564 61 3199327628584 1 0
0 0 0 25 3199327630888 1 0
-1.0578096 16.139055 -1.5097834 21 3199327633192 1 0
-3.303643 20.064339 0.47317228 13 3199327633192 1 0
-2.4930131 15.154811 -1.0739707 70 3199327635496 1 0
-3.268943 49.98583 0.5831717 25 3199327635496 1 0
-1.7323592 15.126475 -1.2429237 26 3199327637800 1 0
-4.4280343 20.596466 0.6131121 31 3199327637800 1 0
-5.704047 26.550476 -1.7404126 25 3199327640104 1 0
-1.110474 17.094944 -0.9976656 56 3199327642408 1 0
-3.724303 22.701553 1.3397557 23 3199327642408 1 0
-1.6742958 14.638316 0.25717866 111 3199327640104 1 0
-1.6716256 14.652722 0.60083944 110 3199327644712 1 0
-2.4843335 15.157097 -0.71546257 81 3199327644712 1 0
-3.3581188 20.50681 2.5514567 22 3199327647016 1 0
-1.8241436 16.010303 -0.844493 54 3199327647016 1 0
-4.483264 20.927408 -0.87195 16 3199327649320 1 0
0 0 0 68 3199327649320 1 0
-1.101208 17.106142 -0.59859616 49 3199327651624 1 0
-1.7875673 10.935968 2.969172 7 3199327651624 1 0
-2.2645228 19.952862 3.6612773 29 3199327653928 1 0
-2.4736614 15.14719 -0.35713574 88 3199327653928 1 0
-0.45622963 4.067379 -1.9085441 3 3199327674664 1 0
-4.3072743 20.264132 -0.36161387 34 3199327674664 1 0
-1.80302 16.096476 -0.471383 60 3199327676968 1 0
-1.1573199 7.1524296 -2.028285 6 3199327676968 1 0
-1.2278506 10.976799 -2.2090652 2 3199327679272 1 0
-3.2126582 19.87401 0 19 3199327679272 1 0
-3.286735 52.62589 -0.6138576 14 3199327681576 1 0
-2.3113363 14.312165 -2.255489 16 3199327681576 1 0
-1.6562164 14.847372 -1.9015994 74 3199327683880 1 0
-4.3477187 20.516026 0.12188745 37 3199327683880 1 0
0 0 0 38 3199327686184 1 0
-1.0051988 16.214245 -1.5164754 27 3199327688488 1 0
-3.2568672 20.225914 0.47670826 22 3199327688488 1 0
-3.1030045 50.17674 0.5852671 17 3199327690792 1 0
-2.4329884 15.124148 -1.0711805 74 3199327690792 1 0
0 0 0 123 3199327686184 1 0
-1.6760297 15.108753 -1.240971 26 3199327693096 1 0
-4.3747497 20.705936 0.6159048 13 3199327693096 1 0
-3.2892363 15.579905 -1.0205065 3 3199327695400 1 0
0 0 0 43 3199327695400 1 0
-1.054689 17.182493 -1.0025493 56 3199327697704 1 0
-3.657931 22.805367 1.3451043 27 3199327697704 1 0
-2.4232428 15.122472 -0.7134152 81 3199327700008 1 0
0 0 0 29 3199327700008 1 0
-1.7760463 16.100107 -0.84888923 54 3199327702312 1 0
0 0 0 17 3199327704616 1 0
-4.3728094 20.775175 -0.8649483 16 3199327704616 1 0
-3.284098 20.514772 2.5509691 22 3199327702312 1 0
-1.0445973 17.189793 -0.60138816 52 3199327706920 1 0
-1.7628984 11.033887 2.9940188 6 3199327706920 1 0
-2.1823707 19.867006 3.6440578 27 3199327709224 1 0
-2.4153378 15.132302 -0.35657743 85 3199327709224 1 0
-0.44170976 4.0726275 -1.9102346 3 3199327729960 1 0
-4.2060065 20.150587 -0.35931015 18 3199327729960 1 0
-1.7514477 16.17054 -0.47336116 62 3199327732264 1 0
-1.1299465 7.1490054 -2.0261285 6 3199327732264 1 0
-3.1463227 19.925116 0 22 3199327734568 1 0
-3.0935693 52.61356 -0.6135782 21 3199327736872 1 0
-1.1852392 10.95781 -2.2043583 2 3199327734568 1 0
-1.6009424 14.841461 -1.9000843 81 3199327739176 1 0
-4.208706 20.222332 0.12005089 22 3199327739176 1 0
-2.2024255 20.44537 -0.119516194 24 3199327741480 1 0
-2.3778853 15.101501 -1.6467242 75 3199327741480 1 0
-0.94693553 16.22573 -1.517219 25 3199327743784 1 0
-2.2370036 14.179941 -2.2333524 18 3199327736872 1 0
-3.1730323 20.170422 0.4751264 24 3199327743784 1 0
-2.9181447 50.12773 0.5845686 25 3199327746088 1 0
-2.375212 15.113134 -1.0697852 64 3199327746088 1 0
-1.6193951 15.09488 -1.2393436 22 3199327748392 1 0
-4.2975974 20.709837 0.6155557 22 3199327748392 1 0
-2.19492 20.487621 0.3596592 22 3199327750696 1 0
-5.500133 26.524166 -1.7360635 23 3199327750696 1 0
-0.997331 17.261915 -1.0069679 49 3199327753000 1 0
-3.600092 22.972218 1.354174 27 3199327753000 1 0
0 0 0 72 3199327755304 1 0
-2.3702464 15.138958 -0.71378744 71 3199327755304 1 0
-1.724363 16.161966 -0.85182005 60 3199327757608 1 0
-2.5942488 24.34873 1.9989624 10 3199327759912 1 0
-3.2082226 20.510702 2.549019 24 3199327757608 1 0
-4.2824163 20.71238 -0.8616917 22 3199327759912 1 0
-0.9881304 17.277218 -0.6043197 47 3199327762216 1 0
-1.7277412 11.066821 3.0012658 3 3199327762216 1 0
-2.0963242 19.729856 3.6175113 25 3199327764520 1 0
-2.3633592 15.15265 -0.35685658 81 3199327764520 1 0
-0.42749095 4.074145 -1.9102346 3 3199327785256 1 0
-1.7020745 16.244156 -0.47533932 56 3199327787560 1 0
-4.29554 20.944798 -0.37320226 27 3199327785256 1 0
-1.1049849 7.1529064 -2.0261285 6 3199327787560 1 0
-1.1453494 10.946277 -2.2012205 2 3199327789864 1 0
-2.9090116 52.608063 -0.61339194 14 3199327792168 1 0
-3.089564 20.018993 0 22 3199327789864 1 0
-2.177254 14.121257 -2.222899 39 3199327792168 1 0
-1.4210619 13.619578 -1.7430066 114 3199327794472 1 0
-2.1256557 20.401215 -0.119213976 33 3199327796776 1 0
-4.1292768 20.193792 0.119795166 12 3199327794472 1 0
-0.90621674 16.519238 -1.5443586 27 3199327799080 1 0
-2.323342 15.097918 -1.645439 92 3199327796776 1 0
-2.7355008 49.99783 0.5829389 25 3199327801384 1 0
-3.1026049 20.181374 0.4751264 34 3199327799080 1 0
-2.3309233 15.176549 -1.0736916 58 3199327801384 1 0
-4.1709666 20.458307 0.60764307 27 3199327803688 1 0
-1.5687513 15.120268 -1.240971 22 3199327803688 1 0
-2.1184459 20.447422 0.35882148 22 3199327805992 1 0
-3.1619525 15.520694 -1.0151341 15 3199327805992 1 0
-0.9413979 17.34504 -1.011619 58 3199327808296 1 0
-3.5065835 22.897806 1.3490578 30 3199327808296 1 0
-2.2051218 21.344595 0.87422955 8 3199327810600 1 0
-2.3270555 15.210335 -0.7167654 68 3199327810600 1 0
-1.6744952 16.231462 -0.85516953 54 3199327812904 1 0
-3.1492043 20.604193 2.5592563 9 3199327812904 1 0
-2.5063803 24.329878 1.9966842 25 3199327815208 1 0
-4.214068 20.746784 -0.86250585 26 3199327815208 1 0
-1.6127733 10.572428 2.8656445 2 3199327817512 1 0
-0.9325308 17.368382 -0.6073908 47 3199327817512 1 0
-2.0270393 19.733139 3.6167936 25 3199327819816 1 0
-2.3200917 15.224059 -0.35834542 80 3199327819816 1 0
-0.41399837 4.0828257 -1.9136155 3 3199327840552 1 0
-4.1837015 20.767553 -0.36978158 31 3199327840552 1 0
-1.6522088 16.317623 -0.47731748 60 3199327842856 1 0
-1.0794351 7.152911 -2.0250502 7 3199327842856 1 0
-1.108711 10.965818 -2.2043583 2 3199327845160 1 0
-3.0303993 20.100853 0 29 3199327845160 1 0
-2.1173527 14.05842 -2.2118306 29 3199327847464 1 0
-2.7230816 52.57396 -0.61287975 65 3199327847464 1 0
-1.36794 13.569184 -1.7359356 202 3199327849768 1 0
-4.031194 20.070827 0.118981495 16 3199327849768 1 0
-2.0496216 20.360752 -0.118935004 33 3199327852072 1 0
-2.2664883 15.078405 -1.6424403 90 3199327852072 1 0
-0.85059106 16.562075 -1.5480764 22 3199327854376 1 0
-3.027983 20.1644 0.474475 32 3199327854376 1 0
-2.5666869 50.11892 0.5842427 17 3199327856680 1 0
-2.2879968 15.251677 -1.0784351 58 3199327856680 1 0
-1.5167574 15.133586 -1.2416219 18 3199327858984 1 0
-4.084613 20.398252 0.6054322 26 3199327858984 1 0
-2.040686 20.39102 0.35770452 28 3199327861288 1 0
-3.3607311 16.79593 -1.0977672 7 3199327861288 1 0
-0.88509905 17.43197 -1.0165026 56 3199327863592 1 0
-3.4219081 22.878313 1.3471974 30 3199327863592 1 0
-2.079807 20.843115 0.8533874 39 3199327865896 1 0
-2.283395 15.281593 -0.71974343 71 3199327865896 1 0
-1.6261436 16.320679 -0.85956573 54 3199327868200 1 0
-3.0614371 20.509039 2.5460944 27 3199327868200 1 0
-2.4257796 24.382116 2.0002642 14 3199327870504 1 0
-4.194009 21.023972 -0.8734154 23 3199327870504 1 0
-0.8753048 17.439404 -0.609764 47 3199327872808 1 0
0 0 0 71 3199327872808 1 0
-1.9697988 19.857573 3.638318 19 3199327875112 1 0
-2.2763543 15.295351 -0.35983425 81 3199327875112 1 0
-0.39904192 4.069744 -1.9068536 3 3199327896296 1 0
-4.101605 20.714617 -0.36859483 26 3199327896296 1 0
-1.6053715 16.39863 -0.47952837 60 3199327898600 1 0
-1.0717999 10.965547 -2.203574 2 3199327900904 1 0
-1.0573436 7.167891 -2.028285 7 3199327898600 1 0
-2.9955053 20.328484 0 39 3199327900904 1 0
-2.5460296 52.550797 -0.6125072 28 3199327903208 1 0
-2.0681124 14.0497675 -2.2093709 15 3199327903208 1 0
-1.3221557 13.569736 -1.7354305 117 3199327905512 1 0
-3.9640305 20.0842 0.118981495 19 3199327905512 1 0
-1.977091 20.323715 -0.11867928 33 3199327907816 1 0
-2.210146 15.046572 -1.6381564 85 3199327907816 1 0
-0.7941781 16.548925 -1.5465893 26 3199327910120 1 0
-2.9927292 20.396027 0.47968596 26 3199327910120 1 0
-2.4546819 51.31384 0.5980723 26 3199327912424 1 0
-2.2458901 15.322463 -1.0828995 40 3199327912424 1 0
-1.4695255 15.1783 -1.2448764 21 3199327914728 1 0
-4.025793 20.46292 0.6069449 15 3199327914728 1 0
-1.9724903 20.405766 0.35784414 20 3199327917032 1 0
-3.3177745 16.877703 -1.1023722 5 3199327917032 1 0
-0.83017725 17.522621 -1.0216188 52 3199327919336 1 0
-3.3276157 22.77519 1.3404533 33 3199327919336 1 0
-2.0059428 20.818232 0.8520848 21 3199327921640 1 0
-2.241294 15.356474 -0.72290754 66 3199327921640 1 0
-1.5774738 16.39769 -0.86333394 51 3199327923944 1 0
-2.9990652 20.570412 2.5524316 22 3199327923944 1 0
-2.3426063 24.390247 2.0002642 10 3199327926248 1 0
-4.070789 20.775373 -0.86250585 22 3199327926248 1 0
-0.8201749 17.53813 -0.61311436 47 3199327928552 1 0
-1.5947633 10.961839 2.9681368 36 3199327928552 1 0
-1.9298983 20.157995 3.6921287 13 3199327930856 1 0
-2.2343032 15.37429 -0.3615092 73 3199327930856 1 0
-0.38412288 4.0711794 -1.9068536 3 3199327951592 1 0
-4.014218 20.67062 -0.3675477 18 3199327951592 1 0
-1.5511206 16.464092 -0.4812738 54 3199327953896 1 0
-1.0289763 7.156452 -2.0239718 6 3199327953896 1 0
-1.0308189 10.957656 -2.2012205 2 3199327956200 1 0
-2.8811893 20.058126 0 28 3199327956200 1 0
-2.3770087 53.03516 -0.61804837 59 3199327958504 1 0
-2.020024 14.076727 -2.2124455 15 3199327958504 1 0
-1.389553 14.8149185 -1.8940233 55 3199327960808 1 0
-3.8725517 20.000193 0.118400306 16 3199327960808 1 0
-1.9085418 20.378477 -0.11895825 30 3199327963112 1 0
-2.1521306 15.026856 -1.6351577 86 3199327963112 1 0
-0.7287788 16.412405 -1.5335771 16 3199327965416 1 0
-2.91577 20.378893 0.47903457 22 3199327965416 1 0
0 0 0 9 3199327967720 1 0
-2.202004 15.405421 -1.088201 52 3199327967720 1 0
-1.4315655 15.354109 -1.2588711 20 3199327970024 1 0
-3.9349592 20.382858 0.6041522 20 3199327970024 1 0
-1.904807 20.460396 0.35868186 16 3199327972328 1 0
-0.7719958 17.605223 -1.02627 43 3199327974632 1 0
-3.245742 22.774902 1.3397557 20 3199327974632 1 0
-2.9851456 15.474367 -1.0100175 5 3199327972328 1 0
-1.9396074 20.896767 0.8550157 15 3199327976936 1 0
-2.1964638 15.427528 -0.7258855 68 3199327976936 1 0
-1.5268608 16.474691 -0.86710215 49 3199327979240 1 0
-2.9143844 20.49035 2.5412195 22 3199327979240 1 0
-2.4793286 26.792019 2.1965153 28 3199327981544 1 0
-3.9955273 20.773699 -0.86185455 30 3199327981544 1 0
-0.7625731 17.612753 -0.6156271 47 3199327983848 1 0
-1.5975344 11.254195 3.0457826 19 3199327983848 1 0
-2.0100727 21.78678 3.9891634 13 3199327986152 1 0
-2.1897166 15.44129 -0.362905 77 3199327986152 1 0
-0.3712774 4.0796514 -1.9102346 3 3199328006888 1 0
-1.5032697 16.544813 -0.4834847 54 3199328009192 1 0
-1.0057224 7.163647 -2.0250502 7 3199328009192 1 0
-0.99360824 10.953216 -2.1996515 2 3199328011496 1 0
-2.8149219 20.071573 0 33 3199328011496 1 0
-2.1993046 53.026814 -0.6178621 66 3199328013800 1 0
-3.8976872 20.432392 -0.36307988 30 3199328006888 1 0
-1.9724772 14.079477 -2.2118306 15 3199328013800 1 0
-1.3478473 14.906425 -1.9051349 50 3199328016104 1 0
-3.7510777 19.726181 0.11670323 24 3199328016104 1 0
-1.8535188 20.53216 -0.11981841 24 3199328018408 1 0
-0.6721633 16.378946 -1.5302311 20 3199328020712 1 0
-2.098988 15.014294 -1.6330158 85 3199328018408 1 0
-2.8146536 20.154905 0.47354448 17 3199328020712 1 0
-2.1687813 53.03608 0.61795527 27 3199328023016 1 0
-2.1594932 15.479932 -1.0929444 59 3199328023016 1 0
-1.3815316 15.378705 -1.2604984 22 3199328025320 1 0
-1.8913405 21.088129 0.36957216 34 3199328027624 1 0
-3.8549893 20.337095 0.6024068 13 3199328025320 1 0
-3.9096582 20.641909 -1.3464341 67 3199328027624 1 0
-0.71555835 17.687538 -1.0309211 45 3199328029928 1 0
-3.2647927 23.477926 1.3804529 17 3199328029928 1 0
-1.8839304 21.07441 0.8620174 19 3199328032232 1 0
-2.1440575 15.434899 -0.7258855 76 3199328032232 1 0
-1.477529 16.555387 -0.8710797 51 3199328034536 1 0
-2.830989 20.401838 2.5290327 24 3199328034536 1 0
-2.3882897 26.80429 2.1968408 12 3199328036840 1 0
-3.8067567 20.162764 -0.83596474 22 3199328036840 1 0
-0.7063512 17.715117 -0.6191171 45 3199328039144 1 0
-1.6094025 11.623173 3.1441338 30 3199328039144 1 0
-2.1466763 15.520001 -0.36457995 73 3199328041448 1 0
-0.35640255 4.0737 -1.9068536 3 3199328062184 1 0
-3.847676 20.559875 -0.36510435 20 3199328062184 1 0
-1.9263861 21.691626 3.970509 7 3199328041448 1 0
-1.4515435 16.617662 -0.48546284 54 3199328064488 1 0
-0.98076266 7.1671066 -2.0250502 7 3199328064488 1 0
-0.95552766 10.956603 -2.1996515 2 3199328066792 1 0
-2.7462175 20.089163 0 15 3199328066792 1 0
-2.0150461 53.02613 -0.617769 36 3199328069096 1 0
-1.9220216 14.074487 -2.2099857 14 3199328069096 1 0
-1.3010509 14.966345 -1.9122059 52 3199328071400 1 0
-3.6776364 19.711523 0.11654049 32 3199328071400 1 0
-1.8642076 21.478888 -0.12530486 12 3199328073704 1 0
-2.0433528 14.993871 -1.630017 90 3199328073704 1 0
-0.6195901 16.484642 -1.5398973 17 3199328076008 1 0
-2.7802255 20.42204 0.4795929 17 3199328076008 1 0
-1.985739 53.027237 0.617769 27 3199328078312 1 0
-2.1142993 15.5465765 -1.0971298 56 3199328078312 1 0
-1.4021549 16.233355 -1.3301464 17 3199328080616 1 0
-3.7727306 20.283382 0.60042864 20 3199328080616 1 0
-1.8232217 21.1423 0.37040988 21 3199328082920 1 0
-2.8688052 15.435458 -1.00618 11 3199328082920 1 0
-0.65879387 17.789642 -1.036735 50 3199328085224 1 0
-1.8137534 21.100622 0.86283153 8 3199328087528 1 0
-1.9565318 14.431299 0.848132 3 3199328085224 1 0
-1.9734253 14.571028 -0.68493813 113 3199328087528 1 0
-1.4269824 16.62798 -0.8746385 49 3199328089832 1 0
-1.958839 14.478371 1.7939167 3 3199328089832 1 0
-3.7287939 20.124489 -0.83384794 33 3199328092136 1 0
-0.64922804 17.797306 -0.621909 45 3199328094440 1 0
-1.6185983 11.988482 3.2414498 22 3199328094440 1 0
-2.296905 26.808273 2.1965153 12 3199328092136 1 0
-2.1005962 15.574728 -0.36569655 48 3199328096744 1 0
-1.7629505 20.643305 3.7775083 23 3199328096744 1 0
-0.3434997 4.082084 -1.9102346 3 3199328117480 1 0
-1.4030021 16.70208 -0.48779008 46 3199328119784 1 0
-3.7895932 20.627592 -0.36608168 24 3199328117480 1 0
-0.955919 7.1626906 -2.0228934 6 3199328119784 1 0
-0.9196851 10.967543 -2.2012205 2 3199328122088 1 0
-1.9160453 14.3728485 0 21 3199328122088 1 0
-1.837483 53.01657 -0.61758274 36 3199328124392 1 0
-1.873466 14.06907 -2.208141 16 3199328124392 1 0
-1.257256 15.045743 -1.9218024 57 3199328126696 1 0
-3.6123972 19.72765 0.11656374 24 3199328126696 1 0
-1.8098123 21.69628 -0.12653698 25 3199328129000 1 0
-1.9055994 14.342264 -1.5584762 20 3199328129000 1 0
-0.56924224 16.633905 -1.553653 17 3199328131304 1 0
-1.9082192 14.377999 0.33750165 18 3199328131304 1 0
-1.8108616 53.141552 0.61902624 27 3199328133608 1 0
-1.8988531 14.3234005 -1.0103527 38 3199328133608 1 0
-1.2985792 15.649977 -1.2819786 22 3199328135912 1 0
-3.6899092 20.21733 0.5981014 26 3199328135912 1 0
-1.7325691 20.917171 0.3663609 34 3199328138216 1 0
-2.7836502 15.264427 -0.9944118 40 3199328138216 1 0
-0.60105467 17.867601 -1.0411536 46 3199328140520 1 0
0 0 0 63 3199328140520 1 0
-1.7470142 21.166407 0.86527395 27 3199328142824 1 0
-1.8951746 14.359774 -0.6747013 90 3199328142824 1 0
-1.3766147 16.708378 -0.87861603 49 3199328145128 1 0
-1.9022876 14.429848 1.7870921 19 3199328145128 1 0
-3.7130246 20.428076 -0.8458973 37 3199328147432 1 0
-0.59090376 17.875334 -0.62456137 42 3199328149736 1 0
-1.6274961 12.373185 3.3439422 19 3199328149736 1 0
-4.3736625 53.178947 4.3559284 42 3199328147432 1 0
-1.6883758 20.602158 3.7688985 23 3199328152040 1 0
-1.8852293 14.348765 -0.3367572 17 3199328152040 1 0
-0.32837436 4.0724177 -1.9051632 3 3199328172776 1 0
-3.6573083 20.30613 -0.36014786 20 3199328172776 1 0
-1.3517495 16.794554 -0.49035004 57 3199328175080 1 0
-0.931407 7.1698036 -2.0239718 6 3199328175080 1 0
-0.88076746 10.962867 -2.1996515 2 3199328177384 1 0
-1.8638041 14.363582 0 31 3199328177384 1 0
-1.6517864 53.002674 -0.6173499 29 3199328179688 1 0
-1.8223122 14.059845 -2.2056816 16 3199328179688 1 0
-1.2094783 15.10937 -1.9293785 55 3199328181992 1 0
-3.5512867 19.783445 0.11681946 21 3199328181992 1 0
-1.8468531 14.281778 -1.5511936 21 3199328184296 1 0
-1.713359 21.443295 -0.12502588 14 3199328184296 1 0
-0.50909615 16.568117 -1.5473329 13 3199328186600 1 0
-1.8585312 14.388538 0.3375947 28 3199328186600 1 0
-1.6262078 53.175533 0.61935216 18 3199328188904 1 0
0 0 0 249 3199328188904 1 0
-1.2445743 15.662362 -1.2826296 20 3199328191208 1 0
-3.6432562 20.363905 0.6020577 11 3199328191208 1 0
-1.6633387 20.970934 0.36719865 6 3199328193512 1 0
-2.7205164 15.219038 -0.9908302 60 3199328193512 1 0
-0.5397643 17.905514 -1.0432466 26 3199328195816 1 0
-1.8510952 14.39689 0.8453414 63 3199328195816 1 0
-1.6759526 21.208235 0.8667394 8 3199328198120 1 0
0 0 0 203 3199328198120 1 0
-1.8478652 14.404897 1.7831923 25 3199328200424 1 0
-4.186755 53.17799 4.3546267 42 3199328202728 1 0
-3.6409936 20.436977 -0.8457345 26 3199328202728 1 0
-0.53133863 17.973188 -0.62791175 45 3199328205032 1 0
-1.324251 16.788742 -0.8825936 51 3199328200424 1 0
-1.6066035 20.482388 3.7459393 29 3199328207336 1 0
-1.8315818 14.327493 -0.33610585 32 3199328207336 1 0
-1.6357976 12.781198 3.452646 22 3199328205032 1 0
-0.31443572 4.0771537 -1.9068536 3 3199328228072 1 0
-3.5467794 20.094276 -0.35616872 37 3199328228072 1 0
-1.2975976 16.858978 -0.49209547 57 3199328230376 1 0
-0.9029419 7.146267 -2.0164237 6 3199328230376 1 0
-0.84203464 10.961975 -2.198867 2 3199328232680 1 0
-1.8134456 14.370027 0 37 3199328232680 1 0
-1.4649428 52.98416 -0.61707056 21 3199328234984 1 0
-1.7729163 14.066159 -2.2056816 18 3199328234984 1 0
-1.1614355 15.180793 -1.9379647 48 3199328237288 1 0
-3.4857893 19.81946 0.11695895 22 3199328237288 1 0
-1.6459396 21.55689 -0.12565358 10 3199328239592 1 0
-1.7944852 14.27242 -1.5494801 42 3199328239592 1 0
-0.45573252 16.76091 -1.5651782 26 3199328241896 1 0
-1.8051752 14.375178 0.3371294 25 3199328241896 1 0
-1.4341979 53.04502 0.617769 54 3199328244200 1 0
-1.7906331 14.277011 -1.0061674 229 3199328244200 1 0
-1.1989394 15.797866 -1.2933697 21 3199328246504 1 0
-3.5640635 20.337322 0.6008941 26 3199328246504 1 0
-3.8193512 50.427868 0.8827427 29 3199328248808 1 0
-2.6594942 15.189296 -0.9882719 60 3199328248808 1 0
-0.45823845 17.240688 -1.0044097 26 3199328251112 1 0
-1.7933452 14.351883 0.8423181 100 3199328251112 1 0
-4.009706 53.15676 2.171815 33 3199328253416 1 0
-1.7887812 14.333149 -0.67284006 173 3199328253416 1 0
-1.2692714 16.861088 -0.8861524 49 3199328255720 1 0
-1.7968049 14.415356 1.7836797 22 3199328255720 1 0
-4.004139 53.3 4.363414 42 3199328258024 1 0
-2.652764 15.205528 -0.62884605 35 3199328258024 1 0
-0.46905023 18.062897 -0.6309829 47 3199328260328 1 0
-1.6461244 13.239425 3.5748086 17 3199328260328 1 0
-1.7814732 14.345899 -0.336385 26 3199328262632 1 0
-1.5278709 20.421328 3.7337422 20 3199328262632 1 0
-0.2997556 4.0818944 -1.9085441 3 3199328283368 1 0
-3.553433 20.572184 -0.36440626 28 3199328283368 1 0
-1.2413039 16.935379 -0.49418998 57 3199328285672 1 0
-0.87919194 7.168632 -2.0218153 7 3199328285672 1 0
-0.80274266 10.972789 -2.200436 2 3199328287976 1 0
0 0 0 190 3199328287976 1 0
-1.2731445 52.99312 -0.6171171 21 3199328290280 1 0
-1.1121507 15.260076 -1.947561 48 3199328292584 1 0
-1.7219633 14.072488 -2.2056816 18 3199328290280 1 0
-3.4061341 19.784601 0.11667998 26 3199328292584 1 0
-1.7451283 14.294565 -1.5511936 27 3199328294888 1 0
-3.8766723 53.29429 -0.3105654 29 3199328294888 1 0
-0.39341033 16.662895 -1.5558836 17 3199328297192 1 0
0 0 0 117 3199328297192 1 0
-1.2434802 52.977818 0.61693084 18 3199328299496 1 0
-1.7445719 14.32291 -1.0089576 168 3199328299496 1 0
-1.1500576 15.90143 -1.3015062 23 3199328301800 1 0
-3.4587338 20.156748 0.5951923 22 3199328301800 1 0
-3.6367817 50.381214 0.88169557 19 3199328304104 1 0
-2.601747 15.174994 -0.9867369 60 3199328304104 1 0
-0.41881582 18.164387 -1.0581301 54 3199328306408 1 0
0 0 0 121 3199328306408 1 0
-3.8219233 53.15056 2.1710007 50 3199328308712 1 0
-1.736606 14.323464 -0.67209554 227 3199328308712 1 0
-1.7512481 14.460954 1.7885544 9 3199328311016 1 0
-1.2166983 16.95307 -0.890758 52 3199328311016 1 0
-3.8233955 53.37722 4.3686213 42 3199328313320 1 0
-2.5945065 15.183142 -0.62754345 72 3199328313320 1 0
-0.40859014 18.156334 -0.63419366 47 3199328315624 1 0
-1.6508012 13.663146 3.6876538 11 3199328315624 1 0
-1.4552286 20.395073 3.7280025 22 3199328317928 1 0
-0.28545734 4.0720167 -1.9034727 3 3199328338664 1 0
-2.5952008 15.327478 -0.27135003 5 3199328338664 1 0
-1.1908737 17.02317 -0.4966336 55 3199328340968 1 0
-0.8558191 7.175339 -2.0228934 7 3199328340968 1 0
-1.7353659 14.379745 -0.33703637 17 3199328317928 1 0
-1.717548 14.418059 0 132 3199328343272 1 0
-0.7642795 10.948011 -2.1949446 2 3199328343272 1 0
-0.3796715 18.35483 -0.21373029 4 3199328345576 1 0
-1.0660496 15.334962 -1.9566524 49 3199328347880 1 0
-1.6731129 14.062458 -2.2032218 15 3199328345576 1 0
-3.3332767 19.756441 0.1164475 26 3199328347880 1 0
-1.7660965 14.880878 -1.6141667 43 3199328350184 1 0
-3.696875 53.291023 -0.31047243 19 3199328350184 1 0
-0.34048873 16.815434 -1.5700113 16 3199328352488 1 0
-1.7058728 14.391327 0.3372225 175 3199328352488 1 0
-0.51908237 25.821033 0.3006659 20 3199328354792 1 0
-1.7000895 14.360404 -1.0111898 113 3199328354792 1 0
-1.0944757 15.877378 -1.299228 25 3199328357096 1 0
-3.4521215 50.185745 0.87806547 19 3199328359400 1 0
-3.4099233 20.28265 0.59856683 27 3199328357096 1 0
-2.545788 15.156149 -0.98494613 63 3199328359400 1 0
-0.35874903 18.241558 -1.0625488 30 3199328361704 1 0
-3.638938 53.127346 2.1695352 50 3199328364008 1 0
-1.6954311 14.392771 -0.67507356 117 3199328364008 1 0
-1.1641686 17.032833 -0.8947355 52 3199328366312 1 0
-1.7067809 14.471005 0.84859717 124 3199328361704 1 0
-2.4410026 20.748013 2.565106 26 3199328366312 1 0
-2.5361092 15.152484 -0.62591517 71 3199328368616 1 0
-3.630471 53.23085 4.3556027 42 3199328368616 1 0
-0.34820879 18.245554 -0.6372648 47 3199328370920 1 0
-2.5763643 21.953588 5.922815 15 3199328370920 1 0
-1.3834964 20.372454 3.72298 24 3199328373224 1 0
-1.8695158 15.950466 -0.3736991 67 3199328373224 1 0
-0.2717234 4.080223 -1.9068536 3 3199328393960 1 0
-2.5403743 15.328553 -0.2712104 15 3199328393960 1 0
-1.1362163 17.099035 -0.49872813 51 3199328396264 1 0
-0.82722455 7.1476717 -2.0142672 6 3199328396264 1 0
-0.7263186 10.954527 -2.1957293 3 3199328398568 1 0
-1.6874177 14.598803 0 115 3199328398568 1 0
-0.31614894 18.388037 -0.2141028 19 3199328400872 1 0
-1.6235622 14.064286 -2.202607 15 3199328400872 1 0
-1.0164346 15.397981 -1.9642285 49 3199328403176 1 0
-3.2649453 19.771904 0.11647075 27 3199328403176 1 0
-1.422472 21.59684 -0.12579305 19 3199328405480 1 0
-1.7145967 14.890903 -1.614595 63 3199328405480 1 0
-0.28319114 16.900145 -1.5778185 17 3199328407784 1 0
-1.6775562 14.587885 0.341689 117 3199328407784 1 0
-0.4285484 25.798693 0.30038652 17 3199328410088 1 0
0 0 0 28 3199328410088 1 0
-1.0473757 16.008406 -1.3096426 24 3199328412392 1 0
-3.340401 20.30232 0.5987995 20 3199328412392 1 0
-3.295938 50.488827 0.8831616 29 3199328414696 1 0
-2.4857452 15.121614 -0.98213196 63 3199328414696 1 0
-1.6739591 14.631602 0.85766685 114 3199328417000 1 0
-3.4526892 53.127758 2.1690466 50 3199328419304 1 0
-1.8307 16.022264 -0.7511985 61 3199328419304 1 0
-1.1093583 17.108543 -0.8985037 54 3199328421608 1 0
-0.28506184 17.623829 -1.0265026 24 3199328417000 1 0
-3.4420645 53.203415 4.3523483 63 3199328423912 1 0
-2.477388 15.125747 -0.6244497 74 3199328423912 1 0
-0.28607595 18.346586 -0.64075476 47 3199328426216 1 0
-2.3487582 20.582846 2.5436568 22 3199328421608 1 0
-1.3131336 20.38894 3.7251325 20 3199328428520 1 0
-1.8219565 16.028414 -0.37537402 81 3199328428520 1 0
-0.2574791 4.0811467 -1.9068536 4 3199328449256 1 0
-2.4759703 15.270214 -0.27002364 15 3199328449256 1 0
-2.5062704 22.020033 5.938344 10 3199328426216 1 0
-0.80269897 7.1543436 -2.0153453 6 3199328451560 1 0
-1.0822996 17.194677 -0.50140446 53 3199328451560 1 0
-0.6873383 10.945251 -2.1933758 2 3199328453864 1 0
0 0 0 50 3199328453864 1 0
-0.25256357 18.43302 -0.214615 17 3199328456168 1 0
-1.5735798 14.062012 -2.2013772 17 3199328456168 1 0
-0.96763015 15.480639 -1.97433 55 3199328458472 1 0
-3.2297175 19.992462 0.11770288 19 3199328458472 1 0
-3.3110542 53.095963 -0.30919382 49 3199328460776 1 0
-1.6577549 14.853321 -1.6098828 72 3199328460776 1 0
-0.22879283 17.247492 -1.6101631 21 3199328463080 1 0
0 0 0 8 3199328463080 1 0
-0.3185 24.276266 0.2826455 15 3199328465384 1 0
-1.0057805 16.242754 -1.3285191 17 3199328467688 1 0
-3.2841253 20.40465 0.6014759 15 3199328467688 1 0
-3.1869996 51.58978 0.9022196 31 3199328469992 1 0
-1.6885246 15.169042 -1.0672741 18 3199328465384 1 0
-2.4285097 15.102611 -0.98034114 58 3199328469992 1 0
-0.22146505 17.461008 -1.0169678 31 3199328472296 1 0
0 0 0 6 3199328472296 1 0
-3.2662365 53.12353 2.1683955 49 3199328474600 1 0
-1.7809169 16.084158 -0.7538042 61 3199328474600 1 0
-1.5826567 14.312622 1.7680805 22 3199328476904 1 0
-1.0550119 17.200026 -0.90310925 52 3199328476904 1 0
-3.2555985 53.203167 4.3513722 63 3199328479208 1 0
-2.4207807 15.110624 -0.6234727 70 3199328479208 1 0
-0.22304851 18.431416 -0.6436863 45 3199328481512 1 0
-2.4569206 22.278275 6.005637 18 3199328481512 1 0
-1.247935 20.491596 3.7430694 20 3199328483816 1 0
-1.7721248 16.090324 -0.37667677 77 3199328483816 1 0
-2.4145098 15.227413 -0.2691161 17 3199328504552 1 0
-0.24323167 4.0820208 -1.9068536 3 3199328504552 1 0
-1.0265427 17.270193 -0.503499 51 3199328506856 1 0
-0.77730465 7.1532726 -2.0142672 7 3199328506856 1 0
-0.649128 10.947584 -2.1933758 2 3199328509160 1 0
-2.21291 20.392282 0 26 3199328509160 1 0
-0.18903552 18.51378 -0.2155463 23 3199328511464 1 0
-0.91755986 15.551262 -1.9829162 53 3199328513768 1 0
-3.1879966 20.181408 0.11874902 22 3199328513768 1 0
-1.5215037 14.039913 -2.1970727 11 3199328511464 1 0
-3.1242845 53.08324 -0.30905432 69 3199328516072 1 0
-1.6037604 14.839248 -1.6077409 73 3199328516072 1 0
-0.16870323 17.260134 -1.6112784 21 3199328518376 1 0
-2.2171853 20.543104 0.4808026 24 3199328518376 1 0
-0.2470827 25.661072 0.29875675 25 3199328520680 1 0
-1.6342816 15.162941 -1.066437 18 3199328520680 1 0
-0.97674435 16.71978 -1.3672487 16 3199328522984 1 0
-3.1842878 20.234303 0.5961232 22 3199328522984 1 0
-2.9647868 50.877926 0.88958406 30 3199328525288 1 0
-2.3825967 15.154373 -0.9831553 53 3199328525288 1 0
0 0 0 72 3199328527592 1 0
-2.3244145 21.654705 1.2683609 15 3199328527592 1 0
-3.0796242 53.11466 2.1675813 49 3199328529896 1 0
-0.99888694 17.271397 -0.9066681 49 3199328532200 1 0
-1.7324275 16.161789 -0.75715446 66 3199328529896 1 0
-1.5576187 14.55097 1.7968416 100 3199328532200 1 0
-3.0705538 53.226147 4.3523483 63 3199328534504 1 0
-2.3754413 15.166365 -0.62542665 66 3199328534504 1 0
-0.15967326 18.544008 -0.64759505 45 3199328536808 1 0
-2.4053879 22.532595 6.0718946 18 3199328536808 1 0
-1.1795553 20.550829 3.753114 18 3199328539112 1 0
-1.7240024 16.171965 -0.37844476 77 3199328539112 1 0
-0.22898129 4.0828447 -1.9068536 3 3199328559296 1 0
-2.3699172 15.2910795 -0.27009344 28 3199328559296 1 0
-0.9714175 17.361483 -0.50605893 48 3199328561600 1 0
-0.7524344 7.1559315 -2.0142672 6 3199328561600 1 0
-0.611447 10.953681 -2.1941602 2 3199328563904 1 0
-2.1389656 20.367994 0 35 3199328563904 1 0
-0.12592037 18.618313 -0.21675697 28 3199328566208 1 0
-1.4211508 13.549782 -2.119594 17 3199328566208 1 0
-3.1138213 20.160606 0.11856304 29 3199328568512 1 0
-0.86901766 15.64148 -1.9940277 24 3199328568512 1 0
-2.9508007 53.237385 -0.30989122 29 3199328570816 1 0
-1.549721 14.812999 -1.6043137 83 3199328570816 1 0
-0.110492155 17.344242 -1.6190857 17 3199328573120 1 0
-2.1451786 20.530645 0.48033732 29 3199328573120 1 0
-1.5849582 15.188236 -1.0678321 18 3199328575424 1 0
-0.16024476 25.681759 0.2989896 17 3199328575424 1 0
-3.1226838 20.288403 0.5974032 23 3199328577728 1 0
-2.7918596 50.85166 0.8889558 30 3199328580032 1 0
-0.96128774 17.467373 -1.4281093 55 3199328577728 1 0
-2.3431962 15.237256 -0.98801607 52 3199328580032 1 0
-0.10936072 18.703989 -1.0892926 100 3199328582336 1 0
-2.2507234 21.650444 1.2676632 15 3199328582336 1 0
-2.9009557 53.092697 2.1662786 49 3199328584640 1 0
-0.9461731 17.358376 -0.9110643 52 3199328586944 1 0
0 0 0 12 3199328586944 1 0
-1.6856031 16.235031 -0.7603186 66 3199328584640 1 0
-2.335042 15.237333 -0.6280319 64 3199328589248 1 0
-0.099164546 18.628382 -0.65052664 45 3199328591552 1 0
-2.298715 22.225237 5.9870024 22 3199328591552 1 0
-2.904548 53.415134 4.366994 42 3199328589248 1 0
-1.2118101 22.393528 4.0888925 16 3199328593856 1 0
-0.21615353 4.083544 -1.9068536 3 3199328614592 1 0
-1.6784666 16.249119 -0.3801197 74 3199328593856 1 0
-2.3236675 15.310312 -0.27030286 33 3199328614592 1 0
-0.9203684 17.440338 -0.5082698 51 3199328616896 1 0
-0.72896016 7.150617 -2.0121105 6 3199328616896 1 0
-0.57660073 10.959498 -2.1949446 3 3199328619200 1 0
-2.0713515 20.350859 0 29 3199328619200 1 0
-0.066143185 18.714615 -0.21787451 31 3199328621504 1 0
-1.374596 13.526774 -2.1152897 19 3199328621504 1 0
-3.03856 20.107365 0.11819108 30 3199328623808 1 0
-0.82157654 15.711593 -2.002614 35 3199328623808 1 0
-2.777874 53.286743 -0.3101237 29 3199328626112 1 0
-1.498617 14.794272 -1.6017435 84 3199328626112 1 0
-0.05329224 17.448063 -1.6287519 23 3199328628416 1 0
-2.0863395 20.629154 0.48247752 22 3199328628416 1 0
-1.5301328 15.153752 -1.0650419 18 3199328630720 1 0
-0.849493 16.44729 -1.3444666 24 3199328633024 1 0
-0.07383524 25.510164 0.29698732 22 3199328630720 1 0
-3.087521 20.520237 0.6039195 20 3199328633024 1 0
-2.7473083 53.35718 0.9325868 33 3199328635328 1 0
-2.3002238 15.304355 -0.99185354 45 3199328635328 1 0
-0.043520123 18.025406 -1.0497582 18 3199328637632 1 0
-2.4267347 24.149252 1.4134759 21 3199328637632 1 0
-2.716542 53.090446 2.16579 49 3199328639936 1 0
-1.6369731 16.316307 -0.7638549 63 3199328639936 1 0
-0.88964504 17.441359 -0.9152512 49 3199328642240 1 0
-2.0231974 20.198479 2.4924717 25 3199328642240 1 0
-1.2693841 24.964594 2.040621 11 3199328644544 1 0
-2.2902684 15.304749 -0.6304744 55 3199328644544 1 0
-0.033246506 18.73655 -0.65429574 45 3199328646848 1 0
-2.22213 22.25632 5.9932137 25 3199328646848 1 0
-1.1344602 22.452742 4.098937 22 3199328649152 1 0
-1.6270608 16.322666 -0.38170162 78 3199328649152 1 0
-0.20029458 4.080723 -1.9051632 3 3199328669888 1 0
-2.273637 15.378467 -0.27135003 30 3199328669888 1 0
-0.8578129 17.523588 -0.51059705 51 3199328672192 1 0
-0.7017065 7.1533427 -2.0121105 7 3199328672192 1 0
-0.5349616 10.957684 -2.1941602 2 3199328674496 1 0
-1.998669 20.402336 0 24 3199328674496 1 0
0.0041012457 18.798725 -0.21885237 28 3199328676800 1 0
-1.3230581 13.523971 -2.11406 54 3199328676800 1 0
-0.7201542 14.830724 -1.8899828 22 3199328679104 1 0
-2.960174 20.094795 0.11805159 29 3199328679104 1 0
-2.5713255 53.096878 -0.30896133 98 3199328681408 1 0
-1.442408 14.783875 -1.60003 79 3199328681408 1 0
0.0106998235 17.515846 -1.635072 17 3199328683712 1 0
-2.019635 20.728205 0.48461774 19 3199328683712 1 0
0.018863285 25.43027 0.29605603 27 3199328686016 1 0
-1.4781138 15.190988 -1.0672741 15 3199328686016 1 0
-2.9786465 20.293884 0.5969378 11 3199328688320 1 0
-0.79073584 16.462194 -1.3454429 16 3199328688320 1 0
0 0 0 10 3199328690624 1 0
-2.2558765 15.383578 -0.9964585 49 3199328690624 1 0
0.020367686 17.953568 -1.0455722 22 3199328692928 1 0
-2.3417883 24.16566 1.413941 25 3199328692928 1 0
-2.5279489 53.063747 2.1643248 33 3199328695232 1 0
-1.5864615 16.393557 -0.7672052 61 3199328695232 1 0
-0.83292824 17.532139 -0.9198568 47 3199328697536 1 0
-1.9557344 20.237032 2.4963717 29 3199328697536 1 0
0 0 0 59 3199328699840 1 0
-2.2470992 15.379814 -0.6332424 57 3199328699840 1 0
0.031205604 18.820501 -0.65722734 45 3199328702144 1 0
-2.1483173 22.29074 6.0004606 13 3199328702144 1 0
-1.0437781 22.153803 4.0436916 13 3199328704448 1 0
-1.5791612 16.40772 -0.38356265 75 3199328704448 1 0
-0.18714094 4.074089 -1.9017822 3 3199328725184 1 0
-2.236763 15.464698 -0.2727462 23 3199328725184 1 0
-0.807074 17.626062 -0.5135061 49 3199328727488 1 0
-0.67912614 7.155522 -2.0121105 6 3199328727488 1 0
-0.49985796 10.951488 -2.1925914 2 3199328729792 1 0
-1.9294415 20.360785 0 29 3199328729792 1 0
0.06434685 18.906609 -0.2201096 38 3199328732096 1 0
-1.2814637 13.543856 -2.1165195 16 3199328732096 1 0
-0.67341477 14.848807 -1.892003 11 3199328734400 1 0
-2.397391 53.032944 -0.30854288 49 3199328736704 1 0
-2.9021335 20.147713 0.118307315 29 3199328734400 1 0
-1.3915194 14.7528 -1.5961744 77 3199328736704 1 0
0.06696532 17.44005 -1.6280082 13 3199328739008 1 0
-1.9661942 20.877943 0.48796764 22 3199328739008 1 0
0.10104082 25.35408 0.2951713 24 3199328741312 1 0
-1.4374272 15.287075 -1.0736916 21 3199328741312 1 0
-0.7383469 16.492561 -1.3477211 19 3199328743616 1 0
-2.9409015 20.50137 0.60275584 11 3199328743616 1 0
-2.3678215 53.063107 0.92714167 55 3199328745920 1 0
-2.215148 15.458054 -1.0008075 51 3199328745920 1 0
0.079346195 17.945417 -1.045107 18 3199328748224 1 0
-2.2675517 24.228891 1.4171968 10 3199328748224 1 0
-1.0776021 24.307941 0.9913037 47 3199328750528 1 0
-1.5382763 16.462358 -0.77018315 57 3199328750528 1 0
-0.77848786 17.618607 -0.924253 47 3199328752832 1 0
-1.8882464 20.239454 2.4958842 23 3199328752832 1 0
-1.0897926 24.745615 2.02207 10 3199328755136 1 0
-2.2071543 15.466345 -0.63649905 60 3199328755136 1 0
0.094683945 18.924229 -0.66085684 42 3199328757440 1 0
-2.0172076 21.689959 5.836887 19 3199328757440 1 0
0 0 0 18 3199328759744 1 0
-1.5295724 16.47266 -0.38495845 70 3199328759744 1 0
-0.1735334 4.0892057 -1.9085441 3 3199328780480 1 0
-2.1894717 15.519934 -0.27358392 31 3199328780480 1 0
-0.7482457 17.692688 -0.5153679 49 3199328782784 1 0
-0.65344346 7.150177 -2.009954 6 3199328782784 1 0
-0.4616271 10.953166 -2.1925914 2 3199328785088 1 0
-1.8594477 20.379347 0 26 3199328785088 1 0
0.13100462 19.00226 -0.22122714 34 3199328787392 1 0
-1.2370476 13.579736 -2.1214387 10 3199328787392 1 0
-0.61826 14.771778 -1.8819016 5 3199328789696 1 0
-2.8418033 20.22902 0.11872577 21 3199328789696 1 0
-2.2119236 53.032997 -0.3084964 69 3199328792000 1 0
0.12763768 17.411833 -1.6254059 6 3199328794304 1 0
-1.3378563 14.733804 -1.5936041 64 3199328792000 1 0
-1.8828343 20.769186 0.4852691 21 3199328794304 1 0
0.18873513 25.245584 0.29391408 24 3199328796608 1 0
-1.3988036 15.454933 -1.0851318 21 3199328796608 1 0
-0.6886637 16.68624 -1.3633431 22 3199328798912 1 0
-2.181596 53.047073 0.92672276 77 3199328801216 1 0
-2.850487 20.376879 0.5987995 35 3199328798912 1 0
-2.170015 15.528946 -1.0049008 49 3199328801216 1 0
0.14182894 17.925066 -1.0439442 30 3199328803520 1 0
-2.190844 24.324156 1.422313 25 3199328803520 1 0
-0.97774297 23.944166 0.9763234 16 3199328805824 1 0
-1.4879596 16.54722 -0.77390563 57 3199328805824 1 0
-0.72039306 17.705032 -0.9286492 49 3199328808128 1 0
-1.8427908 20.526676 2.530495 18 3199328808128 1 0
-0.9966246 24.581963 2.0084007 32 3199328810432 1 0
-2.1619663 15.5372925 -0.6391043 60 3199328810432 1 0
0.16162407 19.027716 -0.6644864 47 3199328812736 1 0
-1.941139 21.69302 5.8358517 7 3199328812736 1 0
-0.85052603 21.130264 3.8557131 26 3199328815040 1 0
-1.4784676 16.549593 -0.3866334 72 3199328815040 1 0
-0.15925835 4.0897865 -1.9085441 3 3199328835776 1 0
-2.1396425 15.559178 -0.2741424 22 3199328835776 1 0
-0.6903571 17.795074 -0.51827693 49 3199328838080 1 0
-0.62881786 7.1562514 -2.011032 6 3199328838080 1 0
-0.41899765 10.841048 -2.1698418 2 3199328840384 1 0
-1.9288183 21.98756 0 24 3199328840384 1 0
0 0 0 4 3199328842688 1 0
-0.5707996 14.880902 -1.8955386 1 3199328844992 1 0
0.19845554 19.109674 -0.22248438 34 3199328842688 1 0
