# .PCD v.7 - Point Cloud Data file format
VERSION .7
FIELDS x y z rgb timestamp_ns device_id active
SIZE 4 4 4 4 8 1 1
TYPE F F F F F U U
COUNT 1 1 1 1 1 1 1
WIDTH 985
HEIGHT 1
VIEWPOINT 0 0 0 1 0 0 0
POINTS 985               
DATA ascii
0 0 0 29 3207018001744 1 0
-27.893929 29.331207 -0.941878 18 3207018001744 1 0
-2.6967852 3.136409 -1.9288298 3 3207018022480 1 0
-27.828245 26.602543 -0.6719875 68 3207018022480 1 0
-27.118526 31.549072 -1.2107481 17 3207018024784 1 0
-5.059939 5.335559 -2.0584774 5 3207018024784 1 0
-7.4772134 8.701507 -2.2945724 3 3207018027088 1 0
-27.795456 29.318468 0 17 3207018027088 1 0
-26.864813 34.55445 -0.5095535 25 3207018029392 1 0
-11.079414 11.69007 -2.5057573 2 3207018029392 1 0
-13.719406 15.975644 -2.6804218 12 3207018031696 1 0
-27.671272 26.484854 0.22261955 11 3207018031696 1 0
-27.078999 31.542046 -0.24161288 42 3207018034000 1 0
-16.570606 17.494616 -2.5956042 7 3207018034000 1 0
0 0 0 28 3207018036304 1 0
-27.838762 29.400097 0.94215715 6 3207018036304 1 0
-26.851059 34.580334 0.5096932 6 3207018038608 1 0
-17.169123 18.1376 -1.7464231 2 3207018038608 1 0
-16.201252 18.888977 -2.0315082 6 3207018040912 1 0
-27.108128 31.61503 0.72692764 38 3207018043216 1 0
-30.807768 29.522951 1.2418168 29 3207018040912 1 0
-19.01904 18.231436 -1.6884791 5 3207018043216 1 0
-16.002533 20.628483 -1.5204517 3 3207018045520 1 0
-27.800463 29.395596 2.3562582 29 3207018045520 1 0
-18.347958 19.40666 -1.2440561 3 3207018047824 1 0
-16.590326 19.366524 -1.3364509 3 3207018050128 1 0
-28.455854 33.207344 1.7816763 9 3207018047824 1 0
-27.824694 29.439222 4.9737315 24 3207018050128 1 0
-22.11231 25.82053 2.7751794 6 3207018052432 1 0
-21.283121 20.426722 -1.2018417 4 3207018052432 1 0
-16.19089 20.897635 -0.9231615 3 3207018054736 1 0
0 0 0 9 3207018054736 1 0
0 0 0 29 3207018057040 1 0
-27.779108 29.41798 -0.9415058 18 3207018057040 1 0
-2.6805646 3.1407573 -1.9254488 4 3207018077776 1 0
-27.080797 31.739307 -1.2142389 52 3207018080080 1 0
-27.589396 26.568424 -0.66856676 37 3207018077776 1 0
-5.0456686 5.359641 -2.0606341 5 3207018080080 1 0
-7.4479427 8.7317295 -2.2953568 3 3207018082384 1 0
-27.671791 29.402267 0 17 3207018082384 1 0
-19.8091 25.671623 -0.37749705 6 3207018084688 1 0
-11.039458 11.733238 -2.5063725 2 3207018084688 1 0
-13.643208 16.004286 -2.6768863 10 3207018086992 1 0
-27.597826 26.607504 0.22280553 17 3207018086992 1 0
-26.899498 31.563993 -0.24103169 30 3207018089296 1 0
-16.479769 17.52566 -2.5913203 7 3207018089296 1 0
-12.238585 15.874926 -1.87115 1 3207018091600 1 0
0 0 0 8 3207018091600 1 0
-19.840551 25.743336 0.37838176 8 3207018093904 1 0
-17.057003 18.150103 -1.7416797 5 3207018093904 1 0
-16.15886 18.977646 -2.0347629 3 3207018096208 1 0
-30.560116 29.49782 1.236115 34 3207018096208 1 0
-27.136724 31.879908 0.7307672 22 3207018098512 1 0
-18.92744 18.274826 -1.6861765 5 3207018098512 1 0
-15.911268 20.66369 -1.5188237 3 3207018100816 1 0
-27.599012 29.39339 2.3481188 28 3207018100816 1 0
-28.365105 33.342636 1.7834674 18 3207018103120 1 0
-18.431402 19.63546 -1.254479 3 3207018103120 1 0
-16.520927 19.42576 -1.3364509 3 3207018105424 1 0
-27.624096 29.43726 4.95667 24 3207018105424 1 0
-21.973492 25.844648 2.7693212 6 3207018107728 1 0
-21.210049 20.502584 -1.2018417 4 3207018107728 1 0
-16.104136 20.939352 -0.9224635 3 3207018110032 1 0
0 0 0 9 3207018110032 1 0
-27.592264 29.429062 -0.9387142 18 3207018112336 1 0
0 0 0 29 3207018112336 1 0
-27.562521 26.728603 -0.6701724 18 3207018133072 1 0
-2.671929 3.1528606 -1.9271393 4 3207018133072 1 0
-26.946812 31.805992 -1.2131916 17 3207018135376 1 0
-5.0322294 5.382812 -2.0627906 4 3207018135376 1 0
-7.4175453 8.757566 -2.2953568 3 3207018137680 1 0
-27.52845 29.454445 0 16 3207018137680 1 0
-25.231876 32.934864 -0.4830118 4 3207018139984 1 0
-11.014882 11.78879 -2.5100617 2 3207018139984 1 0
-13.574907 16.036274 -2.674361 12 3207018142288 1 0
-27.00219 31.907095 -0.242938 25 3207018144592 1 0
-16.386559 17.5476 -2.5861795 7 3207018144592 1 0
-12.11843 15.831629 -1.861112 1 3207018146896 1 0
-27.414667 29.365217 0.93480605 12 3207018146896 1 0
-25.21367 32.948803 0.4830118 5 3207018149200 1 0
-20.296253 19.703959 0.16440742 7 3207018142288 1 0
-16.206886 19.166948 -2.049083 9 3207018151504 1 0
-16.986301 18.199917 -1.7408426 2 3207018149200 1 0
-20.288588 19.71831 0.8233785 28 3207018151504 1 0
-27.091919 32.049026 0.7325124 68 3207018153808 1 0
-18.8447 18.320072 -1.6843858 5 3207018153808 1 0
-15.857527 20.740158 -1.5204517 3 3207018156112 1 0
-26.931915 28.8801 2.2997472 18 3207018156112 1 0
-28.65617 33.918503 1.8090315 28 3207018158416 1 0
-18.23899 19.56377 -1.2459173 3 3207018158416 1 0
-16.341309 19.3476 -1.3272399 3 3207018160720 1 0
-27.431715 29.432358 4.940096 23 3207018160720 1 0
-21.769852 25.78205 2.7546756 6 3207018163024 1 0
0 0 0 8 3207018163024 1 0
-16.14712 21.143127 -0.9290246 3 3207018165328 1 0
0 0 0 9 3207018165328 1 0
0 0 0 29 3207018167632 1 0
-27.489864 29.519272 -0.93862116 12 3207018167632 1 0
-2.6591241 3.1589303 -1.9254488 3 3207018188368 1 0
-20.241846 19.76009 -0.49376348 10 3207018188368 1 0
0 0 0 56 3207018190672 1 0
-5.011652 5.3967204 -2.0617123 4 3207018190672 1 0
-27.32907 29.437904 0 16 3207018192976 1 0
-7.3907332 8.785333 -2.2961411 2 3207018192976 1 0
0 0 0 11 3207018195280 1 0
-10.988655 11.840216 -2.5131364 2 3207018195280 1 0
-13.515612 16.075914 -2.6733508 12 3207018197584 1 0
-20.238234 19.78072 0.16447715 7 3207018197584 1 0
-26.965967 32.084156 -0.24358892 18 3207018199888 1 0
-16.308067 17.58262 -2.583181 7 3207018199888 1 0
-23.986572 25.86916 0.8209097 10 3207018202192 1 0
0 0 0 33 3207018202192 1 0
-25.096066 33.02842 0.48291868 5 3207018204496 1 0
-16.815493 18.140812 -1.7296815 2 3207018204496 1 0
-16.115364 19.191935 -2.0458283 3 3207018206800 1 0
-30.028265 29.385323 1.2227334 33 3207018206800 1 0
-27.084139 32.26475 0.7353048 54 3207018209104 1 0
-18.675892 18.281603 -1.6749201 5 3207018209104 1 0
-15.846 20.874441 -1.5262656 3 3207018211408 1 0
-26.856203 28.999523 2.30184 9 3207018211408 1 0
-28.633135 34.131203 1.8150562 19 3207018213712 1 0
-18.189875 19.647577 -1.2472203 3 3207018213712 1 0
-16.258274 19.38616 -1.3259838 3 3207018216016 1 0
-27.234425 29.425953 4.923034 23 3207018216016 1 0
-21.59226 25.754326 2.7436101 6 3207018218320 1 0
0 0 0 3 3207018218320 1 0
-16.075016 21.203016 -0.9291642 3 3207018220624 1 0
0 0 0 9 3207018220624 1 0
0 0 0 29 3207018222928 1 0
-26.128357 28.25684 -0.89553785 5 3207018222928 1 0
-2.6475284 3.1686554 -1.9254488 4 3207018243664 1 0
-27.412321 26.95683 -0.67107993 18 3207018243664 1 0
-16.481634 19.73105 -0.7482085 27 3207018245968 1 0
-4.9893456 5.4121118 -2.0606341 4 3207018245968 1 0
-7.361382 8.815051 -2.2969258 3 3207018248272 1 0
-27.189749 29.501389 0 16 3207018248272 1 0
0 0 0 84 3207018250576 1 0
-10.967388 11.902948 -2.5180557 2 3207018250576 1 0
-13.455464 16.121122 -2.6728458 12 3207018252880 1 0
-26.407087 25.99551 0.21536627 16 3207018252880 1 0
-26.867079 32.198273 -0.24372841 18 3207018255184 1 0
-11.881169 15.746821 -1.8414079 59 3207018257488 1 0
-23.813736 25.865515 0.8181181 10 3207018257488 1 0
-24.869102 32.96948 0.48077673 5 3207018259792 1 0
-16.646278 18.085262 -1.7187995 5 3207018259792 1 0
-16.218498 17.611248 -2.578897 7 3207018255184 1 0
-16.109547 19.32156 -2.0536394 3 3207018262096 1 0
-26.340029 25.956667 1.0762334 13 3207018262096 1 0
-18.595306 18.329464 -1.673385 2 3207018264400 1 0
-27.069363 32.475246 0.73795754 54 3207018264400 1 0
-15.805196 20.970396 -1.5292888 3 3207018266704 1 0
-37.10656 40.346016 3.1922975 22 3207018266704 1 0
-28.787228 34.55457 1.8323162 19 3207018269008 1 0
-18.233355 19.83036 -1.2548513 3 3207018269008 1 0
-16.202427 19.45366 -1.3268212 3 3207018271312 1 0
-27.096504 29.47755 4.916209 15 3207018271312 1 0
-21.120436 20.840305 -1.2088434 4 3207018273616 1 0
-21.46168 25.775112 2.7380772 6 3207018273616 1 0
0 0 0 9 3207018275920 1 0
-16.04216 21.308002 -0.9313978 3 3207018275920 1 0
0 0 0 29 3207018278224 1 0
-27.080767 29.48366 -0.9315492 18 3207018278224 1 0
-2.6398764 3.1797464 -1.9271393 4 3207018298960 1 0
-27.466795 27.180658 -0.6745006 19 3207018298960 1 0
-16.396296 19.75528 -0.74716127 15 3207018301264 1 0
-4.9722395 5.4278316 -2.0606341 4 3207018301264 1 0
-7.3283863 8.832311 -2.2953568 3 3207018303568 1 0
-27.174417 29.672997 0 22 3207018303568 1 0
-24.644457 32.85318 -0.47812256 36 3207018305872 1 0
-13.408877 16.170204 -2.673856 12 3207018308176 1 0
-10.942764 11.952397 -2.52113 2 3207018305872 1 0
-28.003107 27.743647 0.22910564 18 3207018308176 1 0
-26.885979 32.432278 -0.2448443 19 3207018310480 1 0
-16.148382 17.648617 -2.576755 7 3207018310480 1 0
-11.780105 15.718175 -1.8336005 50 3207018312784 1 0
-23.619436 25.821293 0.814303 15 3207018312784 1 0
-24.644526 32.89312 0.4784951 5 3207018315088 1 0
-16.582148 18.133268 -1.7182415 7 3207018315088 1 0
-16.166035 19.518248 -2.0689359 3 3207018317392 1 0
-29.675982 29.435255 1.2164497 28 3207018317392 1 0
-27.057316 32.677635 0.7405405 54 3207018319696 1 0
-18.512556 18.367725 -1.6713384 2 3207018319696 1 0
-15.884544 21.220436 -1.5437073 3 3207018322000 1 0
-27.023935 29.577702 2.3332353 18 3207018322000 1 0
-29.355858 35.474632 1.8759543 19 3207018324304 1 0
-18.208204 19.934704 -1.2576432 3 3207018324304 1 0
-16.160742 19.53498 -1.3287053 3 3207018326608 1 0
-26.969156 29.534994 4.910847 15 3207018326608 1 0
-22.529232 27.24123 2.8858352 7 3207018328912 1 0
-21.20686 21.065449 -1.217799 4 3207018328912 1 0
-16.090475 21.521631 -0.9383777 3 3207018331216 1 0
0 0 0 29 3207018333520 1 0
0 0 0 9 3207018331216 1 0
-2.6287608 3.188942 -1.9271393 4 3207018354256 1 0
0 0 0 6 3207018333520 1 0
-27.487898 27.392115 -0.6773628 19 3207018354256 1 0
-4.955815 5.4480405 -2.0617123 4 3207018356560 1 0
-27.02959 32.79972 -1.2369295 36 3207018356560 1 0
-7.3123465 8.876107 -2.3000636 2 3207018358864 1 0
-26.166016 28.773726 0 10 3207018358864 1 0
-24.473965 32.865757 -0.4770516 45 3207018361168 1 0
-10.898056 11.987836 -2.5205152 2 3207018361168 1 0
-13.359446 16.226488 -2.6753712 12 3207018363472 1 0
-27.834492 27.77141 0.22852445 17 3207018363472 1 0
-26.951897 32.746178 -0.24649489 58 3207018365776 1 0
-16.06999 17.687801 -2.5741847 7 3207018365776 1 0
-11.672179 15.689412 -1.8254215 46 3207018368080 1 0
-23.4877 25.860207 0.81290716 15 3207018368080 1 0
-24.52549 32.976982 0.4784485 5 3207018370384 1 0
0 0 0 38 3207018370384 1 0
-16.038427 19.504671 -2.0614502 3 3207018372688 1 0
-29.401611 29.370838 1.209468 49 3207018372688 1 0
-27.039988 32.89414 0.74326307 54 3207018374992 1 0
-18.478182 18.46448 -1.6741525 2 3207018374992 1 0
-15.908853 21.411528 -1.5534747 3 3207018377296 1 0
0 0 0 9 3207018377296 1 0
-29.492853 35.9004 1.8928885 20 3207018379600 1 0
-18.120804 19.981833 -1.2565265 3 3207018379600 1 0
-16.123701 19.632809 -1.3314267 3 3207018381904 1 0
-26.90064 29.672478 4.9176717 23 3207018381904 1 0
-22.568031 27.488216 2.90341 7 3207018384208 1 0
-21.156628 21.166784 -1.2192645 4 3207018384208 1 0
-16.005909 21.569666 -0.9379589 3 3207018386512 1 0
0 0 0 9 3207018386512 1 0
0 0 0 29 3207018388816 1 0
-26.780962 29.567678 -0.92829233 24 3207018388816 1 0
-2.6262379 3.2097783 -1.9339012 4 3207018409552 1 0
-45.110184 45.283726 -1.1156974 14 3207018409552 1 0
-26.997793 33.00689 -1.2410022 45 3207018411856 1 0
-4.938395 5.4690266 -2.0627906 4 3207018411856 1 0
-7.274799 8.896776 -2.2984946 2 3207018414160 1 0
0 0 0 27 3207018414160 1 0
-24.241617 32.80405 -0.47486305 18 3207018416464 1 0
-10.859341 12.033567 -2.5217452 2 3207018416464 1 0
-13.307415 16.284563 -2.6768863 12 3207018418768 1 0
-27.611206 27.751314 0.2275248 17 3207018418768 1 0
-27.029081 33.08636 -0.2483082 59 3207018421072 1 0
-15.983745 17.722956 -2.5707576 7 3207018421072 1 0
-23.274939 25.81544 0.80881286 15 3207018423376 1 0
-24.283327 32.902527 0.47607374 5 3207018425680 1 0
-16.453709 18.255264 -1.7185205 10 3207018425680 1 0
-11.569652 15.67121 -1.8183577 46 3207018423376 1 0
-16.034893 19.646715 -2.0702376 3 3207018427984 1 0
-29.214851 29.398993 1.2062099 27 3207018427984 1 0
-27.010263 33.10458 0.74577624 47 3207018430288 1 0
-18.517288 18.639694 -1.6838741 2 3207018430288 1 0
-15.811311 21.443981 -1.5516142 3 3207018432592 1 0
-26.822786 29.787107 2.334398 18 3207018432592 1 0
-26.133251 32.049667 1.6847929 8 3207018434896 1 0
-17.611696 19.564062 -1.2261882 3 3207018434896 1 0
-16.04154 19.679388 -1.3305893 3 3207018437200 1 0
-26.860756 29.847603 4.930346 23 3207018437200 1 0
-22.487278 27.595472 2.9060135 7 3207018439504 1 0
-21.078905 21.244186 -1.2192645 4 3207018439504 1 0
-15.974153 21.692564 -0.94075084 3 3207018441808 1 0
0 0 0 29 3207018444112 1 0
0 0 0 9 3207018441808 1 0
-26.755295 29.757822 -0.93117696 36 3207018444112 1 0
-2.605874 3.2076712 -1.9271393 4 3207018465296 1 0
-25.950016 31.952372 -1.1979482 17 3207018467600 1 0
-27.091484 27.38624 -0.6724063 6 3207018465296 1 0
-4.914171 5.48046 -2.0606341 4 3207018467600 1 0
-7.2586627 8.940281 -2.3032014 2 3207018469904 1 0
-24.094557 32.842796 -0.47421116 9 3207018472208 1 0
-10.83336 12.088824 -2.5254345 3 3207018472208 1 0
-27.177362 30.31804 0 47 3207018469904 1 0
-13.265966 16.349016 -2.6799169 17 3207018474512 1 0
-25.947002 31.98667 -0.2393811 24 3207018476816 1 0
-15.898549 17.7514 -2.5669022 7 3207018476816 1 0
-27.410957 27.741451 0.22666463 17 3207018474512 1 0
-11.466121 15.643541 -1.8105505 45 3207018479120 1 0
-23.167141 25.87466 0.8081615 14 3207018479120 1 0
-24.148731 32.95682 0.47565466 5 3207018481424 1 0
-16.345575 18.26121 -1.7137771 7 3207018481424 1 0
-16.06024 19.816238 -2.0822797 3 3207018483728 1 0
-27.035189 33.367813 0.7496158 15 3207018486032 1 0
-29.02951 29.413727 1.2027191 33 3207018483728 1 0
-18.436512 18.68596 -1.6823391 2 3207018486032 1 0
-15.754436 21.520452 -1.5532421 3 3207018488336 1 0
-37.248898 41.65087 3.2541573 47 3207018488336 1 0
-25.988577 32.095127 1.6825134 8 3207018490640 1 0
-17.470299 19.540611 -1.2209767 3 3207018490640 1 0
-16.077515 19.861164 -1.3391725 3 3207018492944 1 0
-17.120586 19.15506 3.1544662 3 3207018492944 1 0
-22.400953 27.68098 2.9069898 7 3207018495248 1 0
-20.987 21.295723 -1.2181246 4 3207018495248 1 0
-15.971333 21.843384 -0.9449388 3 3207018497552 1 0
0 0 0 9 3207018497552 1 0
0 0 0 29 3207018499856 1 0
-27.109987 30.358171 -0.94708896 62 3207018499856 1 0
-2.5969374 3.2195694 -1.9288298 4 3207018520592 1 0
0 0 0 36 3207018520592 1 0
-4.8976126 5.5004215 -2.0617123 4 3207018522896 1 0
-7.247235 8.989887 -2.3094773 2 3207018525200 1 0
-27.159576 30.510925 0 52 3207018525200 1 0
-26.99056 33.47118 -1.2513584 27 3207018522896 1 0
-23.88865 32.800083 -0.47239515 39 3207018527504 1 0
-10.796616 12.1322365 -2.5266643 3 3207018527504 1 0
-27.30916 27.83046 0.22661814 17 3207018529808 1 0
-27.010622 33.53397 -0.250261 47 3207018532112 1 0
-15.810705 17.776495 -2.5626183 7 3207018532112 1 0
-13.226721 16.41647 -2.6834524 14 3207018529808 1 0
-11.362919 15.615345 -1.8027432 46 3207018534416 1 0
-22.952925 25.81391 0.803788 14 3207018534416 1 0
-23.938755 32.90708 0.47374552 5 3207018536720 1 0
-16.282665 18.317326 -1.7137771 5 3207018536720 1 0
-16.07961 19.979952 -2.0936706 3 3207018539024 1 0
-28.819225 29.401836 1.1981809 21 3207018539024 1 0
-18.380783 18.757553 -1.6831067 2 3207018541328 1 0
-15.816959 21.761522 -1.5667304 3 3207018543632 1 0
-37.162006 41.840637 3.259041 23 3207018543632 1 0
-29.931234 37.22307 1.9459709 20 3207018545936 1 0
-17.265596 19.444715 -1.2112982 3 3207018545936 1 0
-26.983416 33.53812 0.751361 47 3207018541328 1 0
-17.055294 19.213217 3.1544662 3 3207018548240 1 0
-16.072395 19.9936 -1.344406 3 3207018548240 1 0
-22.316807 27.769327 2.9082918 7 3207018550544 1 0
-20.99004 21.44399 -1.2225211 4 3207018550544 1 0
-15.951234 21.971786 -0.9481495 3 3207018552848 1 0
0 0 0 9 3207018552848 1 0
0 0 0 29 3207018555152 1 0
-27.08147 30.53344 -0.94969445 51 3207018555152 1 0
-26.988243 27.65588 -0.6745006 19 3207018575888 1 0
-26.971409 33.67636 -1.2556638 36 3207018578192 1 0
-4.8792653 5.5167036 -2.0617123 4 3207018578192 1 0
-7.209767 9.004895 -2.307124 3 3207018580496 1 0
-2.5862467 3.2281635 -1.9288298 4 3207018575888 1 0
0 0 0 3 3207018580496 1 0
-23.747847 32.838028 -0.4717898 4 3207018582800 1 0
-10.763646 12.177326 -2.5285091 3 3207018582800 1 0
-13.2109165 16.510578 -2.6915336 21 3207018585104 1 0
-27.32677 28.037027 0.22754805 47 3207018585104 1 0
-26.99427 33.74713 -0.25116765 54 3207018587408 1 0
-15.729309 17.806128 -2.559191 7 3207018587408 1 0
-11.267725 15.5958185 -1.7960511 50 3207018589712 1 0
-22.76435 25.777975 0.800252 9 3207018589712 1 0
-23.805063 32.95953 0.47332644 5 3207018592016 1 0
-16.267498 18.426716 -1.7187995 2 3207018592016 1 0
-28.609364 29.388851 1.1936427 21 3207018594320 1 0
-16.010935 20.035028 -2.0936706 3 3207018594320 1 0
-27.009937 33.80904 0.75534016 16 3207018596624 1 0
-18.051535 18.54903 -1.6588027 2 3207018596624 1 0
-15.776584 21.864717 -1.5702187 3 3207018598928 1 0
0 0 0 3 3207018598928 1 0
-30.090927 37.689194 1.964859 20 3207018601232 1 0
-17.158262 19.45966 -1.2085063 3 3207018601232 1 0
-16.039883 20.09641 -1.3475462 3 3207018603536 1 0
-16.948746 19.22796 3.1471539 10 3207018603536 1 0
-22.226791 27.85673 2.9092681 7 3207018605840 1 0
-19.240562 19.795006 -1.1246607 7 3207018605840 1 0
-17.95151 24.910995 -1.0722522 4 3207018608144 1 0
0 0 0 9 3207018608144 1 0
0 0 0 29 3207018610448 1 0
-2.5721412 3.2347834 -1.9271393 4 3207018631184 1 0
-27.06589 30.734001 -0.95295125 57 3207018610448 1 0
-26.978527 27.849405 -0.6768043 12 3207018631184 1 0
-26.95254 33.90625 -1.260551 36 3207018633488 1 0
-4.859053 5.5345144 -2.0617123 4 3207018633488 1 0
0 0 0 42 3207018635792 1 0
-7.1792855 9.034226 -2.3079083 3 3207018635792 1 0
0 0 0 10 3207018638096 1 0
-10.721815 12.219432 -2.529124 3 3207018638096 1 0
-13.150795 16.558506 -2.6915336 12 3207018640400 1 0
-27.007694 27.91199 0.22573473 17 3207018640400 1 0
-26.958681 33.95451 -0.25198132 48 3207018642704 1 0
-15.643613 17.839169 -2.555764 7 3207018642704 1 0
-11.164757 15.571789 -1.7886157 50 3207018645008 1 0
-22.636576 25.821156 0.79904234 9 3207018645008 1 0
-23.564617 32.876305 0.4709051 5 3207018647312 1 0
-16.171862 18.452381 -1.7157302 2 3207018647312 1 0
-15.975729 20.1395 -2.0985525 3 3207018649616 1 0
-28.430927 29.417103 1.1906173 10 3207018649616 1 0
-26.970064 34.00946 0.7576439 24 3207018651920 1 0
-15.776981 22.03164 -1.5781256 3 3207018654224 1 0
-17.621292 18.237825 -1.625289 2 3207018651920 1 0
0 0 0 3 3207018654224 1 0
-30.121933 38.006695 1.9757686 31 3207018656528 1 0
-17.00943 19.430857 -1.2029226 3 3207018656528 1 0
-16.005087 20.200636 -1.3506863 3 3207018658832 1 0
-16.869383 19.276527 3.145204 10 3207018658832 1 0
-21.684095 27.37651 2.851011 7 3207018661136 1 0
-19.055967 19.745672 -1.1179848 7 3207018661136 1 0
-17.878908 24.997566 -1.0732293 4 3207018663440 1 0
0 0 0 9 3207018663440 1 0
0 0 0 29 3207018665744 1 0
-27.048552 30.935421 -0.9562081 52 3207018665744 1 0
-2.5653267 3.249433 -1.9305202 3 3207018686480 1 0
-26.958786 28.02411 -0.678759 12 3207018686480 1 0
-26.930874 34.122334 -1.2650892 45 3207018688784 1 0
-4.844807 5.557214 -2.063869 4 3207018688784 1 0
-7.159986 9.074524 -2.3118305 3 3207018691088 1 0
-27.117167 31.113298 0 48 3207018691088 1 0
0 0 0 28 3207018693392 1 0
-10.687153 12.265491 -2.5309687 3 3207018693392 1 0
-13.081113 16.58835 -2.689008 6 3207018695696 1 0
-27.334948 28.446589 0.22929162 60 3207018695696 1 0
-26.947716 34.182503 -0.25298098 48 3207018698000 1 0
-15.561004 17.869106 -2.552337 7 3207018698000 1 0
-11.071753 15.555021 -1.7822955 50 3207018700304 1 0
0 0 0 5 3207018700304 1 0
-23.460667 32.970203 0.47109136 5 3207018702608 1 0
-16.131872 18.534988 -1.7182415 2 3207018702608 1 0
-12.583606 15.975605 -1.6601607 1 3207018704912 1 0
-28.158125 29.335678 1.1834029 10 3207018704912 1 0
-26.957338 34.23361 0.7605759 24 3207018707216 1 0
-17.415 18.148302 -1.6119858 5 3207018707216 1 0
-15.805709 22.23189 -1.5885906 3 3207018709520 1 0
-27.312086 31.406965 2.423932 10 3207018709520 1 0
-30.209644 38.38559 1.9900975 31 3207018711824 1 0
-16.838198 19.36814 -1.1954776 3 3207018711824 1 0
-16.1536 20.531252 -1.3691086 3 3207018714128 1 0
-16.790657 19.318846 3.1427667 7 3207018714128 1 0
-21.600855 27.462528 2.852313 7 3207018716432 1 0
-17.96074 25.292686 -1.0832803 4 3207018718736 1 0
0 0 0 9 3207018718736 1 0
0 0 0 29 3207018721040 1 0
-18.922422 19.741028 -1.1140769 7 3207018716432 1 0
-27.040802 31.138426 -0.95965105 52 3207018721040 1 0
-2.5500634 3.2522163 -1.9271393 4 3207018741776 1 0
-26.943073 28.194315 -0.68071365 19 3207018741776 1 0
-26.920923 34.34381 -1.2699764 46 3207018744080 1 0
-4.8263116 5.573284 -2.063869 5 3207018744080 1 0
-7.1200447 9.085972 -2.3086927 2 3207018746384 1 0
-26.932226 31.109694 0 12 3207018746384 1 0
-25.195837 35.6183 -0.5079237 15 3207018748688 1 0
-10.664257 12.322016 -2.535273 2 3207018748688 1 0
-12.426138 15.866643 -2.5652652 3 3207018750992 1 0
-27.300394 28.601526 0.22980307 48 3207018750992 1 0
-26.941463 34.41123 -0.25400388 42 3207018753296 1 0
-15.4697895 17.885078 -2.5471961 7 3207018753296 1 0
-10.975756 15.530335 -1.7752317 53 3207018755600 1 0
-23.227201 32.875874 0.46862343 5 3207018757904 1 0
-27.089933 31.328676 0.96374536 25 3207018755600 1 0
-16.145048 18.676743 -1.7263333 2 3207018757904 1 0
0 0 0 26 3207018760208 1 0
-26.994005 28.313496 1.1384871 14 3207018760208 1 0
-26.954748 34.469494 0.7637871 24 3207018762512 1 0
-17.320482 18.172415 -1.6089158 5 3207018762512 1 0
0 0 0 26 3207018764816 1 0
0 0 0 3 3207018764816 1 0
-30.24646 38.7021 2.00117 31 3207018767120 1 0
-16.743599 19.391945 -1.1934303 3 3207018767120 1 0
-16.009853 20.491678 -1.3628283 3 3207018769424 1 0
-16.732594 19.384895 3.1442292 10 3207018769424 1 0
-21.61995 27.680573 2.867284 7 3207018771728 1 0
0 0 0 21 3207018771728 1 0
-17.890308 25.376799 -1.0842576 4 3207018774032 1 0
0 0 0 9 3207018774032 1 0
0 0 0 29 3207018776336 1 0
0 0 0 1 3207018776336 1 0
-26.940847 28.38973 -0.683157 13 3207018797072 1 0
-2.5364685 3.2582374 -1.9254488 4 3207018797072 1 0
-26.869383 34.52612 -1.2732345 18 3207018799376 1 0
-4.806787 5.590132 -2.063869 4 3207018799376 1 0
-7.09297 9.117064 -2.3102617 3 3207018801680 1 0
-27.104622 31.531506 0 55 3207018801680 1 0
-25.16021 35.834244 -0.50973976 30 3207018803984 1 0
-10.636367 12.377383 -2.5389626 3 3207018803984 1 0
-12.331245 15.860161 -2.557184 9 3207018806288 1 0
-27.290358 28.793242 0.23057024 48 3207018806288 1 0
-19.912434 25.61898 -0.18858497 17 3207018808592 1 0
-15.37552 17.903324 -2.5420556 7 3207018808592 1 0
-10.879632 15.510341 -1.7685398 53 3207018810896 1 0
-23.014175 32.820385 0.46666774 5 3207018813200 1 0
-16.091797 18.748943 -1.7277284 2 3207018813200 1 0
-27.070211 31.530416 0.9670022 31 3207018810896 1 0
-12.3700075 15.930087 -1.6464915 35 3207018815504 1 0
-26.94833 28.467188 1.1408144 14 3207018815504 1 0
-19.89899 25.633987 0.5664353 14 3207018817808 1 0
-17.170692 18.144012 -1.6009852 2 3207018817808 1 0
0 0 0 3 3207018820112 1 0
-11.118896 15.872057 -1.1285946 12 3207018820112 1 0
-19.934046 25.695343 1.3249406 16 3207018822416 1 0
-16.637844 19.409136 -1.1908245 3 3207018822416 1 0
-15.96581 20.586708 -1.3653405 3 3207018824720 1 0
-16.632128 19.408463 3.1383793 7 3207018824720 1 0
-19.959658 25.74459 2.6593165 6 3207018827024 1 0
-18.470882 19.541803 -1.0955143 21 3207018827024 1 0
-17.902151 25.588303 -1.0905395 4 3207018829328 1 0
0 0 0 9 3207018829328 1 0
0 0 0 16 3207018831632 1 0
0 0 0 29 3207018831632 1 0
-2.5267258 3.2703807 -1.9271393 3 3207018852368 1 0
-26.92711 28.584349 -0.6854607 13 3207018852368 1 0
-19.819073 25.659464 -0.94358057 5 3207018854672 1 0
-4.783847 5.604713 -2.0627906 3 3207018854672 1 0
-7.050184 9.130377 -2.307124 3 3207018856976 1 0
-27.07807 31.733307 0 43 3207018856976 1 0
-25.117155 36.04983 -0.5115092 5 3207018859280 1 0
-10.591472 12.415822 -2.5389626 3 3207018859280 1 0
-12.227897 15.8448515 -2.5475876 18 3207018861584 1 0
-27.274038 28.984709 0.23131417 48 3207018861584 1 0
-19.830042 25.703018 -0.18867797 4 3207018863888 1 0
-15.285301 17.928183 -2.5377717 7 3207018863888 1 0
-10.785385 15.4936 -1.7622195 53 3207018866192 1 0
-27.048016 31.73359 0.9702591 39 3207018866192 1 0
-22.885656 32.88577 0.46643493 5 3207018868496 1 0
-16.138756 18.9398 -1.7400055 2 3207018868496 1 0
-12.245245 15.885475 -1.6373787 33 3207018870800 1 0
-27.545424 29.305552 1.1704867 41 3207018870800 1 0
-25.349895 32.895237 0.72490317 7 3207018873104 1 0
-17.062721 18.158041 -1.5968919 2 3207018873104 1 0
-11.0105295 15.835686 -1.1232458 2 3207018875408 1 0
0 0 0 3 3207018875408 1 0
-30.244991 39.269787 2.0194068 21 3207018877712 1 0
-16.486835 19.369968 -1.1848686 3 3207018877712 1 0
-16.0157 20.800564 -1.3758076 3 3207018880016 1 0
-16.592579 19.499662 3.1437416 7 3207018880016 1 0
-18.43293 19.637947 -1.0973054 24 3207018882320 1 0
-21.574722 28.028416 2.8874624 7 3207018882320 1 0
-13.280292 19.12267 -0.8130187 3 3207018884624 1 0
0 0 0 9 3207018884624 1 0
0 0 0 29 3207018886928 1 0
-26.9904 31.745874 -0.9696077 46 3207018886928 1 0
-2.518074 3.2816179 -1.9288298 3 3207018907664 1 0
-26.933283 28.781534 -0.68804365 19 3207018907664 1 0
-25.162947 32.802868 -1.2031845 8 3207018909968 1 0
-4.7726665 5.629395 -2.0660255 2 3207018909968 1 0
-7.0221214 9.15692 -2.3079083 3 3207018912272 1 0
-27.070505 31.939274 0 43 3207018912272 1 0
0 0 0 29 3207018914576 1 0
-10.557635 12.460154 -2.5408072 3 3207018914576 1 0
-12.155515 15.860472 -2.5435472 7 3207018916880 1 0
-27.237015 29.140072 0.23182562 42 3207018916880 1 0
-25.171108 32.853065 -0.24054348 6 3207018919184 1 0
-15.201981 17.95201 -2.5339162 7 3207018919184 1 0
-10.69704 15.477327 -1.7562711 50 3207018921488 1 0
-27.042013 31.943317 0.9738881 19 3207018921488 1 0
0 0 0 7 3207018923792 1 0
-12.140684 15.860224 -1.6305441 33 3207018926096 1 0
-16.105827 19.030584 -1.7433538 2 3207018923792 1 0
-27.37271 29.319422 1.1673449 35 3207018926096 1 0
-25.182611 32.90772 0.72329754 7 3207018928400 1 0
0 0 0 14 3207018930704 1 0
-16.91134 18.119335 -1.5884495 4 3207018928400 1 0
0 0 0 3 3207018930704 1 0
-30.31783 39.642124 2.0332472 21 3207018933008 1 0
-16.397741 19.398384 -1.1831934 3 3207018933008 1 0
-16.285234 19.270973 3.0979187 7 3207018935312 1 0
-21.52258 28.158852 2.8933206 7 3207018937616 1 0
-15.988485 20.912071 -1.3795758 4 3207018935312 1 0
-18.4149 19.753323 -1.1002364 14 3207018937616 1 0
0 0 0 64 3207018939920 1 0
0 0 0 9 3207018939920 1 0
0 0 0 29 3207018942224 1 0
-26.96922 31.942022 -0.97277147 20 3207018942224 1 0
-27.099455 29.162485 -0.694885 19 3207018962960 1 0
-2.5044067 3.2875037 -1.9271393 3 3207018962960 1 0
-19.2394 25.262566 -0.9241481 5 3207018965264 1 0
-4.748067 5.6400924 -2.063869 4 3207018965264 1 0
-6.9783683 9.165671 -2.3039858 2 3207018967568 1 0
-27.054617 32.146416 0 51 3207018967568 1 0
0 0 0 56 3207018969872 1 0
-10.529617 12.514848 -2.5444968 3 3207018969872 1 0
-12.011636 15.785617 -2.5248594 5 3207018972176 1 0
-27.247553 29.354376 0.23277877 42 3207018972176 1 0
-24.975136 32.83158 -0.23975307 6 3207018974480 1 0
-15.121962 17.983109 -2.5309174 7 3207018974480 1 0
-10.600817 15.451711 -1.7492074 53 3207018976784 1 0
0 0 0 21 3207018979088 1 0
-16.027435 19.070597 -1.7419586 2 3207018979088 1 0
-27.06298 32.19245 0.97863376 13 3207018976784 1 0
-12.02345 15.819279 -1.6220821 35 3207018981392 1 0
-27.282784 29.424932 1.1678104 15 3207018981392 1 0
-24.975384 32.86959 0.720575 7 3207018983696 1 0
-10.832511 15.808149 -1.1160367 30 3207018986000 1 0
-126.89601 151.11716 11.491991 28 3207018986000 1 0
-16.822042 18.147879 -1.5858911 2 3207018983696 1 0
-30.383066 40.00948 2.046762 22 3207018988304 1 0
-16.413694 19.552128 -1.1891494 3 3207018988304 1 0
-15.9437895 21.001362 -1.3818786 4 3207018990608 1 0
-16.311436 19.435766 3.1154678 7 3207018990608 1 0
-21.530462 28.368336 2.9073153 7 3207018992912 1 0
-18.418308 19.891994 -1.1044699 7 3207018992912 1 0
-12.562776 18.354916 -0.7767232 18 3207018995216 1 0
0 0 0 9 3207018995216 1 0
0 0 0 29 3207018997520 1 0
-26.986954 32.18318 -0.97733104 60 3207018997520 1 0
-2.4934912 3.2957907 -1.9271393 4 3207019018256 1 0
-26.959194 29.205172 -0.6937681 13 3207019018256 1 0
-19.032148 25.16387 -0.9182136 5 3207019020560 1 0
-4.731726 5.65883 -2.0649474 2 3207019020560 1 0
-6.9689584 9.217122 -2.3110461 2 3207019022864 1 0
-27.046978 32.35643 0 51 3207019022864 1 0
-12.510988 18.3516 -0.25857174 21 3207019025168 1 0
-10.4697695 12.528923 -2.5401924 3 3207019025168 1 0
-11.915243 15.769073 -2.515768 3 3207019027472 1 0
-27.207996 29.510849 0.23329021 6 3207019027472 1 0
-24.817923 32.855385 -0.23931135 6 3207019029776 1 0
-15.043088 18.012882 -2.5279188 7 3207019029776 1 0
-27.025019 32.370323 0.98123926 39 3207019032080 1 0
-10.519022 15.444907 -1.7443743 53 3207019032080 1 0
-12.481768 18.33279 0.25819921 6 3207019034384 1 0
-16.038864 19.21717 -1.7503295 2 3207019034384 1 0
-11.916247 15.790446 -1.614922 35 3207019036688 1 0
-27.249334 29.591938 1.1707195 15 3207019036688 1 0
-24.801716 32.875668 0.7188297 7 3207019038992 1 0
-16.737757 18.18226 -1.5838445 2 3207019038992 1 0
0 0 0 3 3207019041296 1 0
-10.732808 15.779515 -1.1113856 14 3207019041296 1 0
-16.222828 19.461744 -1.1802155 3 3207019043600 1 0
-15.954533 21.168537 -1.3892056 4 3207019045904 1 0
-30.74426 40.778645 2.0806305 25 3207019043600 1 0
-16.284159 19.541386 3.1232677 7 3207019045904 1 0
-21.464481 28.488209 2.9118717 7 3207019048208 1 0
-18.294369 19.89759 -1.1012133 3 3207019048208 1 0
-12.473385 18.362644 -0.7751876 36 3207019050512 1 0
0 0 0 9 3207019050512 1 0
-26.962593 32.385925 -0.9805879 54 3207019052816 1 0
-2.4792182 3.3020086 -1.9254488 4 3207019073552 1 0
-26.927626 29.386347 -0.69572276 19 3207019073552 1 0
-18.850983 25.115139 -0.91390824 5 3207019075856 1 0
0 0 0 29 3207019052816 1 0
-4.7084937 5.673171 -2.063869 4 3207019075856 1 0
-6.9374833 9.24574 -2.3118305 3 3207019078160 1 0
-27.020153 32.566166 0 52 3207019078160 1 0
-12.430197 18.377455 -0.25829235 15 3207019080464 1 0
-10.431349 12.57634 -2.542037 4 3207019080464 1 0
-11.878792 15.841209 -2.5203137 3 3207019082768 1 0
-24.59657 32.811707 -0.23833495 6 3207019085072 1 0
-26.967325 29.465788 0.23215108 18 3207019082768 1 0
-14.954124 18.04034 -2.5240633 7 3207019085072 1 0
-10.415517 15.414059 -1.736567 53 3207019087376 1 0
-26.992949 32.57385 0.984403 33 3207019087376 1 0
-12.389863 18.341957 0.257687 16 3207019089680 1 0
-16.006506 19.32192 -1.7545148 2 3207019089680 1 0
-11.803327 15.760621 -1.6074365 35 3207019091984 1 0
-26.916788 29.446667 1.1610614 15 3207019091984 1 0
-24.613941 32.876705 0.7168751 7 3207019094288 1 0
-16.59022 18.155083 -1.5761696 2 3207019094288 1 0
0 0 0 3 3207019096592 1 0
-10.677135 15.822057 -1.111618 2 3207019096592 1 0
-30.960922 41.380672 2.1055434 27 3207019098896 1 0
-16.151388 19.521072 -1.1802155 3 3207019098896 1 0
-15.912727 21.27485 -1.3923458 4 3207019101200 1 0
-21.421995 28.649702 2.9203336 7 3207019103504 1 0
-16.300991 19.708015 3.1403291 7 3207019101200 1 0
-18.28598 20.035357 -1.1051213 3 3207019103504 1 0
0 0 0 10 3207019105808 1 0
0 0 0 9 3207019105808 1 0
0 0 0 29 3207019108112 1 0
-26.950699 32.614 -0.9844961 55 3207019108112 1 0
-2.47201 3.3164558 -1.9288298 4 3207019128296 1 0
0 0 0 36 3207019128296 1 0
-18.718174 25.1196 -0.9116973 5 3207019130600 1 0
-4.686295 5.686531 -2.0627906 4 3207019130600 1 0
-6.9007506 9.263409 -2.3102617 3 3207019132904 1 0
-27.014088 32.789165 0 52 3207019132904 1 0
-12.357858 18.40691 -0.25810608 1 3207019135208 1 0
-10.403012 12.630527 -2.5457265 4 3207019135208 1 0
-12.7176895 17.081785 -2.7107263 8 3207019137512 1 0
-26.857954 29.5493 0.23208134 12 3207019137512 1 0
-24.395912 32.776863 -0.2374748 5 3207019139816 1 0
-14.867101 18.060642 -2.5197794 6 3207019139816 1 0
-10.327499 15.396497 -1.7306186 50 3207019142120 1 0
-26.981031 32.78595 0.9880321 33 3207019142120 1 0
-12.327634 18.383839 0.257687 4 3207019144424 1 0
-15.999243 19.446924 -1.7609324 2 3207019144424 1 0
-11.712013 15.749173 -1.6022292 28 3207019146728 1 0
-26.908653 29.637972 1.1650177 15 3207019146728 1 0
-24.410284 32.83404 0.71415246 7 3207019149032 1 0
-16.504984 18.184116 -1.5738671 2 3207019149032 1 0
-10.513016 15.691811 -1.0999902 2 3207019151336 1 0
0 0 0 3 3207019151336 1 0
-31.17809 41.961567 2.1298048 30 3207019153640 1 0
-16.177607 19.685892 -1.1869159 3 3207019153640 1 0
-15.844471 21.33071 -1.3925551 4 3207019155944 1 0
-16.248148 19.7773 3.1427667 10 3207019155944 1 0
-21.274998 28.649857 2.9131737 7 3207019158248 1 0
-12.574412 18.791119 -0.7895662 9 3207019160552 1 0
-18.227785 20.104504 -1.1056098 3 3207019158248 1 0
0 0 0 9 3207019160552 1 0
0 0 0 29 3207019162856 1 0
-26.947851 32.82875 -0.98831123 48 3207019162856 1 0
-2.4609985 3.324635 -1.9288298 3 3207019183592 1 0
-26.853024 29.708405 -0.69900376 20 3207019183592 1 0
-18.572752 25.098106 -0.9086719 5 3207019185896 1 0
-4.6746902 5.711016 -2.0660255 4 3207019185896 1 0
-6.8721914 9.2894945 -2.3110461 3 3207019188200 1 0
-27.008587 33.00588 0 46 3207019188200 1 0
-12.338496 18.511292 -0.25899082 1 3207019190504 1 0
-10.360795 12.665181 -2.5457265 8 3207019190504 1 0
-12.618015 17.066801 -2.701635 12 3207019192808 1 0
-24.238342 32.794132 -0.23700984 5 3207019195112 1 0
-26.820606 29.707264 0.23261604 18 3207019192808 1 0
-10.235978 15.371439 -1.7239265 49 3207019197416 1 0
-14.793883 18.094988 -2.5176375 6 3207019195112 1 0
-26.974485 33.00336 0.9918472 39 3207019197416 1 0
-12.261232 18.418583 0.2575939 4 3207019199720 1 0
-16.001842 19.584114 -1.7684661 2 3207019199720 1 0
0 0 0 9 3207019202024 1 0
-27.239592 30.206657 1.1837521 36 3207019202024 1 0
-24.253984 32.855267 0.7128261 7 3207019204328 1 0
-16.438053 18.233896 -1.5733554 4 3207019204328 1 0
0 0 0 12 3207019206632 1 0
0 0 0 3 3207019206632 1 0
-31.407923 42.572144 2.155369 32 3207019208936 1 0
-16.156134 19.79644 -1.1902661 3 3207019208936 1 0
-15.850025 21.490599 -1.3994634 4 3207019211240 1 0
-16.140587 19.783266 3.134967 7 3207019211240 1 0
-20.578587 27.910418 2.8308327 7 3207019213544 1 0
-18.180506 20.190315 -1.1069124 3 3207019213544 1 0
0 0 0 16 3207019215848 1 0
0 0 0 9 3207019215848 1 0
0 0 0 29 3207019218152 1 0
-26.936314 33.04484 -0.99203336 56 3207019218152 1 0
-2.453672 3.339048 -1.9322107 3 3207019238888 1 0
-27.205975 30.31091 -0.71094126 68 3207019238888 1 0
-18.456623 25.124117 -0.90727556 5 3207019241192 1 0
-4.652297 5.72431 -2.0649474 4 3207019241192 1 0
-6.8397236 9.313426 -2.3110461 2 3207019243496 1 0
0 0 0 7 3207019243496 1 0
-10.326489 12.713542 -2.5481863 8 3207019245800 1 0
-25.033089 37.842396 -0.5282258 11 3207019245800 1 0
-12.541929 17.08835 -2.6980994 17 3207019248104 1 0
-27.205368 30.34573 0.23687035 44 3207019248104 1 0
-24.036171 32.759212 -0.23614968 5 3207019250408 1 0
-14.708071 18.118729 -2.513782 6 3207019250408 1 0
-10.131755 15.330655 -1.7153758 49 3207019252712 1 0
-26.937233 33.193577 0.9947319 20 3207019252712 1 0
-21.642159 32.757744 0.45707548 5 3207019255016 1 0
-16.021372 19.748306 -1.778232 2 3207019255016 1 0
-11.499912 15.687729 -1.5879091 31 3207019257320 1 0
-27.20867 30.38496 1.1870102 42 3207019257320 1 0
-24.049316 32.817142 0.7101733 7 3207019259624 1 0
0 0 0 12 3207019261928 1 0
-16.384954 18.30306 -1.5743788 2 3207019259624 1 0
-26.090117 32.18797 2.413002 10 3207019261928 1 0
-31.622797 43.178078 2.1804447 34 3207019264232 1 0
-16.041653 19.796835 -1.1869159 3 3207019264232 1 0
-15.789071 21.565132 -1.4007195 4 3207019266536 1 0
-16.091425 19.864166 3.138867 10 3207019266536 1 0
-20.570515 28.104328 2.8432002 7 3207019268840 1 0
-18.235125 20.393684 -1.1145654 3 3207019268840 1 0
-12.576304 19.077797 -0.7979421 56 3207019271144 1 0
0 0 0 9 3207019271144 1 0
0 0 0 3 3207019273448 1 0
0 0 0 29 3207019273448 1 0
-2.4377284 3.341735 -1.9288298 4 3207019294184 1 0
-27.182495 30.498245 -0.7131053 48 3207019294184 1 0
-4.629868 5.737517 -2.063869 4 3207019296488 1 0
-6.8141036 9.346753 -2.3133996 2 3207019298792 1 0
-18.347609 25.159315 -0.9062283 5 3207019296488 1 0
-26.975914 33.43958 0 40 3207019298792 1 0
-24.898647 37.9262 -0.5281792 11 3207019301096 1 0
-10.296935 12.76797 -2.5518756 9 3207019301096 1 0
-12.475194 17.122404 -2.6965842 19 3207019303400 1 0
-27.189705 30.542088 0.23766078 26 3207019303400 1 0
-23.888704 32.797653 -0.23582421 5 3207019305704 1 0
-14.62477 18.145187 -2.5103548 6 3207019305704 1 0
-10.043231 15.312643 -1.7094274 53 3207019308008 1 0
-26.964214 33.464897 1.0000359 20 3207019308008 1 0
-21.450922 32.71602 0.45544574 5 3207019310312 1 0
-15.952339 19.804111 -1.778232 2 3207019310312 1 0
-11.402858 15.669751 -1.5820508 31 3207019312616 1 0
-27.134321 30.515606 1.1884065 10 3207019312616 1 0
-23.849918 32.784462 0.7076602 7 3207019314920 1 0
-16.392572 18.440697 -1.5812862 2 3207019314920 1 0
0 0 0 12 3207019317224 1 0
-25.922522 32.210403 2.4078858 10 3207019317224 1 0
-31.793867 43.73107 2.2027524 36 3207019319528 1 0
-16.045088 19.942993 -1.1923136 3 3207019319528 1 0
-15.807638 21.749363 -1.4090933 4 3207019321832 1 0
-20.577742 28.321098 2.8578458 7 3207019324136 1 0
-16.009546 19.904745 3.1364293 10 3207019321832 1 0
-17.505737 19.71603 -1.0741837 3 3207019324136 1 0
-12.55997 19.198523 -0.8011528 56 3207019326440 1 0
0 0 0 9 3207019326440 1 0
-14.827988 20.420214 4.60117 3 3207019328744 1 0
-25.80319 32.10991 -0.9585344 71 3207019328744 1 0
-2.4217963 3.3443513 -1.9254488 3 3207019349480 1 0
-27.168642 30.697767 -0.71554863 48 3207019349480 1 0
-18.208094 25.151955 -0.90366834 5 3207019351784 1 0
-4.6146293 5.7596555 -2.0660255 4 3207019351784 1 0
-6.774537 9.3609495 -2.3110461 3 3207019354088 1 0
-26.956547 33.655296 0 54 3207019354088 1 0
-24.731174 37.959263 -0.5274342 10 3207019356392 1 0
-10.252304 12.803835 -2.5518756 9 3207019356392 1 0
-12.42 17.172276 -2.6975944 10 3207019358696 1 0
-27.178299 30.7447 0.23849769 26 3207019358696 1 0
-23.673296 32.74146 -0.23482457 5 3207019361000 1 0
-14.541463 18.171286 -2.5069277 6 3207019361000 1 0
-9.948439 15.284187 -1.7023636 56 3207019363304 1 0
-26.927176 33.658737 1.0030136 47 3207019363304 1 0
-21.310415 32.750465 0.45488697 5 3207019365608 1 0
-15.913019 19.89707 -1.7815803 2 3207019365608 1 0
-11.296731 15.638361 -1.5748907 31 3207019367912 1 0
-23.686163 32.799423 0.70619416 7 3207019370216 1 0
-16.333385 18.50379 -1.5817978 2 3207019370216 1 0
0 0 0 20 3207019367912 1 0
0 0 0 12 3207019372520 1 0
-37.383762 46.785156 3.4876435 28 3207019372520 1 0
-31.891289 44.188553 2.220175 38 3207019374824 1 0
-16.040215 20.080048 -1.1971527 3 3207019374824 1 0
-15.867179 21.992294 -1.4212352 4 3207019377128 1 0
-15.417225 19.305912 3.0335717 6 3207019377128 1 0
-17.35487 19.684082 -1.069136 3 3207019379432 1 0
-12.536415 19.309305 -0.8039448 56 3207019381736 1 0
-20.560383 28.505926 2.8692367 7 3207019379432 1 0
0 0 0 9 3207019381736 1 0
-14.772724 20.494194 4.6061926 10 3207019384040 1 0
0 0 0 1 3207019384040 1 0
-2.4143395 3.358672 -1.9288298 4 3207019404776 1 0
0 0 0 14 3207019404776 1 0
-18.08752 25.169903 -0.9020393 5 3207019407080 1 0
-4.5897 5.7696996 -2.063869 4 3207019407080 1 0
-6.757839 9.406838 -2.3165374 3 3207019409384 1 0
-26.938492 33.874416 0 55 3207019409384 1 0
-24.531199 37.94124 -0.5259907 10 3207019411688 1 0
-10.205088 12.836451 -2.5512607 9 3207019411688 1 0
-12.343783 17.192963 -2.694059 14 3207019413992 1 0
-27.147337 30.926558 0.23917188 6 3207019413992 1 0
-23.484228 32.71991 -0.23408064 5 3207019416296 1 0
-12.696653 15.980001 -2.1984882 17 3207019416296 1 0
-9.862612 15.26864 -1.6967869 57 3207019418600 1 0
-26.90652 33.87465 1.0066426 27 3207019418600 1 0
-21.111345 32.69361 0.45307097 5 3207019420904 1 0
-15.950167 20.086866 -1.7935785 2 3207019420904 1 0
-11.195609 15.612901 -1.5683815 33 3207019423208 1 0
-27.184216 31.004932 1.2000427 21 3207019423208 1 0
-23.496964 32.77789 0.70396024 7 3207019425512 1 0
-16.305532 18.602718 -1.5853795 2 3207019425512 1 0
-10.022698 15.536298 -1.0767347 1 3207019427816 1 0
-37.05394 46.705765 3.4720623 27 3207019427816 1 0
-32.081333 44.780453 2.244274 40 3207019430120 1 0
-15.806596 22.07028 -1.4227006 4 3207019432424 1 0
-16.118998 20.323751 -1.2083203 3 3207019430120 1 0
-15.297942 19.294281 3.0233347 6 3207019432424 1 0
-20.58376 28.749325 2.886486 7 3207019434728 1 0
-17.230768 19.681393 -1.0657166 3 3207019434728 1 0
0 0 0 10 3207019437032 1 0
0 0 0 9 3207019437032 1 0
-26.88202 33.934917 -1.007387 58 3207019439336 1 0
-14.728575 20.58404 4.614802 17 3207019439336 1 0
-2.4026008 3.367079 -1.9288298 3 3207019460072 1 0
-27.1693 31.133783 -0.72127306 35 3207019460072 1 0
-18.025276 25.26856 -0.90331924 5 3207019462376 1 0
-4.571962 5.788675 -2.0649474 4 3207019462376 1 0
-6.7137127 9.414305 -2.3126152 3 3207019464680 1 0
-26.929646 34.105984 0 48 3207019464680 1 0
-24.347599 37.945313 -0.52487314 10 3207019466984 1 0
-10.145805 12.853159 -2.5475714 12 3207019466984 1 0
-26.956015 30.923859 0.23842795 13 3207019469288 1 0
-23.324642 32.735683 -0.23361568 5 3207019471592 1 0
-12.594576 15.964439 -2.1903489 3 3207019471592 1 0
-9.775531 15.2488985 -1.6908385 56 3207019473896 1 0
-12.245044 17.180656 -2.6854725 17 3207019469288 1 0
-26.893602 34.099068 1.0105509 20 3207019473896 1 0
-20.93186 32.661644 0.45162746 5 3207019476200 1 0
-15.937802 20.21368 -1.799996 8 3207019476200 1 0
-11.093399 15.583034 -1.5615469 35 3207019478504 1 0
-27.164276 31.197569 1.2038827 33 3207019478504 1 0
-16.236477 18.652437 -1.5848678 2 3207019480808 1 0
-23.340494 32.79627 0.70263386 7 3207019480808 1 0
-36.1651 45.90679 3.4034584 26 3207019483112 1 0
-9.935085 15.516657 -1.0730138 1 3207019483112 1 0
-32.28284 45.387913 2.2691867 21 3207019485416 1 0
-16.06442 20.397444 -1.209437 3 3207019485416 1 0
-17.791565 25.021288 -1.6090167 5 3207019487720 1 0
-15.190435 19.293205 3.0150476 6 3207019487720 1 0
-20.534512 28.8873 2.8933206 7 3207019490024 1 0
-17.714357 27.700058 -1.1481935 5 3207019492328 1 0
-17.040575 19.598045 -1.0580636 3 3207019490024 1 0
0 0 0 9 3207019492328 1 0
-14.638373 20.604855 4.608345 7 3207019494632 1 0
-26.868486 34.154488 -1.0112022 58 3207019494632 1 0
-2.395614 3.3809438 -1.9322107 4 3207019515368 1 0
-27.149736 31.320414 -0.723507 49 3207019515368 1 0
-17.99417 25.4035 -0.9059956 5 3207019517672 1 0
-4.5550337 5.8069015 -2.0660255 4 3207019517672 1 0
-6.6844487 9.439912 -2.3133996 2 3207019519976 1 0
-26.924007 34.334373 0 56 3207019519976 1 0
-20.794971 32.649426 -0.45064962 4 3207019522280 1 0
-10.117196 12.905837 -2.5512607 9 3207019522280 1 0
-12.223675 17.273703 -2.6935537 10 3207019524584 1 0
0 0 0 10 3207019524584 1 0
-23.13272 32.70025 -0.23280202 5 3207019526888 1 0
-12.442297 15.881803 -2.1732132 4 3207019526888 1 0
-26.893282 34.33837 1.0149243 20 3207019529192 1 0
-9.695783 15.238399 -1.6860054 61 3207019529192 1 0
-20.76429 32.64525 0.4504168 5 3207019531496 1 0
-15.890759 20.296312 -1.8025073 3 3207019531496 1 0
-27.159023 31.408577 1.2084208 38 3207019533800 1 0
-10.989224 15.549394 -1.5543869 35 3207019533800 1 0
-23.148844 32.765472 0.70026034 7 3207019536104 1 0
-16.273895 18.82607 -1.5948452 2 3207019536104 1 0
-10.041934 15.803734 -1.0904555 2 3207019538408 1 0
-35.993675 46.015976 3.4022956 26 3207019538408 1 0
-32.602043 46.175694 2.3028922 22 3207019540712 1 0
-15.986035 20.44372 -1.2088786 3 3207019540712 1 0
-17.812376 25.236624 -1.6188558 5 3207019543016 1 0
-15.06187 19.267914 3.0028605 6 3207019543016 1 0
-20.534262 29.10243 2.9076407 7 3207019545320 1 0
-17.728128 27.937754 -1.1554525 5 3207019547624 1 0
-16.903868 19.579 -1.05383 3 3207019545320 1 0
0 0 0 9 3207019547624 1 0
-14.427128 20.460285 4.564579 10 3207019549928 1 0
-26.8436 34.37215 -1.0148312 59 3207019549928 1 0
-27.105188 31.501566 -0.7253918 21 3207019570664 1 0
-17.949593 25.537714 -0.9084392 5 3207019572968 1 0
-2.3769507 3.3808045 -1.9271393 3 3207019570664 1 0
-4.5361705 5.826531 -2.0671039 2 3207019572968 1 0
-6.6478252 9.460946 -2.3126152 2 3207019575272 1 0
-26.889889 34.54884 0 28 3207019575272 1 0
-10.082526 12.95799 -2.5543354 7 3207019577576 1 0
0 0 0 32 3207019577576 1 0
-12.001661 17.090372 -2.6581986 30 3207019579880 1 0
-27.13055 31.566313 0.24191509 34 3207019579880 1 0
-22.978325 32.73076 -0.23243006 5 3207019582184 1 0
-12.36563 15.901283 -2.1697862 16 3207019582184 1 0
-26.863518 34.55434 1.0184603 21 3207019584488 1 0
-20.592333 32.63109 0.4492061 5 3207019586792 1 0
-15.896692 20.453629 -1.811436 3 3207019586792 1 0
-10.899633 15.539336 -1.549505 36 3207019589096 1 0
-27.13594 31.607908 1.2123771 38 3207019589096 1 0
-9.60931 15.222474 -1.6804287 59 3207019584488 1 0
-16.233255 18.91376 -1.5974035 2 3207019591400 1 0
-9.775405 15.504569 -1.0674324 1 3207019593704 1 0
-22.950233 32.7292 0.69774723 7 3207019591400 1 0
-20.026936 25.7899 1.9016111 12 3207019593704 1 0
-12.608542 17.991545 0.8950717 2 3207019596008 1 0
-15.93143 20.52172 -1.2101815 3 3207019596008 1 0
-17.75168 25.337906 -1.6213679 5 3207019598312 1 0
-14.953139 19.267054 2.9945736 6 3207019598312 1 0
-13.352104 19.063765 1.9000232 3 3207019600616 1 0
-16.791485 19.58606 -1.051062 3 3207019600616 1 0
-20.590101 32.697582 -1.3493541 7 3207019602920 1 0
0 0 0 9 3207019602920 1 0
-14.358772 20.513119 4.565296 10 3207019605224 1 0
-26.800924 34.56244 -1.0177158 22 3207019605224 1 0
-2.3636515 3.3856957 -1.9254488 3 3207019625960 1 0
-26.89404 31.466627 -0.72252965 14 3207019625960 1 0
-13.347692 19.12487 -0.6787403 3 3207019628264 1 0
-4.5168242 5.8415413 -2.0671039 4 3207019628264 1 0
-6.623148 9.492589 -2.3149686 3 3207019630568 1 0
-19.859375 25.691166 0 9 3207019630568 1 0
-11.080941 17.667103 -0.24278644 19 3207019632872 1 0
-10.0395 12.991353 -2.5543354 6 3207019632872 1 0
-12.081099 17.325365 -2.688503 10 3207019635176 1 0
-27.11922 31.765623 0.24275202 27 3207019635176 1 0
-13.303655 19.08424 -0.13520835 7 3207019637480 1 0
-12.242334 15.850924 -2.157363 30 3207019637480 1 0
-9.527056 15.203633 -1.6748521 59 3207019639784 1 0
-19.847134 25.70468 0.75567985 9 3207019639784 1 0
-20.43942 32.628014 0.44822827 5 3207019642088 1 0
-15.82634 20.503073 -1.8111571 3 3207019642088 1 0
-10.80703 15.516509 -1.5436468 34 3207019644392 1 0
-27.132158 31.81637 1.2169152 33 3207019644392 1 0
0 0 0 87 3207019646696 1 0
-16.261087 19.073807 -1.6063576 2 3207019646696 1 0
-9.709106 15.513206 -1.0658045 1 3207019649000 1 0
-19.933987 25.846684 1.9009135 6 3207019649000 1 0
0 0 0 99 3207019651304 1 0
-15.997477 20.748478 -1.2204183 3 3207019651304 1 0
-13.260364 19.06141 -1.2169156 3 3207019653608 1 0
-14.830995 19.241066 2.9828742 6 3207019653608 1 0
0 0 0 19 3207019655912 1 0
-13.300195 19.124302 1.9016504 9 3207019655912 1 0
-20.331116 32.525005 -1.3394427 7 3207019658216 1 0
0 0 0 9 3207019658216 1 0
-14.315374 20.596165 4.5731883 16 3207019660520 1 0
-19.771233 25.672312 -0.7540049 9 3207019660520 1 0
-2.3565416 3.399474 -1.9288298 4 3207019681256 1 0
-27.100147 31.9215 -0.7309068 21 3207019681256 1 0
0 0 0 56 3207019683560 1 0
-4.490305 5.847388 -2.063869 4 3207019683560 1 0
-6.584656 9.505019 -2.3126152 2 3207019685864 1 0
-25.25373 32.896442 0 6 3207019685864 1 0
-11.021522 17.704233 -0.24278644 30 3207019688168 1 0
-9.99339 13.021874 -2.5537205 8 3207019688168 1 0
-12.038379 17.388868 -2.6920385 10 3207019690472 1 0
-27.11018 31.972883 0.24363542 28 3207019690472 1 0
-13.238905 19.129213 -0.13520835 15 3207019692776 1 0
-12.159504 15.854451 -2.1522224 15 3207019692776 1 0
-9.452121 15.198768 -1.6707625 57 3207019695080 1 0
-25.292498 32.98864 0.96728134 6 3207019695080 1 0
-20.262316 32.59238 0.44678476 5 3207019697384 1 0
-15.979489 20.84841 -1.8368275 3 3207019697384 1 0
-10.710628 15.491206 -1.5374631 35 3207019699688 1 0
0 0 0 43 3207019701992 1 0
-16.20814 19.14498 -1.6076367 2 3207019701992 1 0
-9.6574545 15.550114 -1.066037 1 3207019704296 1 0
-110.6591 144.51381 10.600139 28 3207019704296 1 0
-27.123562 32.02831 1.2214533 28 3207019699688 1 0
-12.545107 18.16227 0.8993052 8 3207019706600 1 0
