# .PCD v.7 - Point Cloud Data file format
VERSION .7
FIELDS x y z rgb timestamp_ns device_id active
SIZE 4 4 4 4 8 1 1
TYPE F F F F F U U
COUNT 1 1 1 1 1 1 1
WIDTH 1017
HEIGHT 1
VIEWPOINT 0 0 0 1 0 0 0
POINTS 1017               
DATA ascii
16.86362 -6.552257 -1.4769279 3 3204860225208 1 0
83.672905 -23.414377 2.5286655 38 3204860225208 1 0
28.952929 -11.254088 0.54221135 63 3204860227512 1 1
20.907454 -5.853695 -1.3914602 3 3204860227512 1 0
21.850462 -9.750928 -1.393476 5 3204860229816 1 0
69.27117 -23.109491 4.2527533 28 3204860229816 1 0
28.96375 -11.267509 1.2661593 41 3204860232120 1 1
26.428608 -8.820882 -1.2978461 8 3204860232120 1 0
25.272346 -9.835495 -1.4212352 8 3204860234424 1 0
0 0 0 1 3204860234424 1 0
0 0 0 8 3204860236728 1 0
29.668743 -8.324377 -1.2554126 4 3204860236728 1 0
29.722816 -13.283728 -1.136886 5 3204860239032 1 0
0 0 0 9 3204860239032 1 0
0 0 0 29 3204860241336 1 0
33.214867 -11.106287 -0.81495434 15 3204860241336 1 1
0 0 0 4 3204860262072 1 0
49.194645 -13.8835945 -0.8922368 9 3204860262072 1 0
29.251446 -11.44487 -0.91414094 5 3204860264376 1 1
0 0 0 1 3204860264376 1 0
7.666562 -3.0008917 -1.6466007 1 3204860266680 1 0
32.308163 -10.858253 0 52 3204860266680 1 1
28.083754 -12.612503 -0.35840568 54 3204860268984 1 1
9.669304 -3.2512624 -1.5870821 6 3204860268984 1 0
11.645328 -4.562191 -1.5919898 5 3204860271288 1 0
81.697464 -23.107786 0.49345472 79 3204860271288 1 0
28.776258 -11.278258 -0.17963463 57 3204860273592 1 1
13.222468 -4.45028 -1.5027858 6 3204860273592 1 0
32.349945 -10.893246 0.7942967 33 3204860275896 1 1
14.925542 -6.7109356 -1.5276287 13 3204860275896 1 0
19.277737 -6.494543 -1.422474 4 3204860278200 1 0
28.028992 -12.60751 0.35780033 46 3204860278200 1 1
23.757658 -14.524512 -1.4593358 4 3204863054312 1 0
0 0 0 1 3204863054312 1 0
45.449295 -27.795021 4.349094 63 3204863056616 1 0
28.569551 -13.840806 -1.2933518 4 3204863056616 1 0
29.89204 -20.357857 -1.262943 6 3204863058920 1 0
0 0 0 9 3204863058920 1 0
40.28811 -24.654745 8.611857 18 3204863061224 1 0
39.088116 -21.369095 -1.0366055 15 3204863061224 1 0
0 0 0 8 3204863081960 1 0
39.56109 -19.243975 -0.7679059 7 3204863081960 1 0
36.15543 -22.198051 -1.2347187 18 3204863084264 1 0
0 0 0 1 3204863084264 1 0
7.0088043 -4.3045416 -1.6450318 2 3204863086568 1 0
45.467655 -24.951292 0 10 3204863086568 1 0
8.973634 -4.9261613 -1.5926164 6 3204863088872 1 0
37.354416 -25.5436 -0.5268289 5 3204863088872 1 0
10.736807 -6.598441 -1.6041116 3 3204863091176 1 0
28.238848 -13.756741 0.18256383 13 3204863091176 1 1
41.01292 -25.21323 -0.27980876 17 3204863093480 1 0
12.339306 -6.77845 -1.5164942 3 3204863093480 1 0
13.773973 -9.427706 -1.5581144 3 3204863095784 1 0
0 0 0 1 3204863095784 1 0
37.33295 -25.560808 0.5267357 7 3204863098088 1 0
18.326435 -10.074349 -1.4623747 3 3204863098088 1 0
15.7375345 -9.68432 -1.5084974 4 3204863100392 1 0
51.440247 -25.096495 1.6657239 18 3204863100392 1 0
40.859863 -25.151903 0.83750606 27 3204863102696 1 0
19.96723 -9.745141 -1.4239507 3 3204863102696 1 0
20.376389 -13.964196 -1.438592 6 3204863105000 1 0
45.771057 -25.18713 3.0425313 19 3204863105000 1 0
42.373234 -26.100481 2.0275483 10 3204863107304 1 0
25.220135 -13.883043 -1.341027 4 3204863107304 1 0
23.703413 -14.605258 -1.4591265 4 3204863109608 1 0
45.346554 -24.97072 6.3562174 15 3204863109608 1 0
45.39612 -27.980694 4.353325 42 3204863111912 1 0
28.528246 -13.943958 -1.2936773 4 3204863111912 1 0
29.9032 -20.518618 -1.2664329 6 3204863114216 1 0
40.16161 -24.770437 8.603249 28 3204863116520 1 0
0 0 0 9 3204863114216 1 0
38.95025 -21.47066 -1.0349306 15 3204863116520 1 0
0 0 0 8 3204863137256 1 0
39.296204 -19.285042 -0.76406634 7 3204863137256 1 0
36.057323 -22.311499 -1.2340205 18 3204863139560 1 0
0 0 0 1 3204863139560 1 0
6.997071 -4.331045 -1.6458163 2 3204863141864 1 0
45.033787 -24.918129 0 19 3204863141864 1 0
37.281494 -25.685183 -0.5270617 5 3204863144168 1 0
8.9633 -4.961283 -1.5938462 6 3204863144168 1 0
10.713709 -6.6358795 -1.6041116 3 3204863146472 1 0
50.540714 -24.839903 0.32730374 13 3204863146472 1 0
40.805653 -25.282503 -0.2789951 8 3204863148776 1 0
12.322527 -6.825335 -1.517351 3 3204863148776 1 0
13.737701 -9.473468 -1.5577426 3 3204863151080 1 0
45.349888 -25.127508 1.2064265 18 3204863151080 1 0
37.171066 -25.641005 0.5257113 6 3204863153384 1 0
18.294647 -10.140193 -1.4626538 3 3204863153384 1 0
15.71041 -9.743398 -1.5091482 4 3204863155688 1 0
51.599854 -25.397734 1.673753 18 3204863155688 1 0
40.86358 -25.351305 0.83939093 18 3204863157992 1 0
19.947416 -9.821834 -1.424974 3 3204863157992 1 0
20.340664 -14.044313 -1.4395221 3 3204863160296 1 0
45.375584 -25.176258 3.0220664 19 3204863160296 1 0
45.378643 -28.170685 2.1760483 17 3204863162600 1 0
25.175013 -13.972932 -1.3412131 4 3204863162600 1 0
23.730335 -14.736378 -1.4639413 4 3204863164904 1 0
45.1168 -25.049843 6.3362308 30 3204863164904 1 0
45.240597 -28.103222 4.347792 42 3204863167208 1 0
28.465061 -14.036386 -1.2930261 4 3204863167208 1 0
29.864277 -20.645607 -1.267829 6 3204863169512 1 0
0 0 0 9 3204863169512 1 0
0 0 0 29 3204863171816 1 0
38.693306 -21.50547 -1.0300919 15 3204863171816 1 0
0 0 0 8 3204863192552 1 0
42.58701 -21.084816 -0.82947797 24 3204863192552 1 0
35.96226 -22.426647 -1.2334386 18 3204863194856 1 0
0 0 0 1 3204863194856 1 0
6.98191 -4.355443 -1.6458163 2 3204863197160 1 0
44.92557 -25.063482 0 19 3204863197160 1 0
37.34604 -25.922356 -0.5292502 5 3204863199464 1 0
8.939025 -4.9886885 -1.5926164 6 3204863199464 1 0
10.70731 -6.6837425 -1.6066369 3 3204863201768 1 0
50.478786 -25.02861 0.32746646 13 3204863201768 1 0
40.520367 -25.30191 -0.27764675 8 3204863204072 1 0
12.309044 -6.874124 -1.5186361 3 3204863204072 1 0
13.727445 -9.53727 -1.560345 3 3204863206376 1 0
49.51404 -27.661123 1.3197645 33 3204863206376 1 0
37.22585 -25.871035 0.52776015 14 3204863208680 1 0
18.273073 -10.211778 -1.4637698 3 3204863208680 1 0
15.696588 -9.810856 -1.511101 4 3204863210984 1 0
51.514465 -25.579475 1.6738694 9 3204863210984 1 0
40.866398 -25.551037 0.8412758 18 3204863213288 1 0
19.92731 -9.898506 -1.4259973 3 3204863213288 1 0
45.4094 -25.402729 3.0302057 19 3204863215592 1 0
20.278404 -14.106109 -1.438592 6 3204863215592 1 0
41.57672 -26.01198 1.9980762 10 3204863217896 1 0
25.119112 -14.056822 -1.3408408 4 3204863217896 1 0
23.678751 -14.819122 -1.4639413 4 3204863220200 1 0
45.164192 -25.28281 6.3552427 15 3204863220200 1 0
45.223324 -28.311743 4.3556027 42 3204863222504 1 0
28.423048 -14.139221 -1.2933518 4 3204863222504 1 0
29.818272 -20.768005 -1.2689457 6 3204863224808 1 0
0 0 0 9 3204863224808 1 0
0 0 0 29 3204863227112 1 0
38.44009 -21.540707 -1.0253462 22 3204863227112 1 0
0 0 0 8 3204863247296 1 0
0 0 0 29 3204863247296 1 0
35.86306 -22.547403 -1.2328569 18 3204863249600 1 0
0 0 0 1 3204863249600 1 0
6.9659634 -4.3809023 -1.6458163 2 3204863251904 1 0
44.523518 -25.052746 0 19 3204863251904 1 0
37.293953 -26.088053 -0.52985555 5 3204863254208 1 0
8.927678 -5.0251007 -1.5938462 6 3204863254208 1 0
10.682937 -6.722631 -1.6066369 3 3204863256512 1 0
0 0 0 5 3204863256512 1 0
40.076233 -25.227177 -0.27522898 8 3204863258816 1 0
12.290948 -6.92265 -1.519493 3 3204863258816 1 0
13.689553 -9.584638 -1.5599732 3 3204863261120 1 0
51.176445 -28.833502 1.3668491 23 3204863261120 1 0
44.64436 -31.266607 0.63453215 9 3204863263424 1 0
18.253428 -10.287551 -1.465165 3 3204863263424 1 0
15.681335 -9.880161 -1.5130538 4 3204863265728 1 0
42.581665 -21.335705 1.3861058 14 3204863265728 1 0
40.841824 -25.74063 0.842672 36 3204863268032 1 0
19.895119 -9.971964 -1.4262531 3 3204863268032 1 0
20.247217 -14.19262 -1.4399873 6 3204863270336 1 0
45.38393 -25.602976 3.0346243 19 3204863270336 1 0
41.28374 -26.03509 1.9884692 10 3204863272640 1 0
25.054634 -14.138933 -1.3400964 4 3204863272640 1 0
23.635714 -14.910141 -1.4645694 4 3204863274944 1 0
0 0 0 1 3204863274944 1 0
45.23995 -28.547503 4.366994 42 3204863277248 1 0
28.375952 -14.242413 -1.2935145 4 3204863277248 1 0
29.760439 -20.885609 -1.2696437 6 3204863279552 1 0
0 0 0 9 3204863279552 1 0
0 0 0 29 3204863281856 1 0
38.272724 -21.626118 -1.0229268 22 3204863281856 1 0
0 0 0 8 3204863302592 1 0
42.038742 -21.18007 -0.82165927 24 3204863302592 1 0
35.771038 -22.65577 -1.232275 17 3204863304896 1 0
0 0 0 1 3204863304896 1 0
6.954647 -4.4061785 -1.6466007 2 3204863307200 1 0
44.123196 -25.021343 0 9 3204863307200 1 0
37.8737 -26.682322 -0.5393547 11 3204863309504 1 0
8.907417 -5.0529227 -1.5932313 6 3204863309504 1 0
42.56063 -21.474064 0.27706555 19 3204863311808 1 0
10.660388 -6.75833 -1.6066369 4 3204863311808 1 0
12.264213 -6.9618526 -1.5190645 3 3204863314112 1 0
39.663776 -25.153597 -0.27297395 8 3204863314112 1 0
13.663783 -9.635168 -1.5607167 3 3204863316416 1 0
51.14883 -29.044773 1.3687102 23 3204863316416 1 0
44.594395 -31.455942 0.63532376 19 3204863318720 1 0
18.236032 -10.358807 -1.4665601 3 3204863318720 1 0
15.658006 -9.939428 -1.5140301 4 3204863321024 1 0
42.555824 -21.502708 1.3876184 21 3204863321024 1 0
42.651993 -27.083443 0.881905 9 3204863323328 1 0
19.871971 -10.044586 -1.4270207 5 3204863323328 1 0
20.202267 -14.263456 -1.4402199 6 3204863325632 1 0
45.522537 -25.884928 3.0497406 19 3204863325632 1 0
40.992683 -26.046541 1.9786994 10 3204863327936 1 0
25.020365 -14.231842 -1.3408408 4 3204863327936 1 0
23.601688 -15.00121 -1.4656161 4 3204863330240 1 0
0 0 0 1 3204863330240 1 0
45.19615 -28.735859 4.3722014 42 3204863332544 1 0
28.312948 -14.33189 -1.2928632 4 3204863332544 1 0
29.770487 -21.044895 -1.2731336 6 3204863334848 1 0
0 0 0 9 3204863334848 1 0
0 0 0 29 3204863337152 1 0
37.989937 -21.638332 -1.0173436 14 3204863337152 1 0
0 0 0 8 3204863357888 1 0
41.42975 -21.054892 -0.81118786 24 3204863357888 1 0
35.661404 -22.761135 -1.2312278 17 3204863360192 1 0
0 0 0 1 3204863360192 1 0
6.945836 -4.4346495 -1.6481698 1 3204863362496 1 0
43.674442 -24.968742 0 9 3204863362496 1 0
37.636814 -26.712503 -0.53730583 5 3204863364800 1 0
8.893156 -5.0859466 -1.5938462 6 3204863364800 1 0
41.797405 -21.272345 0.27257875 28 3204863367104 1 0
10.643419 -6.799773 -1.6076471 3 3204863367104 1 0
39.407207 -25.184198 -0.27181157 8 3204863369408 1 0
13.630067 -9.682804 -1.5607167 3 3204863371712 1 0
46.084362 -26.382082 1.2356449 28 3204863371712 1 0
41.973843 -29.827421 0.59946924 8 3204863374016 1 0
18.217075 -10.432314 -1.4679552 3 3204863374016 1 0
12.253643 -7.0125217 -1.5207781 3 3204863369408 1 0
51.575073 -26.286371 1.684691 18 3204863376320 1 0
15.636649 -10.002618 -1.515332 4 3204863376320 1 0
44.059647 -28.193575 0.9130401 21 3204863378624 1 0
19.861683 -10.126583 -1.4288114 5 3204863378624 1 0
20.15561 -14.336203 -1.4404523 3 3204863380928 1 0
40.682735 -26.049387 1.9681156 10 3204863383232 1 0
45.421513 -26.037716 3.0490427 19 3204863380928 1 0
23.555908 -15.087813 -1.4660348 4 3204863385536 1 0
24.977467 -14.323069 -1.3412131 4 3204863383232 1 0
0 0 0 1 3204863385536 1 0
45.21641 -28.970875 4.383918 43 3204863387840 1 0
29.722897 -21.167236 -1.2742504 6 3204863390144 1 0
28.276985 -14.437903 -1.2935145 4 3204863387840 1 0
0 0 0 9 3204863390144 1 0
0 0 0 29 3204863392448 1 0
37.77199 -21.689167 -1.0135285 14 3204863392448 1 0
0 0 0 8 3204863413184 1 0
40.996536 -21.015116 -0.80413705 39 3204863413184 1 0
35.50439 -22.835732 -1.2285514 17 3204863415488 1 0
0 0 0 1 3204863415488 1 0
6.9270153 -4.4567456 -1.6473852 2 3204863417792 1 0
43.226593 -24.913315 0 9 3204863417792 1 0
0 0 0 28 3204863420096 1 0
8.882196 -5.120907 -1.595076 5 3204863420096 1 0
10.619619 -6.836884 -1.6076471 3 3204863422400 1 0
41.79051 -21.452822 0.27302045 28 3204863422400 1 0
38.888607 -25.04439 -0.26883587 8 3204863424704 1 0
12.23598 -7.059227 -1.5216348 3 3204863424704 1 0
13.615617 -9.74423 -1.5629475 3 3204863427008 1 0
45.687202 -26.366886 1.2274563 28 3204863427008 1 0
41.417408 -29.65013 0.5929968 8 3204863429312 1 0
18.187462 -10.49983 -1.4685133 5 3204863429312 1 0
51.55768 -26.504631 1.6871346 28 3204863431616 1 0
15.6116905 -10.063619 -1.5163083 4 3204863431616 1 0
41.433353 -26.717329 0.86054325 18 3204863433920 1 0
19.836863 -10.201328 -1.4295789 5 3204863433920 1 0
20.118427 -14.415775 -1.4413826 3 3204863436224 1 0
45.40641 -26.240065 3.0541592 19 3204863436224 1 0
40.47402 -26.115396 1.9624165 10 3204863438528 1 0
24.937695 -14.416168 -1.3417715 4 3204863438528 1 0
23.499743 -15.16778 -1.4658254 4 3204863440832 1 0
0 0 0 1 3204863440832 1 0
45.25568 -29.219358 4.397587 43 3204863443136 1 0
28.25484 -14.55116 -1.2948172 4 3204863443136 1 0
29.671564 -21.287172 -1.2752277 6 3204863445440 1 0
0 0 0 9 3204863445440 1 0
0 0 0 29 3204863447744 1 0
37.63376 -21.784822 -1.0118536 21 3204863447744 1 0
0 0 0 8 3204863468480 1 0
40.876747 -21.134214 -0.8032296 39 3204863468480 1 0
35.40769 -22.948654 -1.2279696 17 3204863470784 1 0
0 0 0 1 3204863470784 1 0
6.914707 -4.4830317 -1.6481698 2 3204863473088 1 0
42.918015 -24.935446 0 9 3204863473088 1 0
0 0 0 28 3204863475392 1 0
8.86085 -5.149894 -1.5944611 7 3204863475392 1 0
10.5923605 -6.8717523 -1.607142 3 3204863477696 1 0
38.740555 -25.140789 -0.26841742 8 3204863480000 1 0
41.81838 -21.651901 0.27369463 28 3204863477696 1 0
12.21814 -7.1058946 -1.5224917 3 3204863480000 1 0
13.58152 -9.791698 -1.5629475 3 3204863482304 1 0
45.37367 -26.397505 1.221501 46 3204863482304 1 0
37.706215 -27.192913 0.54121727 7 3204863484608 1 0
18.161045 -10.569274 -1.4693503 3 3204863484608 1 0
15.603213 -10.1354265 -1.518912 4 3204863486912 1 0
51.560684 -26.73413 1.6902764 28 3204863486912 1 0
41.561176 -27.005615 0.8651507 9 3204863489216 1 0
19.815306 -10.277862 -1.4306022 5 3204863489216 1 0
20.093887 -14.504611 -1.443243 3 3204863491520 1 0
51.297592 -29.883884 3.4574113 82 3204863491520 1 0
40.047543 -26.038658 1.9461336 10 3204863493824 1 0
24.890675 -14.50514 -1.3419576 4 3204863493824 1 0
23.443304 -15.2475395 -1.4656161 4 3204863496128 1 0
0 0 0 1 3204863496128 1 0
45.203537 -29.409763 4.4024687 43 3204863498432 1 0
29.616516 -21.404665 -1.2760652 6 3204863500736 1 0
28.221611 -14.65891 -1.2956313 4 3204863498432 1 0
0 0 0 9 3204863500736 1 0
0 0 0 29 3204863503040 1 0
37.44351 -21.849546 -1.0087829 21 3204863503040 1 0
0 0 0 8 3204863523776 1 0
40.6857 -21.21575 -0.80092585 23 3204863523776 1 0
35.33406 -23.076483 -1.2282023 17 3204863526080 1 0
0 0 0 1 3204863526080 1 0
6.8990164 -4.5071416 -1.6481698 2 3204863528384 1 0
42.854874 -25.099257 0 9 3204863528384 1 0
8.8462305 -5.182791 -1.595076 6 3204863530688 1 0
10.578273 -6.9151983 -1.6086571 3 3204863532992 1 0
0 0 0 28 3204863530688 1 0
41.831184 -21.84403 0.27427584 28 3204863532992 1 0
38.716167 -25.31746 -0.26885912 8 3204863535296 1 0
12.193261 -7.1485004 -1.5224917 3 3204863535296 1 0
13.560148 -9.848409 -1.5644345 3 3204863537600 1 0
45.771072 -26.84299 1.2347144 9 3204863537600 1 0
40.759613 -29.61178 0.5865243 8 3204863539904 1 0
18.148132 -10.646737 -1.4713036 5 3204863539904 1 0
51.552082 -26.958416 1.6930691 28 3204863542208 1 0
45.27772 -29.645844 0.9446639 34 3204863544512 1 0
19.796995 -10.356219 -1.4318814 5 3204863544512 1 0
20.036674 -14.569966 -1.442778 3 3204863546816 1 0
45.370182 -26.64337 3.064159 20 3204863546816 1 0
15.5710745 -10.192014 -1.5192374 4 3204863542208 1 0
39.67559 -25.994308 1.932456 10 3204863549120 1 0
24.833 -14.58789 -1.3415854 4 3204863549120 1 0
23.409983 -15.342417 -1.4668722 4 3204863551424 1 0
46.514263 -27.333426 6.62433 19 3204863551424 1 0
45.230633 -29.65262 4.4151616 43 3204863553728 1 0
28.166729 -14.755478 -1.2954684 4 3204863553728 1 0
29.554546 -21.517326 -1.2766236 6 3204863556032 1 0
0 0 0 9 3204863556032 1 0
0 0 0 29 3204863558336 1 0
37.246372 -21.909153 -1.005526 21 3204863558336 1 0
0 0 0 8 3204863579072 1 0
40.579536 -21.340885 -0.80029756 23 3204863579072 1 0
35.233593 -23.18598 -1.2275041 17 3204863581376 1 0
0 0 0 1 3204863581376 1 0
6.8800974 -4.528839 -1.6473852 2 3204863583680 1 0
36.570328 -26.728695 -0.52734107 5 3204863585984 1 0
8.831716 -5.215263 -1.595691 6 3204863585984 1 0
10.551161 -6.9492846 -1.6081522 3 3204863588288 1 0
41.851517 -22.037806 0.2749035 28 3204863588288 1 0
42.781513 -25.255585 0 9 3204863583680 1 0
38.228584 -25.185572 -0.2660694 7 3204863590592 1 0
13.526551 -9.894502 -1.5644345 3 3204863592896 1 0
45.077 -26.642538 1.2184303 18 3204863592896 1 0
40.755867 -29.820593 0.58792126 8 3204863595200 1 0
18.118818 -10.712238 -1.4718616 5 3204863595200 1 0
15.553237 -10.25547 -1.5208647 4 3204863597504 1 0
51.563393 -27.186293 1.6964436 18 3204863597504 1 0
12.161909 -7.186088 -1.5216348 3 3204863590592 1 0
45.25465 -29.848444 0.94626945 34 3204863599808 1 0
19.76915 -10.426397 -1.4323931 5 3204863599808 1 0
20.084476 -14.70769 -1.4497546 6 3204863602112 1 0
45.11584 -26.69738 3.0529962 19 3204863602112 1 0
39.452026 -26.03605 1.92578 10 3204863604416 1 0
24.81178 -14.686801 -1.3430743 4 3204863604416 1 0
23.36231 -15.422163 -1.4670815 4 3204863606720 1 0
46.279884 -27.402565 6.603856 19 3204863606720 1 0
45.18239 -29.834743 4.4200435 44 3204863609024 1 0
28.146132 -14.863322 -1.2967712 4 3204863609024 1 0
29.551363 -21.663992 -1.2795552 6 3204863611328 1 0
0 0 0 9 3204863611328 1 0
0 0 0 29 3204863613632 1 0
37.10567 -21.990149 -1.003665 14 3204863613632 1 0
0 0 0 8 3204863634368 1 0
40.660717 -21.546917 -0.8032296 23 3204863634368 1 0
35.013416 -23.20015 -1.2223842 17 3204863636672 1 0
0 0 0 1 3204863636672 1 0
6.878714 -4.559399 -1.6505231 2 3204863638976 1 0
42.690536 -25.385592 0 9 3204863638976 1 0
0 0 0 14 3204863641280 1 0
8.814944 -5.24356 -1.595691 6 3204863641280 1 0
49.602657 -26.32425 0.32637382 26 3204863643584 1 0
10.541894 -6.9920897 -1.6101724 3 3204863643584 1 0
37.963196 -25.18808 -0.26479077 7 3204863645888 1 0
12.14532 -7.229653 -1.5224917 3 3204863645888 1 0
13.500513 -9.943439 -1.5651782 3 3204863648192 1 0
45.006752 -26.800138 1.2188954 9 3204863648192 1 0
40.20015 -29.617804 0.58130914 25 3204863650496 1 0
18.10057 -10.78208 -1.4732567 5 3204863650496 1 0
15.532427 -10.315812 -1.5221666 4 3204863652800 1 0
51.543568 -27.394663 1.6987709 18 3204863652800 1 0
45.251373 -30.063517 0.948294 23 3204863655104 1 0
19.741287 -10.496076 -1.4329047 5 3204863655104 1 0
20.067085 -14.798787 -1.4520801 6 3204863657408 1 0
44.720642 -26.666788 3.0322988 38 3204863657408 1 0
39.22397 -26.07638 1.9189413 10 3204863659712 1 0
24.765408 -14.772667 -1.3432605 4 3204863659712 1 0
23.322992 -15.510432 -1.4679189 4 3204863662016 1 0
0 0 0 1 3204863662016 1 0
45.20607 -30.073238 4.432411 44 3204863664320 1 0
28.080946 -14.952128 -1.2961198 4 3204863664320 1 0
0 0 0 9 3204863666624 1 0
0 0 0 29 3204863668928 1 0
37.0017 -22.102324 -1.0029205 14 3204863668928 1 0
0 0 0 8 3204863689664 1 0
41.12815 -21.98807 -0.81405 24 3204863689664 1 0
34.91186 -23.316711 -1.2218025 17 3204863691968 1 0
29.505455 -21.787098 -1.2808115 6 3204863666624 1 0
0 0 0 1 3204863691968 1 0
6.852306 -4.5778437 -1.6481698 2 3204863694272 1 0
42.587658 -25.534481 0 27 3204863694272 1 0
32.833405 -24.343142 -0.47584093 13 3204863696576 1 0
8.799287 -5.277482 -1.5963058 39 3204863696576 1 0
10.519904 -7.032274 -1.6106775 3 3204863698880 1 0
49.644913 -26.57662 0.3272805 26 3204863698880 1 0
37.702885 -25.210905 -0.26360515 7 3204863701184 1 0
12.126089 -7.277331 -1.5233485 3 3204863701184 1 0
13.480842 -10.003545 -1.567037 3 3204863703488 1 0
45.75057 -27.46527 1.2416934 9 3204863703488 1 0
40.12647 -29.784702 0.5817748 25 3204863705792 1 0
18.062037 -10.84651 -1.4732567 5 3204863705792 1 0
15.508973 -10.379739 -1.5234684 4 3204863708096 1 0
51.541172 -27.628412 1.7019126 18 3204863708096 1 0
45.25783 -30.298906 0.9506675 35 3204863710400 1 0
19.756836 -10.594078 -1.4367422 5 3204863710400 1 0
19.995642 -14.855038 -1.4506849 6 3204863712704 1 0
44.40062 -26.688251 3.0169501 57 3204863712704 1 0
38.860043 -26.031313 1.9055892 10 3204863715008 1 0
24.710049 -14.857325 -1.3430743 4 3204863715008 1 0
23.252117 -15.580632 -1.4668722 4 3204863717312 1 0
45.04199 -27.090714 6.453713 17 3204863717312 1 0
45.233723 -30.318987 4.4454293 44 3204863719616 1 0
28.046408 -15.059103 -1.296934 4 3204863719616 1 0
29.445898 -21.901031 -1.2815095 6 3204863721920 1 0
0 0 0 9 3204863721920 1 0
36.91844 -22.225613 -1.0027344 14 3204863724224 1 0
0 0 0 29 3204863724224 1 0
0 0 0 8 3204863744960 1 0
41.231045 -22.2192 -0.8175405 24 3204863744960 1 0
34.867355 -23.454926 -1.2229661 17 3204863747264 1 0
6.8337665 -4.5984516 -1.6473852 2 3204863749568 1 0
0 0 0 1 3204863747264 1 0
41.84159 -25.276997 0 9 3204863749568 1 0
32.591717 -24.332958 -0.4735127 27 3204863751872 1 0
8.757942 -5.292515 -1.5920014 73 3204863751872 1 0
10.502903 -7.0718584 -1.6116877 3 3204863754176 1 0
49.58037 -26.755842 0.3274432 13 3204863754176 1 0
37.356064 -25.160635 -0.26176858 7 3204863756480 1 0
12.105027 -7.32 -1.5237768 3 3204863756480 1 0
13.456727 -10.055933 -1.5681523 3 3204863758784 1 0
45.421944 -27.476011 1.2352728 28 3204863758784 1 0
38.536278 -28.806095 0.5601224 7 3204863761088 1 0
18.042482 -10.917593 -1.4746518 5 3204863761088 1 0
15.480472 -10.436469 -1.5241193 4 3204863763392 1 0
51.500416 -27.830683 1.703658 28 3204863763392 1 0
42.349915 -28.56 0.89160854 20 3204863765696 1 0
19.734945 -10.66842 -1.4377655 3 3204863765696 1 0
19.97396 -14.944244 -1.4527779 6 3204863768000 1 0
44.012768 -26.658579 2.9967177 55 3204863768000 1 0
38.86749 -26.227968 1.9103112 10 3204863770304 1 0
23.228754 -15.679792 -1.4687563 4 3204863772608 1 0
24.656033 -14.939087 -1.3428882 4 3204863770304 1 0
45.068363 -27.315876 6.4707747 17 3204863772608 1 0
45.176308 -30.50432 4.449986 44 3204863774912 1 0
27.994883 -15.154673 -1.296934 4 3204863774912 1 0
29.418861 -22.037498 -1.2836034 13 3204863777216 1 0
0 0 0 9 3204863777216 1 0
0 0 0 29 3204863779520 1 0
36.831844 -22.345713 -1.0024552 14 3204863779520 1 0
0 0 0 8 3204863800256 1 0
42.787277 -23.250938 -0.850002 16 3204863800256 1 0
34.7621 -23.560791 -1.2221515 17 3204863802560 1 0
0 0 0 1 3204863802560 1 0
6.827413 -4.628881 -1.6497387 2 3204863804864 1 0
42.036674 -25.59556 0 18 3204863804864 1 0
8.736039 -5.320997 -1.5913866 101 3204863807168 1 0
32.3883 -24.357628 -0.4717898 17 3204863807168 1 0
10.478154 -7.108477 -1.6116877 3 3204863809472 1 0
49.546402 -26.961248 0.32783842 26 3204863809472 1 0
37.291176 -25.306602 -0.26193133 7 3204863811776 1 0
12.079402 -7.3622103 -1.5237768 4 3204863811776 1 0
13.46609 -10.136376 -1.5733572 3 3204863814080 1 0
45.30527 -27.621906 1.2347144 19 3204863814080 1 0
38.2949 -28.834578 0.5580735 23 3204863816384 1 0
18.021296 -10.990894 -1.476047 5 3204863816384 1 0
15.447245 -10.492682 -1.5244448 4 3204863818688 1 0
42.329353 -28.7616 0.89328396 20 3204863820992 1 0
51.287094 -27.947151 1.6998181 9 3204863818688 1 0
19.896162 -14.994649 -1.4509174 6 3204863823296 1 0
19.711605 -10.7448845 -1.4387888 3 3204863820992 1 0
43.70813 -26.683046 2.9822993 55 3204863823296 1 0
38.574085 -26.226406 1.9003787 10 3204863825600 1 0
23.183788 -15.767519 -1.4693843 4 3204863827904 1 0
24.620785 -15.035474 -1.3438189 4 3204863825600 1 0
0 0 0 1 3204863827904 1 0
45.201405 -30.75153 4.463004 45 3204863830208 1 0
29.40877 -22.190619 -1.286535 13 3204863832512 1 0
27.959352 -15.261875 -1.2977481 4 3204863830208 1 0
0 0 0 9 3204863832512 1 0
0 0 0 29 3204863834816 1 0
36.753616 -22.474144 -1.0024552 14 3204863834816 1 0
0 0 0 8 3204863855552 1 0
43.105698 -23.61924 -0.8579603 25 3204863855552 1 0
34.659836 -23.66846 -1.2214533 17 3204863857856 1 0
0 0 0 1 3204863857856 1 0
6.807975 -4.6504726 -1.6489542 2 3204863860160 1 0
44.142612 -27.0895 0 9 3204863860160 1 0
32.15961 -24.361853 -0.46969444 4 3204863862464 1 0
8.72078 -5.353527 -1.5920014 101 3204863862464 1 0
10.463104 -7.1517267 -1.6132028 3 3204863864768 1 0
45.408722 -24.915516 0.30103388 11 3204863864768 1 0
37.28516 -25.49306 -0.2625125 15 3204863867072 1 0
12.053629 -7.4043303 -1.5237768 3 3204863867072 1 0
13.4338 -10.185727 -1.5737289 3 3204863869376 1 0
45.77756 -28.129513 1.2502542 19 3204863869376 1 0
32.8306 -24.900219 0.47970575 5 3204863871680 1 0
17.996418 -11.062092 -1.4771631 5 3204863871680 1 0
15.426974 -10.557797 -1.526072 4 3204863873984 1 0
45.375774 -24.931793 1.5067734 24 3204863873984 1 0
39.232166 -26.857796 0.8298968 27 3204863876288 1 0
19.680975 -10.817471 -1.4393004 3 3204863876288 1 0
43.298428 -26.640842 2.9606714 54 3204863878592 1 0
19.840519 -15.061593 -1.4506849 6 3204863878592 1 0
38.38998 -26.297651 1.8958194 10 3204863880896 1 0
24.581762 -15.129703 -1.3445634 4 3204863880896 1 0
23.135199 -15.852865 -1.469803 4 3204863883200 1 0
0 0 0 1 3204863883200 1 0
27.930418 -15.372869 -1.2988878 4 3204863885504 1 0
45.159554 -30.954205 4.4695134 45 3204863885504 1 0
29.369322 -22.322166 -1.2882103 13 3204863887808 1 0
0 0 0 9 3204863887808 1 0
0 0 0 29 3204863890112 1 0
36.65792 -22.591812 -1.00199 14 3204863890112 1 0
43.071995 -23.79664 -0.8589376 25 3204863911296 1 0
0 0 0 8 3204863911296 1 0
34.59677 -23.802898 -1.2221515 17 3204863913600 1 0
0 0 0 1 3204863913600 1 0
6.794931 -4.676432 -1.6497387 2 3204863915904 1 0
40.90443 -25.299267 0 8 3204863915904 1 0
32.05212 -24.456978 -0.4693685 8 3204863918208 1 0
8.708762 -5.388095 -1.5932313 66 3204863918208 1 0
10.434809 -7.1859555 -1.6126977 3 3204863920512 1 0
44.932976 -24.858934 0.2984534 11 3204863920512 1 0
37.26512 -25.670706 -0.26300073 7 3204863922816 1 0
13.398163 -10.232557 -1.5737289 3 3204863925120 1 0
45.328915 -28.072271 1.2406698 9 3204863925120 1 0
32.59092 -24.898117 0.47747067 5 3204863927424 1 0
17.96787 -11.131147 -1.4780002 5 3204863927424 1 0
15.396591 -10.61611 -1.526723 4 3204863929728 1 0
51.22714 -28.380085 1.7043562 9 3204863929728 1 0
12.02771 -7.44636 -1.5237768 3 3204863922816 1 0
38.96698 -26.8765 0.8262667 26 3204863932032 1 0
19.660551 -10.89578 -1.4405797 3 3204863932032 1 0
19.800512 -15.14046 -1.4516151 6 3204863934336 1 0
42.987972 -26.657135 2.945788 52 3204863934336 1 0
38.126904 -26.31345 1.8873523 10 3204863936640 1 0
24.52201 -15.211204 -1.3441911 4 3204863936640 1 0
23.148752 -15.981183 -1.4741992 4 3204863938944 1 0
0 0 0 1 3204863938944 1 0
27.869598 -15.466392 -1.2985623 4 3204863941248 1 0
45.162766 -31.188679 4.480579 45 3204863941248 1 0
29.281702 -22.41726 -1.2877914 13 3204863943552 1 0
0 0 0 29 3204863945856 1 0
0 0 0 9 3204863943552 1 0
36.582237 -22.721743 -1.0020831 14 3204863945856 1 0
0 0 0 8 3204863966592 1 0
43.04457 -23.977983 -0.8600546 25 3204863966592 1 0
34.5069 -23.918964 -1.2219188 8 3204863968896 1 0
6.7721195 -4.6956525 -1.6481698 2 3204863971200 1 0
0 0 0 1 3204863968896 1 0
0 0 0 11 3204863971200 1 0
0 0 0 32 3204863973504 1 0
0 0 0 19 3204863973504 1 0
10.419442 -7.229122 -1.614213 3 3204863975808 1 0
37.300156 -25.887291 -0.26388413 7 3204863978112 1 0
44.5001 -24.82272 0.29615188 11 3204863975808 1 0
12.005018 -7.4904046 -1.5242052 4 3204863978112 1 0
13.371833 -10.286549 -1.5748442 3 3204863980416 1 0
42.906868 -26.779959 1.1769288 8 3204863980416 1 0
32.421394 -24.948309 0.47626 5 3204863982720 1 0
15.372538 -10.678887 -1.5280248 4 3204863985024 1 0
17.935677 -11.198026 -1.4785582 5 3204863982720 1 0
51.263897 -28.63477 1.7088944 19 3204863985024 1 0
38.669296 -26.870857 0.8219385 26 3204863987328 1 0
19.639822 -10.974076 -1.4418588 3 3204863987328 1 0
19.747541 -15.209485 -1.4516151 6 3204863989632 1 0
42.603436 -26.625027 2.9257882 51 3204863989632 1 0
37.83137 -26.304914 1.877257 9 3204863991936 1 0
24.539913 -15.341188 -1.3480997 4 3204863991936 1 0
23.082989 -16.055048 -1.4735712 4 3204863994240 1 0
0 0 0 1 3204863994240 1 0
45.194344 -31.444042 4.4945736 46 3204863996544 1 0
27.811953 -15.561628 -1.2983994 4 3204863996544 1 0
29.222267 -22.533981 -1.288629 13 3204863998848 1 0
0 0 0 9 3204863998848 1 0
0 0 0 29 3204864001152 1 0
36.5027 -22.8493 -1.0020831 14 3204864001152 1 0
0 0 0 8 3204864021888 1 0
42.929226 -24.110466 -0.8594263 25 3204864021888 1 0
34.403526 -24.025534 -1.2212206 8 3204864024192 1 0
0 0 0 1 3204864024192 1 0
6.755687 -4.719263 -1.6481698 2 3204864026496 1 0
0 0 0 3 3204864026496 1 0
31.709808 -24.547932 -0.466854 65 3204864028800 1 0
8.694361 -5.4634824 -1.5975356 8 3204864028800 1 0
10.403901 -7.2722683 -1.6157281 3 3204864031104 1 0
38.022533 -26.58577 -0.26964954 8 3204864033408 1 0
44.06454 -24.78183 0.29382712 11 3204864031104 1 0
11.9686985 -7.5259132 -1.52292 3 3204864033408 1 0
13.338993 -10.335602 -1.575216 2 3204864035712 1 0
42.603256 -26.79756 1.1711595 8 3204864035712 1 0
32.293015 -25.029476 0.47565466 5 3204864038016 1 0
17.916742 -11.273315 -1.4802324 3 3204864038016 1 0
15.338434 -10.734768 -1.5283502 4 3204864040320 1 0
51.20892 -28.839046 1.710407 19 3204864040320 1 0
38.388515 -26.874937 0.81795937 26 3204864042624 1 0
19.706951 -15.288115 -1.4525453 6 3204864044928 1 0
19.615307 -11.050403 -1.4428821 3 3204864042624 1 0
42.300743 -26.641636 2.9113696 51 3204864044928 1 0
37.57565 -26.322157 1.8691155 9 3204864047232 1 0
24.499735 -15.435275 -1.3488442 4 3204864047232 1 0
23.03989 -16.144693 -1.4744085 4 3204864049536 1 0
0 0 0 1 3204864049536 1 0
45.1496 -31.647375 4.5010824 46 3204864051840 1 0
27.743538 -15.650761 -1.2977481 4 3204864051840 1 0
29.140274 -22.633396 -1.2884895 13 3204864054144 1 0
0 0 0 9 3204864054144 1 0
36.415955 -22.972313 -1.001897 14 3204864056448 1 0
0 0 0 29 3204864056448 1 0
0 0 0 8 3204864077184 1 0
0 0 0 21 3204864077184 1 0
34.31601 -24.143427 -1.2211043 8 3204864079488 1 0
0 0 0 1 3204864079488 1 0
6.7423115 -4.7451715 -1.6489542 2 3204864081792 1 0
42.248974 -26.747412 0 9 3204864081792 1 0
0 0 0 56 3204864084096 1 0
8.678455 -5.496102 -1.5981506 49 3204864084096 1 0
43.716084 -24.788795 0.29208353 10 3204864086400 1 0
37.57864 -26.473223 -0.26716205 7 3204864088704 1 0
10.37824 -7.308842 -1.6157281 3 3204864086400 1 0
11.952158 -7.5744667 -1.5242052 4 3204864088704 1 0
13.3118 -10.390033 -1.5763314 3 3204864091008 1 0
42.214443 -26.761688 1.163064 8 3204864091008 1 0
32.084366 -25.050152 0.4738852 5 3204864093312 1 0
17.893555 -11.347383 -1.4816275 5 3204864093312 1 0
15.313273 -10.798325 -1.5296521 4 3204864095616 1 0
51.238373 -29.09562 1.7148288 9 3204864095616 1 0
19.596712 -11.131917 -1.4444171 3 3204864097920 1 0
38.096615 -26.872961 0.81377083 26 3204864097920 1 0
19.65235 -15.358241 -1.4525453 6 3204864100224 1 0
41.915607 -26.60815 2.8913698 49 3204864100224 1 0
37.298573 -26.327093 1.859997 9 3204864102528 1 0
24.464705 -15.535508 -1.3499609 4 3204864102528 1 0
22.988504 -16.231634 -1.4748273 4 3204864104832 1 0
0 0 0 1 3204864104832 1 0
45.15959 -31.896442 4.51345 46 3204864107136 1 0
27.680302 -15.746174 -1.2974224 4 3204864107136 1 0
29.07137 -22.74779 -1.2890478 13 3204864109440 1 0
0 0 0 9 3204864109440 1 0
0 0 0 29 3204864111744 1 0
36.3364 -23.105398 -1.00199 14 3204864111744 1 0
42.897987 -24.498358 -0.8622885 8 3204864132480 1 0
34.097176 -24.176037 -1.2164497 17 3204864134784 1 0
0 0 0 1 3204864134784 1 0
6.7282124 -4.771925 -1.6497387 2 3204864137088 1 0
42.00645 -26.808325 0 9 3204864137088 1 0
31.631378 -24.850122 -0.46829748 8 3204864139392 1 0
8.628511 -5.508354 -1.5926164 69 3204864139392 1 0
10.364753 -7.355415 -1.6177485 3 3204864141696 1 0
45.803535 -26.191252 0.30665982 11 3204864141696 1 0
0 0 0 8 3204864132480 1 0
37.261497 -26.450607 -0.26558122 7 3204864144000 1 0
11.918166 -7.613074 -1.5233485 4 3204864144000 1 0
13.283932 -10.44498 -1.5774467 3 3204864146304 1 0
41.92635 -26.789825 1.1577599 8 3204864146304 1 0
32.01062 -25.176683 0.47411802 5 3204864148608 1 0
17.866455 -11.419668 -1.4827436 3 3204864148608 1 0
15.287856 -10.861836 -1.5309539 4 3204864150912 1 0
45.794735 -26.219818 1.5357475 16 3204864150912 1 0
37.857964 -26.905497 0.81069916 26 3204864153216 1 0
19.623062 -11.238802 -1.4492779 3 3204864153216 1 0
19.601307 -15.429787 -1.4527779 6 3204864155520 1 0
41.48868 -26.542473 2.8683467 32 3204864155520 1 0
37.043205 -26.341862 1.8518556 9 3204864157824 1 0
24.41683 -15.625474 -1.3503332 4 3204864157824 1 0
22.938215 -16.31641 -1.475246 4 3204864160128 1 0
0 0 0 1 3204864160128 1 0
45.181625 -32.14799 4.526794 47 3204864162432 1 0
27.6462 -15.854228 -1.2983994 4 3204864162432 1 0
29.01129 -22.863132 -1.2898854 13 3204864164736 1 0
0 0 0 9 3204864164736 1 0
0 0 0 29 3204864167040 1 0
36.270004 -23.239141 -1.0023621 21 3204864167040 1 0
0 0 0 8 3204864187776 1 0
42.85464 -24.662422 -0.8630564 8 3204864187776 1 0
34.00345 -24.280176 -1.2159843 17 3204864190080 1 0
0 0 0 1 3204864190080 1 0
6.7122116 -4.7944055 -1.6497387 2 3204864192384 1 0
38.96576 -25.051601 0 8 3204864192384 1 0
31.704554 -25.08033 -0.4706257 4 3204864194688 1 0
8.609956 -5.537313 -1.5926164 72 3204864194688 1 0
10.339874 -7.390347 -1.6177485 3 3204864196992 1 0
45.569344 -26.261774 0.3056834 11 3204864196992 1 0
11.888954 -7.6512666 -1.52292 4 3204864199296 1 0
37.204185 -26.599993 -0.26581368 7 3204864199296 1 0
13.248307 -10.490129 -1.5774467 3 3204864201600 1 0
41.5424 -26.74404 1.1496644 8 3204864201600 1 0
31.927517 -25.28843 0.4741646 5 3204864203904 1 0
17.864222 -11.504433 -1.4858129 3 3204864203904 1 0
15.263451 -10.923529 -1.5322558 4 3204864206208 1 0
45.8326 -26.450798 1.5400529 8 3204864206208 1 0
37.791008 -27.054459 0.81125766 17 3204864208512 1 0
19.598032 -11.31436 -1.4503012 3 3204864208512 1 0
19.554037 -15.502507 -1.453243 6 3204864210816 1 0
41.175037 -26.54313 2.852998 48 3204864210816 1 0
36.704487 -26.29358 1.8394806 9 3204864213120 1 0
24.365725 -15.71242 -1.3505193 4 3204864213120 1 0
22.89411 -16.405687 -1.4760833 4 3204864215424 1 0
0 0 0 1 3204864215424 1 0
45.126987 -32.347973 4.532652 47 3204864217728 1 0
28.924377 -22.960133 -1.2896062 13 3204864220032 1 0
0 0 0 9 3204864220032 1 0
0 0 0 29 3204864222336 1 0
27.59738 -15.955036 -1.2987251 4 3204864217728 1 0
36.049908 -23.278246 -0.998547 21 3204864222336 1 0
42.691322 -24.777168 -0.8615904 17 3204864243072 1 0
0 0 0 8 3204864243072 1 0
33.9016 -24.394808 -1.2155188 17 3204864245376 1 0
0 0 0 1 3204864245376 1 0
6.694734 -4.81878 -1.6497387 2 3204864247680 1 0
41.36847 -26.80943 0 9 3204864247680 1 0
31.672947 -25.242348 -0.47151044 4 3204864249984 1 0
8.589846 -5.568458 -1.5926164 68 3204864249984 1 0
10.31637 -7.4299135 -1.6182536 3 3204864252288 1 0
45.44665 -26.409895 0.30549744 11 3204864252288 1 0
36.946114 -26.616573 -0.2646513 7 3204864254592 1 0
11.861391 -7.693928 -1.52292 6 3204864254592 1 0
41.372646 -26.844616 1.1476172 16 3204864256896 1 0
31.81219 -25.382082 0.47379208 5 3204864259200 1 0
17.836502 -11.576706 -1.4869289 3 3204864259200 1 0
15.247226 -10.993949 -1.534534 4 3204864261504 1 0
45.786823 -26.641436 1.5416819 8 3204864261504 1 0
40.95833 -29.541435 0.8814861 9 3204864263808 1 0
19.554472 -11.381546 -1.4500453 3 3204864263808 1 0
19.502472 -15.573728 -1.4534755 6 3204864266112 1 0
40.830208 -26.524736 2.8355563 48 3204864266112 1 0
43.366066 -31.296255 2.1788166 51 3204864268416 1 0
24.330603 -15.810794 -1.351636 4 3204864268416 1 0
13.235598 -10.557331 -1.580421 3 3204864256896 1 0
22.823748 -16.47615 -1.475246 4 3204864270720 1 0
0 0 0 1 3204864270720 1 0
45.14679 -32.600334 4.5459957 47 3204864273024 1 0
27.527939 -16.042822 -1.2980738 4 3204864273024 1 0
28.860338 -23.0726 -1.2903042 13 3204864275328 1 0
0 0 0 9 3204864275328 1 0
0 0 0 29 3204864277632 1 0
35.848785 -23.323862 -0.9951971 21 3204864277632 1 0
0 0 0 8 3204864298368 1 0
42.4294 -24.813612 -0.8579603 17 3204864298368 1 0
33.784725 -24.481533 -1.2142389 17 3204864300672 1 0
0 0 0 1 3204864300672 1 0
6.6786475 -4.841051 -1.6497387 2 3204864302976 1 0
39.081688 -25.512686 0 8 3204864302976 1 0
31.666502 -25.410511 -0.47267455 4 3204864305280 1 0
8.564592 -5.5927773 -1.5913866 66 3204864305280 1 0
10.29467 -7.466712 -1.6187587 3 3204864307584 1 0
45.39947 -26.586031 0.30577642 23 3204864307584 1 0
11.83553 -7.7336497 -1.52292 5 3204864309888 1 0
36.584717 -26.542974 -0.2626985 7 3204864309888 1 0
13.187632 -10.591764 -1.5789338 2 3204864312192 1 0
41.309 -27.00097 1.1483617 16 3204864312192 1 0
31.826326 -25.569214 0.47528213 5 3204864314496 1 0
17.830818 -11.658533 -1.4897193 3 3204864314496 1 0
15.216494 -11.05002 -1.5351849 4 3204864316800 1 0
45.186203 -26.496456 1.5244603 8 3204864316800 1 0
40.70935 -29.571648 0.8782749 9 3204864319104 1 0
19.519316 -11.449625 -1.4503012 3 3204864319104 1 0
19.455807 -15.644734 -1.4539406 6 3204864321408 1 0
40.522903 -26.520813 2.8204403 47 3204864321408 1 0
43.249832 -31.4363 2.178328 51 3204864323712 1 0
24.256708 -15.8802 -1.3505193 4 3204864323712 1 0
22.774002 -16.55843 -1.4756646 4 3204864326016 1 0
0 0 0 1 3204864326016 1 0
45.170753 -32.85261 4.559665 48 3204864328320 1 0
27.562662 -16.189245 -1.3023074 4 3204864328320 1 0
28.784422 -23.173615 -1.2904438 13 3204864330624 1 0
0 0 0 9 3204864330624 1 0
0 0 0 29 3204864332928 1 0
0 0 0 8 3204864353664 1 0
42.387318 -24.98797 -0.8588678 17 3204864353664 1 0
35.792095 -23.46186 -0.9958485 14 3204864332928 1 0
33.692604 -24.5946 -1.2140062 17 3204864355968 1 0
0 0 0 1 3204864355968 1 0
6.664876 -4.8666472 -1.6505231 2 3204864358272 1 0
40.803665 -26.840393 0 9 3204864358272 1 0
31.801586 -25.70191 -0.47602716 9 3204864360576 1 0
8.548319 -5.6248116 -1.5920014 26 3204864360576 1 0
10.28136 -7.5119653 -1.6207789 3 3204864362880 1 0
45.096275 -26.62031 0.3043583 11 3204864362880 1 0
36.475697 -26.658716 -0.26258227 7 3204864365184 1 0
11.808463 -7.774916 -1.52292 6 3204864365184 1 0
13.215605 -10.690333 -1.5867411 3 3204864367488 1 0
41.35142 -27.235184 1.1521769 16 3204864367488 1 0
31.892345 -25.805948 0.47761035 5 3204864369792 1 0
17.80001 -11.727289 -1.4905564 5 3204864369792 1 0
15.187482 -11.11013 -1.5361613 4 3204864372096 1 0
40.32831 -29.510456 0.8722713 9 3204864374400 1 0
19.489538 -11.523786 -1.4510686 3 3204864374400 1 0
19.410387 -15.720092 -1.4546384 6 3204864376704 1 0
40.176727 -26.495024 2.8027658 46 3204864376704 1 0
43.139835 -31.587078 2.178328 34 3204864379008 1 0
24.227812 -15.982377 -1.3520083 4 3204864379008 1 0
45.00739 -26.60316 1.5215513 25 3204864372096 1 0
22.7354 -16.651987 -1.4769207 4 3204864381312 1 0
0 0 0 1 3204864381312 1 0
45.097607 -33.040718 4.563896 48 3204864383616 1 0
27.495667 -16.27925 -1.3018188 4 3204864383616 1 0
28.684725 -23.258842 -1.2896062 13 3204864385920 1 0
0 0 0 9 3204864385920 1 0
0 0 0 29 3204864388224 1 0
35.78339 -23.635143 -0.99789566 21 3204864388224 1 0
0 0 0 8 3204864408960 1 0
42.237946 -25.099003 -0.85761124 17 3204864408960 1 0
0 0 0 1 3204864411264 1 0
6.641457 -4.885331 -1.6489542 2 3204864413568 1 0
39.035614 -25.873867 0 24 3204864413568 1 0
31.2086 -25.404398 -0.46848375 4 3204864415872 1 0
0 0 0 13 3204864415872 1 0
10.254855 -7.5481067 -1.6207789 3 3204864418176 1 0
33.593483 -24.70283 -1.2135407 17 3204864411264 1 0
44.68262 -26.588646 0.30219626 11 3204864418176 1 0
33.015476 -24.30888 -0.23828846 6 3204864420480 1 0
11.777653 -7.8143177 -1.5224917 6 3204864420480 1 0
13.177739 -10.736975 -1.5867411 2 3204864422784 1 0
41.294888 -27.407698 1.1532935 16 3204864422784 1 0
31.08456 -25.335014 0.466854 10 3204864425088 1 0
17.771664 -11.799084 -1.4916724 5 3204864425088 1 0
15.151168 -11.166324 -1.5364867 4 3204864427392 1 0
47.14528 -28.093075 1.5971867 8 3204864427392 1 0
0 0 0 6 3204864429696 1 0
19.46558 -11.603239 -1.4523478 5 3204864429696 1 0
39.87919 -26.503195 2.78858 46 3204864432000 1 0
19.354248 -15.789159 -1.4546384 6 3204864432000 1 0
43.02356 -31.738543 2.1781652 34 3204864434304 1 0
24.200537 -16.088694 -1.3536835 4 3204864434304 1 0
22.675674 -16.733227 -1.4769207 4 3204864436608 1 0
0 0 0 1 3204864436608 1 0
45.116783 -33.304 4.577891 48 3204864438912 1 0
27.443989 -16.381819 -1.3021445 4 3204864438912 1 0
28.616463 -23.374386 -1.2903042 13 3204864441216 1 0
0 0 0 9 3204864441216 1 0
35.631504 -23.719482 -0.9960346 14 3204864443520 1 0
0 0 0 29 3204864443520 1 0
0 0 0 8 3204864464256 1 0
42.063335 -25.20431 -0.8559358 17 3204864464256 1 0
33.525566 -24.841965 -1.2143552 17 3204864466560 1 0
0 0 0 1 3204864466560 1 0
6.6331034 -4.9164543 -1.6513076 2 3204864468864 1 0
42.463554 -28.368773 0 9 3204864468864 1 0
30.964846 -25.392979 -0.4662021 4 3204864471168 1 0
8.521119 -5.6944366 -1.5944611 6 3204864471168 1 0
10.227563 -7.585047 -1.6207789 3 3204864473472 1 0
42.53529 -25.519066 0.28829417 10 3204864473472 1 0
11.749504 -7.856578 -1.5224917 7 3204864475776 1 0
32.748035 -24.293873 -0.23698659 5 3204864475776 1 0
13.142318 -10.786581 -1.5871129 3 3204864478080 1 0
42.406464 -28.364544 1.1871645 26 3204864478080 1 0
0 0 0 86 3204864480384 1 0
17.736137 -11.866774 -1.4922305 5 3204864480384 1 0
46.613426 -28.00079 1.582525 8 3204864482688 1 0
15.12745 -11.231905 -1.538114 4 3204864482688 1 0
40.060265 -29.752733 0.8710147 19 3204864484992 1 0
19.42787 -11.674019 -1.4526036 5 3204864484992 1 0
19.30781 -15.864788 -1.455336 6 3204864487296 1 0
39.569992 -26.498968 2.773464 45 3204864487296 1 0
24.134035 -16.16675 -1.3531251 4 3204864489600 1 0
35.38311 -26.294188 1.7960052 19 3204864489600 1 0
22.649185 -16.836107 -1.4790142 4 3204864491904 1 0
0 0 0 1 3204864491904 1 0
45.13831 -33.56292 4.5918856 48 3204864494208 1 0
27.41085 -16.49154 -1.3032843 4 3204864494208 1 0
28.523031 -23.463144 -1.2897458 13 3204864496512 1 0
0 0 0 29 3204864498816 1 0
0 0 0 9 3204864496512 1 0
35.632557 -23.897848 -0.99836093 21 3204864498816 1 0
0 0 0 8 3204864519552 1 0
41.880234 -25.283714 -0.85391134 17 3204864519552 1 0
33.443005 -24.953003 -1.2143552 8 3204864521856 1 0
0 0 0 1 3204864521856 1 0
6.616763 -4.9384236 -1.6513076 2 3204864524160 1 0
39.96654 -26.892698 0 8 3204864524160 1 0
30.445576 -25.136465 -0.45963654 8 3204864526464 1 0
8.505467 -5.7248693 -1.595076 5 3204864526464 1 0
10.2023535 -7.618921 -1.6207789 3 3204864528768 1 0
44.952755 -27.172552 0.3052882 23 3204864528768 1 0
32.529495 -24.299402 -0.23598695 5 3204864531072 1 0
11.729984 -7.899941 -1.5233485 9 3204864531072 1 0
0 0 0 14 3204864533376 1 0
42.32212 -28.511717 1.1874437 26 3204864533376 1 0
0 0 0 21 3204864535680 1 0
15.106085 -11.293943 -1.5397413 4 3204864537984 1 0
17.703308 -11.929983 -1.4927886 3 3204864535680 1 0
46.2193 -27.97303 1.5722852 8 3204864537984 1 0
38.49129 -28.786 0.8389721 18 3204864540288 1 0
19.395882 -11.742515 -1.4531153 3 3204864540288 1 0
19.32894 -15.989816 -1.4609174 6 3204864542592 1 0
39.286575 -26.498299 2.759743 45 3204864542592 1 0
35.14212 -26.296442 1.7881894 19 3204864544896 1 0
24.067041 -16.237755 -1.3523806 4 3204864544896 1 0
22.574043 -16.89676 -1.477758 4 3204864547200 1 0
0 0 0 1 3204864547200 1 0
45.08421 -33.75543 4.5977435 24 3204864549504 1 0
27.369684 -16.590635 -1.3039356 4 3204864549504 1 0
28.525116 -23.623898 -1.2933754 13 3204864551808 1 0
0 0 0 9 3204864551808 1 0
0 0 0 29 3204864554112 1 0
35.44376 -23.94201 -0.99529016 14 3204864554112 1 0
0 0 0 8 3204864575296 1 0
41.655056 -25.346592 -0.851119 16 3204864575296 1 0
33.23406 -24.978546 -1.2099335 8 3204864577600 1 0
6.6025476 -4.9639435 -1.6520921 2 3204864579904 1 0
0 0 0 1 3204864577600 1 0
41.583717 -28.193121 0 9 3204864579904 1 0
30.10799 -25.036108 -0.45586482 12 3204864582208 1 0
8.482036 -5.7524905 -1.5944611 5 3204864582208 1 0
10.178644 -7.657169 -1.621284 3 3204864584512 1 0
44.911488 -27.363905 0.30566016 35 3204864584512 1 0
32.299767 -24.305756 -0.2349408 5 3204864586816 1 0
11.698757 -7.93903 -1.52292 7 3204864586816 1 0
10.5549 -8.784653 -1.2818846 19 3204864589120 1 0
42.293877 -28.710527 1.1894909 26 3204864589120 1 0
29.749144 -24.767 0.45064962 15 3204864591424 1 0
17.670849 -11.9993305 -1.4936256 5 3204864591424 1 0
45.891052 -27.99736 1.5644889 8 3204864593728 1 0
38.155502 -28.747013 0.83387595 18 3204864596032 1 0
19.360815 -11.815574 -1.453627 3 3204864596032 1 0
15.072279 -11.352279 -1.5403922 4 3204864593728 1 0
19.277975 -16.063704 -1.4613824 6 3204864598336 1 0
38.94751 -26.472013 2.742534 44 3204864598336 1 0
34.878857 -26.29424 1.7795595 18 3204864600640 1 0
22.545336 -17.00147 -1.4798515 4 3204864602944 1 0
24.035343 -16.341558 -1.3538696 4 3204864600640 1 0
0 0 0 1 3204864602944 1 0
34.90855 -26.332554 3.5696223 12 3204864605248 1 0
27.313438 -16.690739 -1.3040985 4 3204864605248 1 0
28.446203 -23.73134 -1.2936546 13 3204864607552 1 0
0 0 0 9 3204864607552 1 0
0 0 0 29 3204864609856 1 0
35.350735 -24.064943 -0.9951041 14 3204864609856 1 0
0 0 0 8 3204864630592 1 0
40.887875 -25.075758 -0.83722687 8 3204864630592 1 0
33.149853 -25.096817 -1.2100499 8 3204864632896 1 0
0 0 0 1 3204864632896 1 0
6.58518 -4.9869604 -1.6520921 2 3204864635200 1 0
37.36297 -25.522343 0 7 3204864635200 1 0
0 0 0 20 3204864637504 1 0
8.471694 -5.788753 -1.5963058 4 3204864637504 1 0
10.145529 -7.687859 -1.6202738 3 3204864639808 1 0
43.970375 -27.001411 0.29989475 22 3204864639808 1 0
32.170097 -24.384527 -0.23461533 5 3204864642112 1 0
11.674256 -7.982063 -1.5233485 9 3204864642112 1 0
10.4936495 -8.795858 -1.2781668 34 3204864644416 1 0
42.285824 -28.921198 1.1920964 26 3204864644416 1 0
29.74833 -24.942648 0.4519534 10 3204864646720 1 0
17.645323 -12.072206 -1.4950207 5 3204864646720 1 0
15.0420885 -11.41205 -1.5413686 4 3204864649024 1 0
45.33324 -27.874655 1.5487801 8 3204864649024 1 0
37.844658 -28.720453 0.8292685 9 3204864651328 1 0
19.218725 -16.12833 -1.4611499 6 3204864653632 1 0
38.66048 -26.474686 2.7288132 43 3204864653632 1 0
34.611797 -26.282894 1.7706039 18 3204864655936 1 0
24.047379 -16.472778 -1.3577782 4 3204864655936 1 0
19.322853 -11.885175 -1.4538828 3 3204864651328 1 0
22.565376 -17.14047 -1.4850851 4 3204864658240 1 0
34.651352 -26.328825 3.5526984 24 3204864660544 1 0
27.282234 -16.802746 -1.3054011 4 3204864660544 1 0
28.378496 -23.84335 -1.2943525 13 3204864662848 1 0
0 0 0 9 3204864662848 1 0
0 0 0 29 3204864665152 1 0
0 0 0 1 3204864658240 1 0
35.273113 -24.192719 -0.99529016 14 3204864665152 1 0
41.470287 -25.632572 -0.8509793 16 3204864685888 1 0
33.074764 -25.222076 -1.2105153 8 3204864688192 1 0
0 0 0 1 3204864688192 1 0
6.567732 -5.0099163 -1.6520921 2 3204864690496 1 0
0 0 0 8 3204864685888 1 0
38.904705 -26.775137 0 8 3204864690496 1 0
29.669533 -25.023918 -0.45186028 20 3204864692800 1 0
8.44818 -5.816048 -1.595691 4 3204864692800 1 0
10.121785 -7.7256346 -1.6207789 3 3204864695104 1 0
31.970331 -24.409288 -0.23377842 5 3204864697408 1 0
11.639772 -8.018252 -1.5224917 7 3204864697408 1 0
43.369072 -26.841085 0.29643086 22 3204864695104 1 0
10.441579 -8.814451 -1.2755644 22 3204864699712 1 0
39.07946 -26.928925 1.1043478 15 3204864699712 1 0
29.569403 -24.968922 0.4505565 10 3204864702016 1 0
15.018 -11.476591 -1.5429958 4 3204864704320 1 0
17.609646 -12.138255 -1.4955788 5 3204864702016 1 0
45.28664 -28.06432 1.5505254 25 3204864704320 1 0
37.55353 -28.70665 0.82508 17 3204864706624 1 0
19.288034 -11.956758 -1.4543945 3 3204864706624 1 0
19.17146 -16.20305 -1.4618475 6 3204864708928 1 0
38.380478 -26.480215 2.7155573 43 3204864708928 1 0
34.37064 -26.289429 1.7629509 18 3204864711232 1 0
24.002886 -16.565697 -1.3585227 4 3204864711232 1 0
22.492716 -17.209425 -1.4842477 4 3204864713536 1 0
0 0 0 1 3204864713536 1 0
34.397774 -26.326048 3.5361 36 3204864715840 1 0
27.223415 -16.897877 -1.3054011 4 3204864715840 1 0
0 0 0 9 3204864718144 1 0
0 0 0 29 3204864720448 1 0
35.290436 -24.38617 -0.99817485 21 3204864720448 1 0
28.301197 -23.94743 -1.2946317 13 3204864718144 1 0
0 0 0 8 3204864741184 1 0
41.455242 -25.823696 -0.85251516 17 3204864741184 1 0
0 0 0 1 3204864743488 1 0
32.96097 -25.31813 -1.2095844 8 3204864743488 1 0
6.556351 -5.0376863 -1.653661 2 3204864745792 1 0
37.334713 -25.887949 0 22 3204864745792 1 0
8.430947 -5.847939 -1.5963058 5 3204864748096 1 0
10.110259 -7.7733054 -1.6233042 4 3204864750400 1 0
43.433838 -27.093065 0.2975235 33 3204864750400 1 0
29.654615 -25.190125 -0.45297784 16 3204864748096 1 0
31.836481 -24.48532 -0.2334297 16 3204864752704 1 0
0 0 0 56 3204864755008 1 0
11.617953 -8.063792 -1.5233485 9 3204864752704 1 0
38.80009 -26.939157 1.0991368 15 3204864755008 1 0
29.523443 -25.109764 0.45120838 5 3204864757312 1 0
14.980336 -11.532247 -1.5433214 4 3204864759616 1 0
17.566547 -12.200544 -1.4955788 3 3204864757312 1 0
