# .PCD v.7 - Point Cloud Data file format
VERSION .7
FIELDS x y z rgb timestamp_ns device_id active
SIZE 4 4 4 4 8 1 1
TYPE F F F F F U U
COUNT 1 1 1 1 1 1 1
WIDTH 984
HEIGHT 1
VIEWPOINT 0 0 0 1 0 0 0
POINTS 984               
DATA ascii
-24.737362 18.464418 -2.1585443 8 3202715345424 1 0
-21.949776 18.124046 -2.3237693 54 3202715347728 1 0
-45.022606 30.307192 1.5794996 25 3202715347728 1 0
-36.111862 29.82659 0.8175405 43 3202715350032 1 0
-31.137707 20.967085 -2.4058268 32 3202715350032 1 0
-21.276398 19.403067 -1.6769619 58 3202715352336 1 0
-28.420252 21.232712 2.0660284 7 3202715352336 1 0
-36.01098 29.76089 1.9033096 30 3202715354640 1 0
-26.402075 19.73092 -1.5353409 10 3202715354640 1 0
-24.17717 19.986883 -1.643977 5 3202715356944 1 0
-28.444038 21.263378 4.360485 6 3202715356944 1 0
-26.723314 22.098284 2.8308327 7 3202715359248 1 0
-46.682297 31.47378 -2.293774 11 3202715359248 1 0
-23.844748 21.770702 -1.127533 10 3202715361552 1 0
0 0 0 9 3202715361552 1 0
-26.41526 19.764734 -0.7676836 9 3202715363856 1 0
-3.1583471 2.6202486 -1.9136155 4 3202715384592 1 0
0 0 0 29 3202715363856 1 0
-47.312714 32.009037 -0.9970909 10 3202715384592 1 0
-24.436365 20.278458 -0.9241481 27 3202715386896 1 0
-5.8258376 4.372175 -2.039068 5 3202715386896 1 0
-8.6105 7.147306 -2.2380905 3 3202715389200 1 0
-37.83076 28.398977 0 16 3202715389200 1 0
-27.79236 25.469238 -0.43886882 8 3202715391504 1 0
-12.27582 9.217784 -2.3883097 2 3202715391504 1 0
-16.746141 13.907853 -2.77083 6 3202715393808 1 0
-42.33135 28.671255 0.29715154 11 3202715393808 1 0
0 0 0 100 3202715396112 1 0
-20.785122 15.615841 -2.8003736 12 3202715396112 1 0
-40.19368 30.205704 1.1699499 25 3202715398416 1 0
-19.137304 17.551476 -2.4239812 2 3202715398416 1 0
-27.861547 25.559494 0.44017264 10 3202715400720 1 0
-24.540684 18.447443 -2.1468253 4 3202715400720 1 0
-21.802658 18.126642 -2.3146565 60 3202715403024 1 0
-28.651693 19.42784 1.0074633 8 3202715403024 1 0
-28.86205 24.002182 0.65523314 12 3202715405328 1 0
-31.063784 21.069342 -2.405571 9 3202715405328 1 0
-21.22608 19.487635 -1.6781247 69 3202715407632 1 0
-28.377785 21.349272 2.0681212 14 3202715407632 1 0
-35.75804 29.752848 1.8951682 30 3202715409936 1 0
0 0 0 10 3202715409936 1 0
-24.221289 20.15894 -1.6515135 5 3202715412240 1 0
-28.398746 21.376686 4.364385 12 3202715412240 1 0
-26.742126 22.262915 2.8405964 7 3202715414544 1 0
-46.717003 31.72203 -2.3006127 11 3202715414544 1 0
-23.887848 21.954462 -1.1329772 5 3202715416848 1 0
0 0 0 9 3202715416848 1 0
0 0 0 29 3202715419152 1 0
-28.116716 21.181696 -0.8191417 15 3202715419152 1 0
-3.1501 2.630158 -1.9136155 4 3202715439888 1 0
-47.27142 32.19804 -0.99834746 10 3202715439888 1 0
-24.390656 20.37086 -0.92484623 11 3202715442192 1 0
-5.8089356 4.388219 -2.0379899 5 3202715442192 1 0
-8.593816 7.1796007 -2.2396595 3 3202715444496 1 0
-37.55224 28.376503 0 16 3202715444496 1 0
-32.13311 29.636007 -0.5089016 10 3202715446800 1 0
-12.271621 9.275905 -2.393229 2 3202715446800 1 0
-16.677198 13.941006 -2.7667894 6 3202715449104 1 0
-28.485203 23.818733 -0.21580797 25 3202715451408 1 0
-44.552612 30.384136 0.3134249 24 3202715449104 1 0
-20.712618 15.665777 -2.797375 12 3202715451408 1 0
-19.057121 17.591564 -2.4210072 2 3202715453712 1 0
-39.73239 30.060272 1.1593418 25 3202715453712 1 0
-28.1135 25.959053 0.44548097 10 3202715456016 1 0
-24.480722 18.526941 -2.1468253 4 3202715456016 1 0
-21.676226 18.141287 -2.3074965 63 3202715458320 1 0
-28.52881 19.480497 1.0053688 4 3202715458320 1 0
-28.777214 24.09137 0.65509355 25 3202715460624 1 0
-30.846336 21.069567 -2.3940587 9 3202715460624 1 0
-21.167774 19.562721 -1.6785898 69 3202715462928 1 0
-28.415682 21.524414 2.076028 14 3202715462928 1 0
-35.497234 29.734722 1.8865383 30 3202715465232 1 0
0 0 0 2 3202715465232 1 0
-24.154305 20.23915 -1.6515135 5 3202715467536 1 0
-28.428951 21.547483 4.3799844 13 3202715467536 1 0
-26.710606 22.387714 2.8451529 7 3202715469840 1 0
-46.650673 31.904526 -2.3025665 11 3202715469840 1 0
-23.808403 22.02882 -1.132698 5 3202715472144 1 0
0 0 0 9 3202715472144 1 0
0 0 0 29 3202715474448 1 0
-27.988047 21.232536 -0.81746674 10 3202715474448 1 0
-3.146449 2.6458042 -1.9169965 4 3202715495184 1 0
-47.247772 32.423954 -1.0002323 10 3202715495184 1 0
-24.683365 20.762325 -0.93869334 5 3202715497488 1 0
-5.802747 4.4155087 -2.0412247 4 3202715497488 1 0
-8.574599 7.21473 -2.2412283 3 3202715499792 1 0
-37.255207 28.35775 0 24 3202715499792 1 0
-32.08743 29.803131 -0.50983286 10 3202715502096 1 0
-12.238964 9.318951 -2.393229 3 3202715502096 1 0
-16.621956 13.994508 -2.7657793 6 3202715504400 1 0
-28.287817 23.823717 -0.21494782 15 3202715506704 1 0
-44.273968 30.422966 0.312216 36 3202715504400 1 0
-20.65091 15.733912 -2.796518 15 3202715506704 1 0
-18.901487 17.572033 -2.4091103 2 3202715509008 1 0
-39.51776 30.118095 1.1561781 25 3202715509008 1 0
-31.855402 29.62389 0.50643367 19 3202715511312 1 0
-24.621216 18.770775 -2.1649618 4 3202715511312 1 0
-21.553793 18.169275 -2.3013127 63 3202715513616 1 0
-28.50232 19.611082 1.0068816 4 3202715513616 1 0
-28.581291 24.100739 0.6525804 38 3202715515920 1 0
-31.017832 21.348867 -2.413246 4 3202715515920 1 0
-21.062855 19.605377 -1.6757991 19 3202715518224 1 0
-28.373722 21.65218 2.0785863 7 3202715518224 1 0
-35.32363 29.804579 1.8829559 30 3202715520528 1 0
-27.781073 21.20664 -1.6280309 5 3202715520528 1 0
-24.103106 20.343477 -1.6529789 5 3202715522832 1 0
-28.386385 21.675566 4.3853464 13 3202715522832 1 0
-26.724602 22.56306 2.855242 7 3202715525136 1 0
-46.664333 32.160023 -2.308917 11 3202715525136 1 0
0 0 0 9 3202715527440 1 0
-23.749582 22.133286 -1.1336752 5 3202715527440 1 0
0 0 0 29 3202715529744 1 0
-27.876484 21.306437 -0.81644315 10 3202715529744 1 0
-3.1367304 2.6573186 -1.9169965 4 3202715550480 1 0
-46.93126 32.460403 -0.99604374 10 3202715550480 1 0
-24.540146 20.795609 -0.9361334 11 3202715552784 1 0
-5.7865562 4.436705 -2.0412247 4 3202715552784 1 0
-8.554188 7.251057 -2.2427974 3 3202715555088 1 0
-26.626518 20.421402 0 41 3202715555088 1 0
-28.54098 26.703505 -0.45502666 12 3202715557392 1 0
-16.561882 14.047154 -2.7642639 6 3202715559696 1 0
-12.22061 9.375509 -2.3963034 2 3202715557392 1 0
-43.890118 30.394735 0.31028646 24 3202715559696 1 0
-28.332333 24.037485 -0.21594746 46 3202715562000 1 0
-20.581059 15.799061 -2.7948046 15 3202715562000 1 0
-18.837727 17.64037 -2.4091103 4 3202715564304 1 0
-26.620117 20.441101 0.7809901 14 3202715564304 1 0
-24.493086 18.813457 -2.1596603 4 3202715566608 1 0
-21.479 18.23916 -2.3003364 90 3202715568912 1 0
-31.549625 29.552895 0.5032673 19 3202715566608 1 0
-28.45111 19.727432 1.0075797 4 3202715568912 1 0
-28.064558 23.838396 0.6427372 31 3202715571216 1 0
-41.79777 28.990744 -3.2600436 8 3202715571216 1 0
-21.129206 19.809284 -1.6867293 12 3202715573520 1 0
-28.41922 21.848894 2.087656 7 3202715573520 1 0
-35.073418 29.80938 1.875303 29 3202715575824 1 0
0 0 0 12 3202715575824 1 0
-24.030163 20.429586 -1.6529789 5 3202715578128 1 0
-28.355852 21.813303 4.3926587 13 3202715578128 1 0
-45.400246 31.52854 -2.2519267 11 3202715580432 1 0
-26.689423 22.697083 2.8601239 7 3202715580432 1 0
0 0 0 86 3202715582736 1 0
0 0 0 9 3202715582736 1 0
0 0 0 17 3202715585040 1 0
0 0 0 29 3202715585040 1 0
-3.1219199 2.6635458 -1.9136155 4 3202715605776 1 0
-46.709385 32.548573 -0.99374 10 3202715605776 1 0
-24.3824 20.80829 -0.9328752 5 3202715608080 1 0
-5.771066 4.456835 -2.0412247 4 3202715608080 1 0
-36.678635 28.333986 0 24 3202715610384 1 0
-28.090101 26.464987 -0.44929925 28 3202715612688 1 0
-12.200524 9.427511 -2.3987632 2 3202715612688 1 0
-8.534897 7.285842 -2.2443662 3 3202715610384 1 0
-16.495054 14.088938 -2.7612336 6 3202715614992 1 0
-43.555008 30.386276 0.3086591 23 3202715614992 1 0
-28.045374 23.961126 -0.21438988 35 3202715617296 1 0
-20.504337 15.853031 -2.7918057 15 3202715617296 1 0
0 0 0 100 3202715619600 1 0
-38.861023 30.054176 1.1431507 24 3202715619600 1 0
-31.258656 29.482859 0.5002406 12 3202715621904 1 0
-24.428228 18.897596 -2.1596603 4 3202715621904 1 0
-28.416008 19.847868 1.0087434 4 3202715624208 1 0
-21.388998 18.289461 -2.2974072 102 3202715624208 1 0
-28.037449 23.981174 0.6439938 25 3202715626512 1 0
-30.130838 21.05183 -2.355684 4 3202715626512 1 0
-21.10203 19.919762 -1.689985 64 3202715628816 1 0
0 0 0 9 3202715628816 1 0
-34.798466 29.780706 1.8660218 29 3202715631120 1 0
0 0 0 2 3202715631120 1 0
-24.090979 20.622952 -1.6619806 5 3202715633424 1 0
-28.381882 21.987488 4.408258 13 3202715633424 1 0
-26.633385 22.805742 2.8624022 7 3202715635728 1 0
-47.21532 33.027275 -2.3475075 11 3202715635728 1 0
-21.381184 20.205637 -1.0273015 28 3202715638032 1 0
0 0 0 29 3202715640336 1 0
0 0 0 9 3202715638032 1 0
0 0 0 1 3202715640336 1 0
-3.1158202 2.676246 -1.915306 4 3202715661072 1 0
-47.894306 33.610756 -1.0213149 10 3202715661072 1 0
-24.252459 20.837095 -0.930548 5 3202715663376 1 0
-5.7592635 4.4783545 -2.0423028 4 3202715663376 1 0
-8.522482 7.3244543 -2.2475042 3 3202715665680 1 0
-36.400936 28.313555 0 23 3202715665680 1 0
-27.882624 26.445751 -0.4473901 20 3202715667984 1 0
-12.175226 9.473037 -2.399993 3 3202715667984 1 0
-16.45385 14.149213 -2.7622437 6 3202715670288 1 0
-43.217472 30.366236 0.3069853 23 3202715670288 1 0
-27.998243 24.083706 -0.2146456 50 3202715672592 1 0
-20.42597 15.902138 -2.7883787 14 3202715672592 1 0
0 0 0 56 3202715674896 1 0
-38.469566 29.958525 1.1345899 24 3202715674896 1 0
-29.79021 28.287977 0.47826228 5 3202715677200 1 0
-24.402235 19.009165 -2.1630087 12 3202715677200 1 0
-21.357374 18.38754 -2.3006618 101 3202715679504 1 0
-28.443708 20.010357 1.0121179 4 3202715679504 1 0
-27.998621 24.112387 0.64497113 43 3202715681808 1 0
0 0 0 31 3202715681808 1 0
-21.07782 20.032423 -1.6934735 72 3202715684112 1 0
-28.282438 22.051651 2.088586 15 3202715684112 1 0
-34.554825 29.776093 1.8583688 29 3202715686416 1 0
-25.322199 19.749493 -1.4958825 5 3202715686416 1 0
-24.014599 20.699608 -1.661562 5 3202715688720 1 0
-28.344448 22.11326 4.414108 13 3202715688720 1 0
-26.64301 22.971945 2.8718405 7 3202715691024 1 0
-47.16448 33.231857 -2.3506012 11 3202715691024 1 0
-21.367022 20.330954 -1.029954 8 3202715693328 1 0
0 0 0 9 3202715693328 1 0
0 0 0 29 3202715695632 1 0
-27.496603 21.471111 -0.8117905 5 3202715695632 1 0
-3.1064594 2.6871057 -1.915306 4 3202715716368 1 0
-42.56469 30.092888 -0.90989864 9 3202715716368 1 0
-24.2792 21.008135 -0.934388 5 3202715718672 1 0
-8.496756 7.3542824 -2.2475042 3 3202715720976 1 0
-5.740531 4.4960976 -2.0412247 4 3202715718672 1 0
-36.12199 28.30036 0 23 3202715720976 1 0
-27.67676 26.435781 -0.4455741 28 3202715723280 1 0
-12.163654 9.53281 -2.4042974 2 3202715723280 1 0
-16.424942 14.225223 -2.7657793 6 3202715725584 1 0
-42.868736 30.347141 0.30526495 23 3202715725584 1 0
-27.913126 24.182306 -0.2146456 40 3202715727888 1 0
-20.325943 15.939724 -2.7823813 14 3202715727888 1 0
0 0 0 28 3202715730192 1 0
-38.171516 29.943743 1.1289136 24 3202715730192 1 0
-30.808521 29.46313 0.49628267 6 3202715732496 1 0
-24.37557 19.127491 -2.166636 4 3202715732496 1 0
0 0 0 19 3202715734800 1 0
-28.41492 20.14123 1.0136305 4 3202715734800 1 0
-28.04865 24.329727 0.6481126 43 3202715737104 1 0
-28.925764 20.509968 -2.2725394 8 3202715737104 1 0
-21.049574 20.148823 -1.6969618 44 3202715739408 1 0
-28.247644 22.186823 2.091842 22 3202715739408 1 0
-34.303402 29.773539 1.8505529 19 3202715741712 1 0
-25.03787 19.67192 -1.4832261 5 3202715741712 1 0
-23.931335 20.77754 -1.6609339 5 3202715744016 1 0
-28.368156 22.295492 4.4301944 13 3202715744016 1 0
-26.61165 23.111757 2.8773732 7 3202715746320 1 0
-42.35552 30.071304 -2.11629 10 3202715746320 1 0
-27.426867 26.285343 -1.3265997 7 3202715748624 1 0
0 0 0 9 3202715748624 1 0
0 0 0 29 3202715750928 1 0
-3.0911236 2.69371 -1.911925 4 3202715771664 1 0
-27.472565 21.611984 -0.81337243 5 3202715750928 1 0
-42.187016 30.058392 -0.90417427 9 3202715771664 1 0
-24.22661 21.117472 -0.9353188 5 3202715773968 1 0
-5.7271357 4.5193686 -2.0423028 4 3202715773968 1 0
-8.470066 7.3850055 -2.2475042 3 3202715776272 1 0
-35.83716 28.28725 0 23 3202715776272 1 0
-27.523771 26.479778 -0.4446428 36 3202715778576 1 0
-12.135464 9.581433 -2.405527 2 3202715778576 1 0
-16.37693 14.286507 -2.7662842 6 3202715780880 1 0
-42.49937 30.314505 0.30340514 23 3202715780880 1 0
-20.256649 16.002043 -2.7806678 11 3202715783184 1 0
-27.64311 24.120995 -0.2132275 30 3202715783184 1 0
0 0 0 28 3202715785488 1 0
-37.999557 30.0264 1.1269596 24 3202715785488 1 0
-27.835447 26.80771 0.4499046 15 3202715787792 1 0
-24.380236 19.2699 -2.1730537 4 3202715787792 1 0
0 0 0 9 3202715790096 1 0
-28.455072 20.319294 1.0175868 4 3202715790096 1 0
-27.89481 24.366362 0.64650697 31 3202715792400 1 0
-28.867437 20.619463 -2.2735627 8 3202715792400 1 0
0 0 0 12 3202715794704 1 0
-28.233637 22.33361 2.096493 15 3202715794704 1 0
-34.01765 29.730425 1.8406204 29 3202715797008 1 0
-24.857538 19.66831 -1.4765257 5 3202715797008 1 0
-23.896572 20.890417 -1.6634461 5 3202715799312 1 0
-28.317019 22.411621 4.434094 13 3202715799312 1 0
-25.75604 22.521915 2.7930796 6 3202715801616 1 0
-29.29825 20.95036 -1.467416 6 3202715801616 1 0
-27.430458 26.466164 -1.3310668 7 3202715803920 1 0
0 0 0 9 3202715803920 1 0
0 0 0 29 3202715806224 1 0
-26.773336 21.206974 -0.7947619 9 3202715806224 1 0
-3.0853715 2.7057981 -1.9136155 4 3202715826960 1 0
-42.089127 30.188446 -0.9041045 27 3202715826960 1 0
-24.156527 21.191544 -0.9352025 5 3202715829264 1 0
-5.7127776 4.5375047 -2.0423028 4 3202715829264 1 0
-8.455236 7.4198313 -2.2498577 3 3202715831568 1 0
-35.567947 28.259941 0 22 3202715831568 1 0
-27.429508 26.560163 -0.44450313 40 3202715833872 1 0
-12.110652 9.625485 -2.4067569 2 3202715833872 1 0
-16.348188 14.355495 -2.7693148 6 3202715836176 1 0
-42.081997 30.224134 0.30112687 23 3202715836176 1 0
-27.759012 24.38331 -0.21473859 25 3202715838480 1 0
-20.179039 16.048737 -2.7772408 11 3202715838480 1 0
0 0 0 28 3202715840784 1 0
-37.69324 29.987928 1.1208181 16 3202715840784 1 0
-24.368715 19.39359 -2.177797 4 3202715843088 1 0
-27.607777 26.767036 0.4476695 10 3202715843088 1 0
-21.314438 18.740576 -2.3169348 15 3202715845392 1 0
-28.389593 20.417528 1.0177033 4 3202715845392 1 0
-27.91983 24.556244 0.6490201 19 3202715847696 1 0
-25.71875 18.502928 -2.030524 11 3202715847696 1 0
-19.532097 18.955482 -1.5851023 3 3202715850000 1 0
-33.797527 29.745022 1.83427 29 3202715852304 1 0
-28.2224 22.48264 2.1013768 15 3202715850000 1 0
-24.651814 19.644672 -1.4683361 4 3202715852304 1 0
-22.61524 19.909973 -1.5790805 4 3202715854608 1 0
-28.278973 22.542501 4.4404316 13 3202715854608 1 0
-25.775343 22.69938 2.8038197 6 3202715856912 1 0
-29.227571 21.055689 -1.4675789 6 3202715856912 1 0
-27.45964 26.683136 -1.3370695 7 3202715859216 1 0
0 0 0 29 3202715861520 1 0
-26.637897 21.255241 -0.7929939 9 3202715861520 1 0
-3.080392 2.7224267 -1.9169965 4 3202715882256 1 0
-42.07661 30.424824 -0.9063384 18 3202715882256 1 0
-24.051325 21.262606 -0.9342716 5 3202715884560 1 0
0 0 0 9 3202715859216 1 0
-5.701393 4.5641384 -2.0444596 4 3202715884560 1 0
-8.435716 7.459792 -2.2522109 3 3202715886864 1 0
-26.53958 21.252075 0 9 3202715886864 1 0
-20.245869 19.753666 -0.32930297 7 3202715889168 1 0
-12.092535 9.686214 -2.4104464 3 3202715889168 1 0
-41.750324 30.225895 0.29956928 11 3202715891472 1 0
-27.774792 24.583143 -0.2155755 30 3202715893776 1 0
-16.299728 14.422473 -2.770325 6 3202715891472 1 0
-20.115337 16.12215 -2.7768123 11 3202715893776 1 0
-18.461313 18.028227 -2.4087384 2 3202715896080 1 0
-26.544992 21.281767 0.7916912 4 3202715896080 1 0
-20.240095 19.77103 0.3293961 10 3202715898384 1 0
-24.221344 19.42463 -2.1711004 4 3202715898384 1 0
-28.345749 20.546558 1.0188669 4 3202715900688 1 0
-21.274353 18.846243 -2.3201892 7 3202715900688 1 0
-27.831558 24.662277 0.6490899 19 3202715902992 1 0
-25.717815 18.647394 -2.0358963 7 3202715902992 1 0
-19.359146 18.927011 -1.5767303 3 3202715905296 1 0
-26.575865 21.331928 1.9846336 20 3202715905296 1 0
-33.496452 29.69949 1.823849 28 3202715907600 1 0
-22.29407 19.772738 -1.561705 4 3202715909904 1 0
-28.279736 22.713123 4.4535933 13 3202715909904 1 0
-24.442272 19.625181 -1.4601467 4 3202715907600 1 0
-25.74002 22.835659 2.809027 7 3202715912208 1 0
-28.927345 21.000237 -1.4563437 6 3202715912208 1 0
0 0 0 100 3202715914512 1 0
0 0 0 9 3202715914512 1 0
0 0 0 29 3202715916816 1 0
0 0 0 9 3202715916816 1 0
-3.065454 2.728342 -1.9136155 4 3202715937552 1 0
-41.827915 30.467905 -0.9032667 9 3202715937552 1 0
-24.01578 21.380993 -0.9357843 5 3202715939856 1 0
-5.682428 4.5815945 -2.0433812 4 3202715939856 1 0
-8.415483 7.49441 -2.25378 3 3202715942160 1 0
-26.437212 21.321985 0 47 3202715942160 1 0
-27.300865 26.823803 -0.4455741 12 3202715944464 1 0
-12.070954 9.738294 -2.4129062 3 3202715944464 1 0
-16.258173 14.487201 -2.77184 6 3202715946768 1 0
-41.353703 30.159323 0.29747698 11 3202715946768 1 0
-27.775404 24.75713 -0.21624969 30 3202715949072 1 0
-20.015614 16.157295 -2.770815 14 3202715949072 1 0
-18.392591 18.086973 -2.407995 4 3202715951376 1 0
0 0 0 10 3202715951376 1 0
-20.168106 19.838757 0.32934952 6 3202715953680 1 0
-24.330328 19.651974 -2.187005 4 3202715953680 1 0
-19.83401 17.69424 -2.1698277 3 3202715955984 1 0
-41.306435 30.16168 1.4885044 8 3202715955984 1 0
-28.157093 25.126753 0.65872365 19 3202715958288 1 0
-25.439817 18.581656 -2.0190115 7 3202715958288 1 0
-19.176292 18.87961 -1.5671954 3 3202715960592 1 0
-26.473291 21.401972 1.9825406 13 3202715960592 1 0
-33.171967 29.619251 1.8117996 38 3202715962896 1 0
-22.153414 19.786575 -1.5566807 4 3202715965200 1 0
-28.249668 22.85165 4.461393 6 3202715965200 1 0
-24.348763 19.69028 -1.4586576 4 3202715962896 1 0
-28.718369 21.001997 -1.4495049 5 3202715967504 1 0
0 0 0 10 3202715969808 1 0
-25.704748 22.965212 2.813909 7 3202715967504 1 0
0 0 0 9 3202715969808 1 0
0 0 0 29 3202715972112 1 0
-3.061311 2.7438653 -1.9169965 4 3202715993296 1 0
-26.364843 21.34602 -0.7893649 48 3202715972112 1 0
-28.49134 20.906012 -0.61683786 5 3202715993296 1 0
-24.051462 21.563099 -0.9400897 5 3202715995600 1 0
-5.663477 4.5988913 -2.0423028 4 3202715995600 1 0
-8.401171 7.5339704 -2.2569177 3 3202715997904 1 0
0 0 0 3 3202715997904 1 0
-26.284145 26.00352 -0.4304407 31 3202716000208 1 0
-12.052652 9.792306 -2.4159806 3 3202716000208 1 0
-16.196537 14.532322 -2.7698197 6 3202716002512 1 0
-28.474577 20.916656 0.20534654 10 3202716002512 1 0
-27.794813 24.945427 -0.21706335 41 3202716004816 1 0
-19.972616 16.235647 -2.7725284 11 3202716004816 1 0
-18.438475 18.255947 -2.4221225 7 3202716007120 1 0
-26.416262 21.479399 0.7922495 4 3202716007120 1 0
-26.276209 26.022907 0.43053383 14 3202716009424 1 0
-22.63219 18.407446 -2.0399582 11 3202716009424 1 0
-19.697075 17.691801 -2.1613657 6 3202716011728 1 0
-28.358643 20.854364 1.0244522 4 3202716011728 1 0
-28.161766 25.301397 0.6608179 58 3202716014032 1 0
-19.002417 18.834023 -1.5581257 3 3202716016336 1 0
-36.63699 29.821882 2.7511384 29 3202716016336 1 0
-25.238974 18.565313 -2.0080109 11 3202716014032 1 0
-32.96613 29.633385 1.8059378 28 3202716018640 1 0
-24.227272 19.725859 -1.4553074 4 3202716018640 1 0
-21.921337 19.710365 -1.5449574 4 3202716020944 1 0
-36.922615 30.070452 5.8468037 22 3202716020944 1 0
-25.717712 23.129932 2.8236728 7 3202716023248 1 0
-28.36245 20.885778 -1.435013 11 3202716023248 1 0
0 0 0 9 3202716025552 1 0
-26.243814 26.038502 -1.2910022 13 3202716025552 1 0
0 0 0 29 3202716027856 1 0
0 0 0 1 3202716027856 1 0
-3.0526757 2.753469 -1.9169965 4 3202716048592 1 0
-28.409437 20.983536 -0.6164888 11 3202716048592 1 0
-23.998129 21.652294 -0.9406715 5 3202716050896 1 0
-5.654899 4.6216183 -2.0444596 4 3202716050896 1 0
-8.380153 7.563198 -2.2577024 3 3202716053200 1 0
-34.52351 28.22364 0 22 3202716053200 1 0
-27.337778 27.218754 -0.44911298 8 3202716055504 1 0
-12.036699 9.843157 -2.4190552 3 3202716055504 1 0
-16.147009 14.581413 -2.7693148 6 3202716057808 1 0
-28.407503 21.007662 0.20534654 10 3202716057808 1 0
-27.954914 25.25182 -0.21894641 30 3202716060112 1 0
-19.91725 16.297243 -2.7721 14 3202716060112 1 0
-18.356863 18.292896 -2.4191482 7 3202716062416 1 0
0 0 0 5 3202716062416 1 0
-29.253878 29.160421 0.48086986 11 3202716064720 1 0
0 0 0 14 3202716064720 1 0
-19.503298 17.632889 -2.1463947 6 3202716067024 1 0
-28.316257 20.965677 1.0253831 4 3202716067024 1 0
-28.147041 25.45512 0.66242355 19 3202716069328 1 0
-25.040148 18.545649 -1.9970102 3 3202716069328 1 0
-18.90083 18.856897 -1.55487 3 3202716071632 1 0
-36.399776 29.82825 2.7406735 44 3202716071632 1 0
-32.788097 29.669659 1.8015414 28 3202716073936 1 0
-24.146563 19.793074 -1.4543768 4 3202716073936 1 0
-21.755163 19.69181 -1.5378398 4 3202716076240 1 0
-36.63849 30.041687 5.817555 33 3202716076240 1 0
-25.696684 23.2663 2.8298564 7 3202716078544 1 0
-28.247784 20.9468 -1.4327334 5 3202716078544 1 0
-27.287903 27.25617 -1.3468413 7 3202716080848 1 0
0 0 0 9 3202716080848 1 0
0 0 0 29 3202716083152 1 0
-24.544168 20.142878 -0.73883736 17 3202716083152 1 0
-3.0484126 2.7689831 -1.9203774 4 3202716103888 1 0
-24.073164 21.873234 -0.946606 5 3202716106192 1 0
-5.6446466 4.6462665 -2.046616 4 3202716106192 1 0
-8.353591 7.5925255 -2.2577024 4 3202716108496 1 0
-26.471764 19.695532 -0.5759294 4 3202716103888 1 0
-28.906216 23.80092 0 10 3202716108496 1 0
-12.011204 9.892913 -2.4208999 3 3202716110800 1 0
-16.095587 14.638156 -2.7693148 6 3202716113104 1 0
-27.419947 27.493025 -0.45204654 8 3202716110800 1 0
-40.211403 29.956284 0.2914326 21 3202716113104 1 0
-27.9071 25.387943 -0.21927188 15 3202716115408 1 0
-19.847368 16.357271 -2.7703865 11 3202716115408 1 0
-18.345509 18.411264 -2.426212 4 3202716117712 1 0
-36.181183 29.828117 1.0911343 23 3202716117712 1 0
-29.057272 29.17033 0.47933325 16 3202716120016 1 0
-22.208164 18.314323 -2.0128927 21 3202716120016 1 0
-19.340374 17.610731 -2.1353292 6 3202716122320 1 0
-28.341028 21.140144 1.0289904 8 3202716122320 1 0
-27.93216 25.441942 0.65949154 19 3202716124624 1 0
-24.750086 18.467472 -1.9791021 7 3202716124624 1 0
-18.74901 18.839216 -1.5478933 3 3202716126928 1 0
-32.451546 29.576553 1.7888408 38 3202716129232 1 0
-36.142353 29.83321 2.729278 29 3202716126928 1 0
-24.174332 19.960577 -1.4603328 4 3202716129232 1 0
-21.649145 19.737228 -1.5353276 4 3202716131536 1 0
-36.30425 29.98549 5.7814817 11 3202716131536 1 0
-25.695585 23.433498 2.8389692 7 3202716133840 1 0
0 0 0 10 3202716133840 1 0
-27.012264 27.175407 -1.3380467 21 3202716136144 1 0
0 0 0 9 3202716136144 1 0
-24.446844 20.210716 -0.7380929 39 3202716138448 1 0
-3.0355687 2.7776902 -1.9186869 4 3202716159184 1 0
0 0 0 29 3202716138448 1 0
-28.293755 21.21268 -0.6172567 11 3202716159184 1 0
-23.998892 21.966543 -0.9468387 5 3202716161488 1 0
-5.6335435 4.6718006 -2.0487728 3 3202716161488 1 0
-28.69599 23.804134 0 30 3202716163792 1 0
-8.3344965 7.630917 -2.2600555 3 3202716163792 1 0
-29.6103 29.906351 -0.4899499 9 3202716166096 1 0
-11.981164 9.941656 -2.4221296 2 3202716166096 1 0
-16.030552 14.685863 -2.7672944 6 3202716168400 1 0
-39.817505 29.888584 0.28936356 21 3202716168400 1 0
-28.003523 25.661999 -0.22075973 10 3202716170704 1 0
-19.77564 16.419025 -2.768673 11 3202716170704 1 0
-18.295515 18.494572 -2.4284427 7 3202716173008 1 0
-35.937565 29.846539 1.0870401 30 3202716173008 1 0
-28.647903 28.96802 0.4743043 16 3202716175312 1 0
-22.0344 18.305225 -2.0031269 29 3202716175312 1 0
-19.232655 17.639956 -2.1304474 3 3202716177616 1 0
-28.296553 21.266254 1.030154 13 3202716177616 1 0
-27.973011 25.663994 0.66263294 19 3202716179920 1 0
-24.581345 18.479687 -1.9709156 7 3202716179920 1 0
-18.636303 18.861 -1.5441724 3 3202716182224 1 0
-35.820015 29.784142 2.7129993 28 3202716182224 1 0
-32.198086 29.55757 1.7806993 28 3202716184528 1 0
-24.185556 20.116104 -1.4653581 4 3202716184528 1 0
-21.472467 19.717299 -1.5277913 4 3202716186832 1 0
-36.11738 30.049171 5.7688074 11 3202716186832 1 0
-25.670471 23.579037 2.8454783 7 3202716189136 1 0
-26.462238 19.917807 -1.3493649 10 3202716189136 1 0
-26.960186 27.317013 -1.3402803 28 3202716191440 1 0
0 0 0 9 3202716191440 1 0
0 0 0 29 3202716193744 1 0
-24.3994 20.317995 -0.73883736 43 3202716193744 1 0
-3.0231884 2.7858126 -1.9169965 5 3202716214480 1 0
-28.114216 21.231777 -0.614953 10 3202716214480 1 0
-23.922068 22.05018 -0.9468387 5 3202716216784 1 0
-8.319344 7.6705985 -2.2631936 3 3202716219088 1 0
-5.614245 4.6889677 -2.0476944 5 3202716216784 1 0
-28.545189 23.847738 0 51 3202716219088 1 0
-27.402582 27.870472 -0.45502666 20 3202716221392 1 0
-11.961553 9.996091 -2.4252043 2 3202716221392 1 0
-15.973357 14.736349 -2.7662842 6 3202716223696 1 0
-39.511925 29.875408 0.28789896 21 3202716223696 1 0
-19.706003 16.47775 -2.7669594 11 3202716226000 1 0
-18.26992 18.598097 -2.4336474 4 3202716228304 1 0
-28.778181 24.070831 0.8730191 11 3202716228304 1 0
-32.108486 29.630587 -0.25393414 14 3202716226000 1 0
-28.44572 28.965109 0.47262797 16 3202716230608 1 0
-21.869377 18.297531 -1.993919 43 3202716230608 1 0
-19.056746 17.601488 -2.1177545 9 3202716232912 1 0
-28.33691 21.451777 1.034343 13 3202716232912 1 0
-27.994883 25.864614 0.6652857 19 3202716235216 1 0
-24.507141 18.55815 -1.9701481 3 3202716235216 1 0
-18.47806 18.831879 -1.5364981 3 3202716237520 1 0
-35.55663 29.775679 2.7009063 42 3202716237520 1 0
-32.009605 29.591103 1.7759773 28 3202716239824 1 0
-24.121317 20.205538 -1.4657304 4 3202716239824 1 0
0 0 0 59 3202716242128 1 0
-35.793163 29.991472 5.733709 10 3202716242128 1 0
-27.930817 21.176323 -1.4280114 5 3202716244432 1 0
-25.675808 23.749714 2.855242 7 3202716244432 1 0
-27.09691 27.647923 -1.351867 7 3202716246736 1 0
0 0 0 9 3202716246736 1 0
0 0 0 29 3202716249040 1 0
-24.349777 20.421028 -0.7394887 13 3202716249040 1 0
-3.016103 2.7988145 -1.9186869 4 3202716269776 1 0
-27.985819 21.288622 -0.61376625 10 3202716269776 1 0
-23.950447 22.231474 -0.95102775 5 3202716272080 1 0
-5.5948954 4.706057 -2.046616 4 3202716272080 1 0
-8.292518 7.6995916 -2.2631936 3 3202716274384 1 0
-26.96144 27.613947 -0.44929925 20 3202716276688 1 0
-11.941707 10.0505085 -2.4282787 2 3202716276688 1 0
-15.918914 14.789316 -2.7657793 6 3202716278992 1 0
-39.127373 29.799877 0.28585318 10 3202716278992 1 0
-31.867147 29.614508 -0.2528415 13 3202716281296 1 0
-28.28731 23.800444 0 41 3202716274384 1 0
-19.648365 16.546436 -2.7669594 11 3202716281296 1 0
-18.271635 18.730179 -2.4425702 2 3202716283600 1 0
-28.574705 24.070662 0.8693901 22 3202716283600 1 0
-28.246702 28.964006 0.47099823 16 3202716285904 1 0
-21.744347 18.322334 -1.9883385 32 3202716285904 1 0
-26.691225 20.352903 0.9768601 12 3202716288208 1 0
-18.95724 17.632603 -2.1135235 3 3202716288208 1 0
-31.83096 29.615408 0.75890046 24 3202716290512 1 0
-18.487455 18.973486 -1.5427771 3 3202716292816 1 0
-24.810385 18.92441 -1.9998243 3 3202716290512 1 0
-35.37006 29.830103 2.6946273 28 3202716292816 1 0
-31.821285 29.623682 1.7712551 28 3202716295120 1 0
-24.099504 20.330837 -1.4687084 4 3202716295120 1 0
0 0 0 8 3202716297424 1 0
-35.51227 29.967724 5.7054353 10 3202716297424 1 0
-26.687824 20.38102 -1.3680903 16 3202716299728 1 0
-25.642344 23.88539 2.860775 7 3202716299728 1 0
-27.192617 27.940008 -1.3614992 7 3202716302032 1 0
0 0 0 9 3202716302032 1 0
-27.617498 23.326204 -0.84119517 5 3202716304336 1 0
-3.0089638 2.811801 -1.9203774 4 3202716325072 1 0
0 0 0 21 3202716325072 1 0
-23.884546 22.32569 -0.9514932 5 3202716327376 1 0
-5.5784683 4.7255177 -2.046616 3 3202716327376 1 0
0 0 0 29 3202716304336 1 0
-8.268568 7.7310495 -2.263978 3 3202716329680 1 0
-28.241026 23.92966 0 41 3202716329680 1 0
-26.926744 27.77048 -0.45032367 12 3202716331984 1 0
-11.915816 10.099539 -2.4301236 2 3202716331984 1 0
-15.864726 14.841621 -2.765274 6 3202716334288 1 0
-26.627459 20.425816 0.19504783 4 3202716334288 1 0
-28.029186 26.228867 -0.22310774 15 3202716336592 1 0
-19.588058 16.611637 -2.766531 14 3202716336592 1 0
-18.206963 18.79305 -2.4425702 2 3202716338896 1 0
-28.467167 24.148321 0.86864567 16 3202716338896 1 0
-27.960464 28.868502 0.4678784 16 3202716341200 1 0
-21.620342 18.345387 -1.982758 17 3202716341200 1 0
-18.76857 17.57766 -2.0992033 3 3202716343504 1 0
-28.314562 21.744854 1.0389975 4 3202716343504 1 0
-31.609667 29.612156 0.75603825 72 3202716345808 1 0
-18.278093 18.887348 -1.5306841 3 3202716348112 1 0
-24.85305 19.09196 -2.0085225 3 3202716345808 1 0
-35.137012 29.839672 2.6846275 28 3202716348112 1 0
-31.59176 29.61178 1.7640907 27 3202716350416 1 0
-24.030022 20.412914 -1.4687084 4 3202716350416 1 0
-21.152908 19.832663 -1.5196269 4 3202716352720 1 0
-35.2588 29.959873 5.6810613 10 3202716352720 1 0
-25.648317 24.054153 2.8705387 7 3202716355024 1 0
-26.55826 20.425243 -1.3649966 10 3202716355024 1 0
-46.01871 47.605247 -2.3121614 23 3202716357328 1 0
0 0 0 9 3202716357328 1 0
0 0 0 29 3202716359632 1 0
-27.69382 23.551584 -0.8459408 10 3202716359632 1 0
-2.9969823 2.8192794 -1.9186869 4 3202716380368 1 0
-27.713604 21.380901 -0.61097383 5 3202716380368 1 0
-27.52574 25.901178 -1.0999713 7 3202716382672 1 0
-5.565664 4.7465305 -2.0476944 3 3202716382672 1 0
-8.245628 7.7612348 -2.2647624 4 3202716384976 1 0
-28.26563 29.346697 -0.47435087 9 3202716387280 1 0
-11.891058 10.146954 -2.4319682 2 3202716387280 1 0
-15.794769 14.875566 -2.7617385 6 3202716389584 1 0
-38.36016 29.630281 0.2817151 30 3202716389584 1 0
-27.938187 26.319944 -0.2230845 26 3202716391888 1 0
-28.16117 24.02359 0 46 3202716384976 1 0
-19.505037 16.65397 -2.7626755 25 3202716391888 1 0
-19.173798 19.924524 -2.5812426 8 3202716394192 1 0
-28.431486 24.282784 0.87004143 16 3202716394192 1 0
-26.92306 27.985342 0.4520931 10 3202716396496 1 0
-21.588789 18.443998 -1.9855483 3 3202716396496 1 0
-18.665642 17.599865 -2.0943215 3 3202716398800 1 0
-28.278982 21.869623 1.0403938 8 3202716398800 1 0
-31.384243 29.60088 0.75303644 47 3202716401104 1 0
-24.89254 19.256496 -2.016965 7 3202716401104 1 0
-18.161406 18.89448 -1.5262656 3 3202716403408 1 0
-34.886974 29.831411 2.673232 27 3202716403408 1 0
-31.3544 29.589972 1.7564378 27 3202716405712 1 0
-24.124527 20.634653 -1.478759 5 3202716405712 1 0
-21.195667 20.008738 -1.5275819 4 3202716408016 1 0
-34.96658 29.917091 5.65035 31 3202716408016 1 0
-25.635695 24.207182 2.8783495 7 3202716410320 1 0
-27.515371 21.311079 -1.4179159 11 3202716410320 1 0
-28.19229 29.364431 -1.4215263 15 3202716412624 1 0
0 0 0 9 3202716412624 1 0
0 0 0 29 3202716414928 1 0
-27.7193 23.73734 -0.8491977 5 3202716414928 1 0
-2.989755 2.832217 -1.9203774 4 3202716435664 1 0
-27.575642 21.428429 -0.60957766 5 3202716435664 1 0
-5.552018 4.768399 -2.0487728 4 3202716437968 1 0
-27.519516 26.076656 -1.1033458 7 3202716437968 1 0
-8.224293 7.795247 -2.2663314 4 3202716440272 1 0
-28.04108 24.090057 0 41 3202716440272 1 0
-28.116663 29.395432 -0.47355926 9 3202716442576 1 0
-15.728786 14.916498 -2.7592132 6 3202716444880 1 0
-11.86778 10.198444 -2.434428 2 3202716442576 1 0
-38.042683 29.595875 0.28013423 29 3202716444880 1 0
-19.32677 16.617533 -2.74554 20 3202716447184 1 0
-27.823887 26.39427 -0.22289851 15 3202716447184 1 0
-19.091246 19.9761 -2.5793839 5 3202716449488 1 0
-27.886776 23.984295 0.8558974 16 3202716449488 1 0
-26.909529 28.164543 0.45349005 20 3202716451792 1 0
-21.46472 18.466103 -1.9799677 7 3202716451792 1 0
-18.60223 17.661085 -2.093996 3 3202716454096 1 0
-28.273146 22.020613 1.0429538 8 3202716454096 1 0
-31.13477 29.567745 0.74947613 47 3202716456400 1 0
-24.826435 19.341644 -2.016965 7 3202716456400 1 0
-17.752045 18.595396 -1.4971961 3 3202716458704 1 0
-34.61535 29.80457 2.660209 27 3202716458704 1 0
-31.114225 29.564594 1.748622 27 3202716461008 1 0
-24.069147 20.72985 -1.4796897 5 3202716461008 1 0
-21.10718 20.061495 -1.5261165 4 3202716463312 1 0
-34.669044 29.867489 5.6186643 20 3202716463312 1 0
-25.634237 24.371017 2.8874624 7 3202716465616 1 0
-25.561422 19.936966 -1.320707 5 3202716465616 1 0
-26.28286 27.56197 -1.32995 7 3202716467920 1 0
0 0 0 9 3202716467920 1 0
0 0 0 29 3202716470224 1 0
-27.666128 23.85444 -0.85003513 5 3202716470224 1 0
-2.977723 2.839614 -1.9186869 4 3202716490960 1 0
-27.567427 21.569046 -0.61097383 5 3202716490960 1 0
-27.44119 26.17645 -1.1036949 7 3202716493264 1 0
-5.539019 4.7893834 -2.049851 4 3202716493264 1 0
-8.198171 7.8227158 -2.2663314 3 3202716495568 1 0
-27.89928 29.365046 -0.471557 13 3202716497872 1 0
-27.978489 24.199425 0 51 3202716495568 1 0
-11.845404 10.248604 -2.4368875 2 3202716497872 1 0
-15.666884 14.958527 -2.7571929 6 3202716500176 1 0
-37.652916 29.497135 0.27799547 29 3202716500176 1 0
-19.207205 16.62827 -2.736544 23 3202716502480 1 0
-27.705355 26.460783 -0.22266604 15 3202716502480 1 0
-17.498665 18.434912 -2.3726761 4 3202716504784 1 0
-28.067984 24.30682 0.86399305 16 3202716504784 1 0
-27.226082 28.691559 0.4604747 15 3202716507088 1 0
0 0 0 36 3202716507088 1 0
-18.550144 17.733097 -2.0949724 3 3202716509392 1 0
-28.282335 22.184156 1.0460956 9 3202716509392 1 0
-30.90259 29.55051 0.74633473 55 3202716511696 1 0
-24.637138 19.331007 -2.0069876 11 3202716511696 1 0
-18.105171 19.097218 -1.5325446 10 3202716514000 1 0
-34.367153 29.798647 2.6490464 27 3202716514000 1 0
-30.887096 29.55376 1.7416203 27 3202716516304 1 0
-23.96072 20.781977 -1.4774562 5 3202716516304 1 0
-21.20151 20.292484 -1.5380491 4 3202716518608 1 0
-34.402637 29.847826 5.5923405 20 3202716518608 1 0
-25.646564 24.554462 2.898528 7 3202716520912 1 0
-25.31224 19.885706 -1.3114258 5 3202716520912 1 0
0 0 0 9 3202716523216 1 0
0 0 0 29 3202716525520 1 0
0 0 0 100 3202716523216 1 0
-24.755547 21.49787 -0.76293796 9 3202716525520 1 0
-2.9672952 2.8505087 -1.9186869 4 3202716546256 1 0
-26.828623 21.14998 -0.59631383 10 3202716546256 1 0
-27.414448 26.34314 -1.1064875 7 3202716548560 1 0
-5.5243673 4.812143 -2.0509293 4 3202716548560 1 0
-8.172386 7.85531 -2.2671158 3 3202716550864 1 0
-27.886944 24.298777 0 41 3202716550864 1 0
-27.687822 29.355928 -0.46978754 13 3202716553168 1 0
-11.816925 10.299484 -2.4387324 2 3202716553168 1 0
-15.60381 15.007142 -2.7556777 6 3202716555472 1 0
-37.388424 29.509941 0.2768331 28 3202716555472 1 0
-27.672567 26.622156 -0.2231775 31 3202716557776 1 0
-19.071804 16.632511 -2.7258341 8 3202716557776 1 0
-17.24059 18.295269 -2.3466518 2 3202716560080 1 0
-27.99785 24.424082 0.86455137 16 3202716560080 1 0
-27.220942 28.89458 0.462151 47 3202716562384 1 0
-21.313288 18.598225 -1.9780146 66 3202716562384 1 0
-18.494675 17.80819 -2.095949 3 3202716564688 1 0
-28.220955 22.3009 1.0467938 9 3202716564688 1 0
-30.675032 29.545033 0.7434027 46 3202716566992 1 0
-24.54234 19.399765 -2.004941 3 3202716566992 1 0
-17.67517 18.778313 -1.5018471 3 3202716569296 1 0
-34.1095 29.790577 2.6374185 26 3202716569296 1 0
-30.654318 29.542276 1.7344558 27 3202716571600 1 0
-23.907122 20.886148 -1.478759 5 3202716571600 1 0
-21.128769 20.368212 -1.5380491 4 3202716573904 1 0
-34.14017 29.834875 5.566992 20 3202716573904 1 0
-24.735085 23.851656 2.8051217 6 3202716576208 1 0
-25.031097 19.809782 -1.3005162 4 3202716576208 1 0
-18.425451 19.598251 -0.93935484 33 3202716578512 1 0
0 0 0 9 3202716578512 1 0
0 0 0 29 3202716580816 1 0
-24.573593 21.493622 -0.7596811 9 3202716580816 1 0
-2.9599326 2.8633697 -1.9203774 4 3202716601552 1 0
-26.638742 21.151484 -0.59373087 10 3202716601552 1 0
-27.402779 26.516525 -1.1097457 7 3202716603856 1 0
-5.5075364 4.831397 -2.0509293 4 3202716603856 1 0
-8.150553 7.889245 -2.2686849 4 3202716606160 1 0
-27.795942 24.390696 0 30 3202716606160 1 0
-27.667208 29.539976 -0.4711845 13 3202716608464 1 0
-11.786841 10.345884 -2.4399621 2 3202716608464 1 0
-15.539929 15.050476 -2.7536573 6 3202716610768 1 0
-27.52776 26.668491 -0.22275902 15 3202716613072 1 0
-37.081665 29.47848 0.27532196 9 3202716610768 1 0
-18.965818 16.656992 -2.7189798 8 3202716613072 1 0
-16.907215 18.067446 -2.309846 2 3202716615376 1 0
-27.957489 24.561253 0.8659471 16 3202716615376 1 0
-27.196424 29.071207 0.4634548 36 3202716617680 1 0
-21.272217 18.69358 -1.9802468 63 3202716617680 1 0
-18.420952 17.861538 -2.094647 3 3202716619984 1 0
-28.171095 22.421682 1.0478411 9 3202716619984 1 0
-30.4942 29.576748 0.74151784 15 3202716622288 1 0
-24.33394 19.373432 -1.9934286 3 3202716622288 1 0
-17.557707 18.784468 -1.4974287 6 3202716624592 1 0
-30.376055 29.479311 1.7245232 18 3202716626896 1 0
-33.849384 29.772322 2.6253257 39 3202716624592 1 0
-23.963066 21.082964 -1.4867624 5 3202716626896 1 0
-21.017416 20.40289 -1.5351182 4 3202716629200 1 0
-33.874878 29.812225 5.540668 20 3202716629200 1 0
-20.372885 19.782959 2.3182366 4 3202716631504 1 0
-24.80553 19.772478 -1.2923747 4 3202716631504 1 0
-18.400576 19.709202 -0.9415884 26 3202716633808 1 0
0 0 0 9 3202716633808 1 0
0 0 0 29 3202716636112 1 0
-24.35738 21.455036 -0.7553076 9 3202716636112 1 0
-2.955113 2.8787436 -1.9237583 4 3202716656296 1 0
0 0 0 36 3202716656296 1 0
0 0 0 75 3202716658600 1 0
-5.4935603 4.8531027 -2.0520077 4 3202716658600 1 0
-8.123079 7.9175296 -2.2686849 3 3202716660904 1 0
-27.713987 24.489819 0 25 3202716660904 1 0
-27.406576 29.465906 -0.46848375 13 3202716663208 1 0
-11.771612 10.405032 -2.4442666 2 3202716663208 1 0
-15.482057 15.098638 -2.7526472 6 3202716665512 1 0
0 0 0 7 3202716665512 1 0
-18.86944 16.688156 -2.7134109 8 3202716667816 1 0
-20.263083 19.766722 -0.16452365 32 3202716667816 1 0
-16.863815 18.146038 -2.3124485 2 3202716670120 1 0
-27.947536 24.723719 0.86827344 16 3202716670120 1 0
-27.169771 29.2437 0.46471205 15 3202716672424 1 0
-21.264566 18.816883 -1.9855483 21 3202716672424 1 0
-18.522135 18.08341 -2.113198 3 3202716674728 1 0
0 0 0 20 3202716674728 1 0
-20.243689 19.769651 0.4939031 11 3202716677032 1 0
-24.407587 19.56903 -2.004941 3 3202716677032 1 0
-17.376577 18.718525 -1.4874287 6 3202716679336 1 0
-33.586 29.744877 2.6127677 39 3202716679336 1 0
-20.253117 19.789795 1.1536443 8 3202716681640 1 0
-22.554104 19.980223 -1.4035648 4 3202716681640 1 0
0 0 0 68 3202716683944 1 0
-33.62465 29.79569 5.516294 20 3202716683944 1 0
-20.279924 19.82695 2.3153074 4 3202716686248 1 0
-24.591747 19.739023 -1.2847217 4 3202716686248 1 0
-26.602182 28.688381 -1.3662455 22 3202716688552 1 0
0 0 0 29 3202716690856 1 0
0 0 0 9 3202716688552 1 0
-24.179974 21.444412 -0.7520508 4 3202716690856 1 0
-26.43185 21.282152 -0.5923347 35 3202716711592 1 0
0 0 0 9 3202716713896 1 0
-5.4745226 4.8687735 -2.0509293 4 3202716713896 1 0
-2.935197 2.8783743 -1.9169965 5 3202716711592 1 0
-8.1022625 7.950035 -2.2702537 4 3202716716200 1 0
-28.12239 25.01801 0 21 3202716716200 1 0
-27.2375 29.48084 -0.4672731 26 3202716718504 1 0
-11.739768 10.446895 -2.4448814 2 3202716718504 1 0
-15.411641 15.130885 -2.7491117 6 3202716720808 1 0
-26.441727 21.315474 0.19739583 14 3202716720808 1 0
0 0 0 9 3202716723112 1 0
-18.768833 16.71165 -2.706985 8 3202716723112 1 0
-16.667683 18.05627 -2.2938597 2 3202716725416 1 0
-28.109182 25.03557 0.8759037 16 3202716725416 1 0
-27.179655 29.45259 0.4665746 16 3202716727720 1 0
-21.400705 19.066217 -2.004243 10 3202716727720 1 0
-18.455324 18.140217 -2.1125472 9 3202716730024 1 0
0 0 0 6 3202716730024 1 0
-30.012693 29.50884 0.7346765 22 3202716732328 1 0
-24.201506 19.538618 -1.9934286 3 3202716732328 1 0
-17.269733 18.730331 -1.4837078 6 3202716734632 1 0
-33.258495 29.656542 2.5950933 38 3202716734632 1 0
-29.901182 29.416311 1.7088916 27 3202716736936 1 0
-22.342989 19.929039 -1.3946308 4 3202716736936 1 0
0 0 0 8 3202716739240 1 0
-33.369003 29.77251 5.4909453 20 3202716739240 1 0
-24.670002 24.284086 2.8259509 7 3202716741544 1 0
-27.121414 29.449583 -1.3980738 23 3202716743848 1 0
-24.371977 19.699675 -1.2767432 4 3202716741544 1 0
0 0 0 9 3202716743848 1 0
0 0 0 29 3202716746152 1 0
-24.088484 21.511127 -0.7514925 4 3202716746152 1 0
-2.9277112 2.8911498 -1.9186869 4 3202716766888 1 0
-37.015297 30.017208 -0.8318515 8 3202716766888 1 0
-26.30052 25.979633 -1.0758843 22 3202716769192 1 0
-5.4546247 4.8852835 -2.049851 3 3202716769192 1 0
-8.074463 7.978269 -2.2702537 4 3202716771496 1 0
-27.04249 29.47553 -0.4656899 13 3202716773800 1 0
-28.019993 25.102676 0 47 3202716771496 1 0
-11.717948 10.500999 -2.4479558 2 3202716773800 1 0
-15.344623 15.17064 -2.7465863 6 3202716776104 1 0
-36.018456 29.24358 0.26964954 18 3202716776104 1 0
-18.677814 16.74786 -2.7022727 8 3202716778408 1 0
-16.604553 18.114342 -2.2938597 2 3202716780712 1 0
-28.069252 25.176258 0.8773926 16 3202716780712 1 0
-27.138832 29.615108 0.4676456 10 3202716783016 1 0
-26.301775 26.011124 -0.21499431 10 3202716778408 1 0
-21.224129 19.042208 -1.993919 61 3202716783016 1 0
-18.403223 18.215746 -2.113849 9 3202716785320 1 0
-36.5794 29.73434 1.3719096 42 3202716785320 1 0
-29.741825 29.447405 0.73055774 22 3202716787624 1 0
-24.210587 19.685936 -1.9998243 3 3202716787624 1 0
-17.099081 18.675636 -1.4746381 6 3202716789928 1 0
-33.000275 29.633718 2.5830004 37 3202716789928 1 0
-29.636478 29.360176 1.6996104 18 3202716792232 1 0
-22.06521 19.820004 -1.3816022 4 3202716792232 1 0
-19.51238 19.336092 -1.4396574 4 3202716794536 1 0
-33.117214 29.756134 5.4665713 29 3202716794536 1 0
-24.692678 24.476704 2.8383183 7 3202716796840 1 0
-24.343357 19.81743 -1.27886 4 3202716796840 1 0
0 0 0 9 3202716799144 1 0
-27.118269 29.653223 -1.403239 23 3202716799144 1 0
0 0 0 29 3202716801448 1 0
-24.037037 21.616472 -0.7522369 4 3202716801448 1 0
-2.9227426 2.9064643 -1.9220679 4 3202716822184 1 0
-36.801876 30.057686 -0.82940817 16 3202716822184 1 0
-27.30954 27.165339 -1.1210328 7 3202716824488 1 0
-5.4346786 4.9017143 -2.0487728 3 3202716824488 1 0
-8.049345 8.009172 -2.2710383 4 3202716826792 1 0
-27.896559 25.168179 0 42 3202716826792 1 0
-26.842464 29.463306 -0.46401358 25 3202716829096 1 0
-11.698827 10.557727 -2.4516454 2 3202716829096 1 0
-15.283137 15.215712 -2.7450712 6 3202716831400 1 0
-35.652954 29.153906 0.2676735 17 3202716831400 1 0
0 0 0 47 3202716833704 1 0
-18.580868 16.778305 -2.6967037 8 3202716833704 1 0
-16.549265 18.181028 -2.294975 2 3202716836008 1 0
-28.043518 25.330374 0.8793467 16 3202716836008 1 0
-26.846853 29.502583 0.46438608 15 3202716838312 1 0
-21.178255 19.134903 -1.9958723 39 3202716838312 1 0
0 0 0 76 3202716840616 1 0
-36.308323 29.725073 1.365626 35 3202716840616 1 0
-29.528399 29.440916 0.7278352 68 3202716842920 1 0
-22.80446 18.675207 -1.8890499 10 3202716842920 1 0
-17.00961 18.708618 -1.4725451 6 3202716845224 1 0
-32.78112 29.644274 2.5739307 37 3202716845224 1 0
-29.457417 29.387236 1.695214 71 3202716847528 1 0
-19.328838 19.288399 -1.4310744 4 3202716849832 1 0
-21.901068 19.81113 -1.3756461 4 3202716847528 1 0
-32.863003 29.735703 5.44171 19 3202716849832 1 0
-24.666342 24.621895 2.8451529 7 3202716852136 1 0
-25.590652 20.981781 -1.3482251 5 3202716852136 1 0
0 0 0 9 3202716854440 1 0
-26.383036 29.052248 -1.3704334 22 3202716854440 1 0
0 0 0 29 3202716856744 1 0
-23.982183 21.719036 -0.75288826 4 3202716856744 1 0
-2.9100177 2.9140837 -1.9203774 4 3202716877480 1 0
-36.53303 30.051308 -0.82570827 16 3202716877480 1 0
-27.304943 27.35105 -1.1247565 8 3202716879784 1 0
-5.423238 4.9258347 -2.0509293 3 3202716879784 1 0
-8.021338 8.037221 -2.2710383 4 3202716882088 1 0
-27.796694 25.254642 0 21 3202716882088 1 0
-26.14107 28.895391 -0.45362973 8 3202716884392 1 0
-11.667751 10.603816 -2.4528751 2 3202716884392 1 0
-15.229932 15.268968 -2.7450712 6 3202716886696 1 0
0 0 0 5 3202716886696 1 0
-27.173023 27.250597 -0.22366568 15 3202716889000 1 0
-18.48688 16.810955 -2.6915631 8 3202716889000 1 0
-16.464334 18.215048 -2.2920008 2 3202716891304 1 0
-27.937178 25.411964 0.8787884 16 3202716891304 1 0
-26.818792 29.67921 0.4656899 16 3202716893608 1 0
0 0 0 1 3202716893608 1 0
0 0 0 19 3202716895912 1 0
-36.031586 29.70919 1.3591098 28 3202716895912 1 0
-29.309736 29.42763 0.72497296 45 3202716898216 1 0
-22.50817 18.564201 -1.8698627 10 3202716898216 1 0
-16.861246 18.675995 -1.4653358 6 3202716900520 1 0
-32.497345 29.594511 2.5597448 37 3202716900520 1 0
-29.230595 29.36525 1.6880496 35 3202716902824 1 0
-21.734304 19.798664 -1.369504 4 3202716902824 1 0
-19.143051 19.236832 -1.422282 4 3202716905128 1 0
-32.618145 29.72188 5.418311 19 3202716905128 1 0
-24.675844 24.803942 2.8562186 7 3202716907432 1 0
-24.259886 20.032701 -1.2817909 4 3202716907432 1 0
-26.824923 29.74682 -1.3987719 31 3202716909736 1 0
0 0 0 9 3202716909736 1 0
0 0 0 29 3202716912040 1 0
-23.980091 21.869984 -0.7552146 4 3202716912040 1 0
-2.899828 2.924224 -1.9203774 4 3202716932776 1 0
-28.78384 23.84593 -0.6524408 6 3202716932776 1 0
-27.031961 27.26731 -1.1174256 15 3202716935080 1 0
-5.411695 4.9499345 -2.053086 4 3202716935080 1 0
-8.00704 8.079101 -2.2749605 4 3202716937384 1 0
-28.310404 25.902344 0 10 3202716937384 1 0
0 0 0 32 3202716939688 1 0
-11.639414 10.652485 -2.45472 2 3202716939688 1 0
-15.170956 15.316399 -2.744061 6 3202716941992 1 0
-28.789251 23.878672 0.21738882 16 3202716941992 1 0
-27.522417 27.794357 -0.22733882 10 3202716944296 1 0
-18.392889 16.843153 -2.6864223 8 3202716944296 1 0
-16.397993 18.269445 -2.2916288 2 3202716946600 1 0
-28.116644 25.75513 0.88725615 16 3202716946600 1 0
-27.145098 30.251936 0.47318676 16 3202716948904 1 0
-19.520195 17.88592 -1.8513368 3 3202716948904 1 0
-35.826157 29.75049 1.3552698 35 3202716951208 1 0
-18.348856 18.546333 -2.1297965 6 3202716951208 1 0
-29.074654 29.396116 0.7216919 52 3202716953512 1 0
-22.314264 18.53553 -1.8591177 10 3202716953512 1 0
-32.261406 29.586311 2.5492797 36 3202716955816 1 0
-16.769297 18.705006 -1.4630103 6 3202716955816 1 0
-29.099815 29.43868 1.6864213 8 3202716958120 1 0
-21.606173 19.820389 -1.3657815 4 3202716958120 1 0
-18.95786 19.184202 -1.4134895 4 3202716960424 1 0
-32.37671 29.709398 5.3953996 28 3202716960424 1 0
-24.18981 20.117262 -1.2817909 4 3202716962728 1 0
-27.134272 30.301878 -1.4204096 62 3202716965032 1 0
0 0 0 9 3202716965032 1 0
-24.698383 25.000536 2.8689113 7 3202716962728 1 0
0 0 0 29 3202716967336 1 0
-23.941893 21.988722 -0.75642425 4 3202716967336 1 0
-2.8921463 2.9369113 -1.9220679 4 3202716988072 1 0
0 0 0 65 3202716988072 1 0
0 0 0 28 3202716990376 1 0
-7.9760385 8.104206 -2.2741761 3 3202716992680 1 0
-5.39155 4.966185 -2.0520077 3 3202716990376 1 0
-30.461397 28.066343 0 12 3202716992680 1 0
-27.142187 30.426281 -0.47467682 40 3202716994984 1 0
-11.6195965 10.709121 -2.4584093 4 3202716994984 1 0
-15.125747 15.3777485 -2.7455761 10 3202716997288 1 0
-28.503117 23.809774 0.21585448 16 3202716997288 1 0
-27.304636 27.76762 -0.22633916 16 3202716999592 1 0
-18.2989 16.8749 -2.6812818 7 3202716999592 1 0
-28.082417 25.904634 0.88902414 16 3202717001896 1 0
-16.368568 18.365225 -2.296462 2 3202717001896 1 0
-27.132463 30.451025 0.4748165 38 3202717004200 1 0
-19.349138 17.853828 -1.8410128 3 3202717004200 1 0
-18.334297 18.661459 -2.1356547 3 3202717006504 1 0
-28.643305 23.955185 1.086706 13 3202717006504 1 0
-28.851358 29.374735 0.7186901 60 3202717008808 1 0
-22.130022 18.513416 -1.8491404 9 3202717008808 1 0
-16.695936 18.754478 -1.4623127 6 3202717011112 1 0
-32.017124 29.5687 2.5381172 36 3202717011112 1 0
-21.434132 19.800793 -1.3592672 4 3202717013416 1 0
0 0 0 100 3202717013416 1 0
-18.80125 19.159027 -1.4067905 4 3202717015720 1 0
-32.12993 29.690205 5.3715134 28 3202717015720 1 0
-24.636093 25.11221 2.8718405 7 3202717018024 1 0
-24.19604 20.265734 -1.2858616 4 3202717018024 1 0
-27.105368 30.483042 -1.4244579 55 3202717020328 1 0
0 0 0 9 3202717020328 1 0
0 0 0 29 3202717022632 1 0
-23.873798 22.080307 -0.75670344 4 3202717022632 1 0
-28.631973 24.05916 -0.65278983 18 3202717043368 1 0
-2.8793426 2.944397 -1.9203774 4 3202717043368 1 0
-26.950151 27.566668 -1.1219637 7 3202717045672 1 0
-7.9505606 8.134687 -2.2749605 4 3202717047976 1 0
-30.240498 28.057795 0 12 3202717047976 1 0
-27.113394 30.607075 -0.47602716 4 3202717050280 1 0
-5.3742185 4.9849358 -2.0520077 4 3202717045672 1 0
