# .PCD v.7 - Point Cloud Data file format
VERSION .7
FIELDS x y z rgb timestamp_ns device_id active
SIZE 4 4 4 4 8 1 1
TYPE F F F F F U U
COUNT 1 1 1 1 1 1 1
WIDTH 949
HEIGHT 1
VIEWPOINT 0 0 0 1 0 0 0
POINTS 949               
DATA ascii
-8.247437 18.544365 0.1179586 17 3199024330288 1 0
-9.801469 29.518763 -0.18077376 41 3199024332592 1 0
-5.475961 14.1410475 -1.6334442 34 3199024332592 1 0
-4.0415483 14.514313 -1.4064296 5 3199024334896 1 0
-10.785859 27.86529 0.6952887 34 3199024334896 1 0
-7.762787 27.894005 0.3370792 7 3199024337200 1 0
-5.458418 14.107929 -1.0577872 9 3199024337200 1 0
-4.593339 13.853819 -1.1915014 10 3199024339504 1 0
-8.591904 19.34921 0.6161375 28 3199024339504 1 0
-9.514994 28.711838 0.5279702 34 3199024341808 1 0
-6.3677855 14.346059 -1.0059242 6 3199024341808 1 0
-4.0491304 14.574348 -0.88092244 10 3199024344112 1 0
-10.847893 28.07406 1.7527752 15 3199024344112 1 0
-9.7313385 29.393297 1.2614372 46 3199024346416 1 0
-5.4504023 14.111602 -0.7046673 4 3199024346416 1 0
-4.5866976 13.860777 -0.7651517 5 3199024348720 1 0
-9.60893 24.889189 3.275848 11 3199024348720 1 0
-8.684539 26.257057 2.2577014 13 3199024351024 1 0
-6.360726 14.352667 -0.63959277 4 3199024351024 1 0
-4.0514383 14.615619 -0.5296348 10 3199024353328 1 0
-7.368267 19.101929 5.4859285 17 3199024353328 1 0
0 0 0 32 3199024355632 1 0
-10.645794 27.610739 -0.688589 60 3199024355632 1 0
-1.2903587 3.9223409 -1.9254488 4 3199024376368 1 0
-12.821332 29.056116 -0.55435824 4 3199024376368 1 0
-2.6367707 6.8684254 -2.0595558 7 3199024378672 1 0
-4.5847907 13.943353 -0.4271654 8 3199024378672 1 0
-3.6114767 10.988678 -2.3133996 2 3199024380976 1 0
-8.292987 21.611485 0 40 3199024380976 1 0
-10.604001 38.536987 -0.46531737 12 3199024383280 1 0
-5.6533732 14.739073 -2.4559498 8 3199024383280 1 0
-4.6392927 14.129881 -1.8930132 15 3199024385584 1 0
-8.540666 19.385658 0.12311958 26 3199024385584 1 0
-5.413758 14.126653 -1.6295887 32 3199024387888 1 0
-4.009848 14.59746 -1.4131216 6 3199024390192 1 0
-9.970263 30.381308 -0.18584175 34 3199024387888 1 0
-10.705691 27.94758 0.69640535 34 3199024390192 1 0
-6.932613 25.251877 0.3048567 21 3199024392496 1 0
-5.397724 14.097085 -1.055555 9 3199024392496 1 0
-4.533779 13.835671 -1.1885722 10 3199024394800 1 0
-8.551678 19.441303 0.61811566 18 3199024394800 1 0
-9.43463 28.805689 0.5290871 38 3199024397104 1 0
-6.3016024 14.331657 -1.0033659 6 3199024397104 1 0
-4.0193415 14.665418 -0.88557357 11 3199024399408 1 0
-11.753927 30.737558 1.9164947 18 3199024399408 1 0
-9.636135 29.449879 1.2624142 15 3199024401712 1 0
-5.386844 14.093218 -0.7028061 4 3199024401712 1 0
-4.528353 13.846331 -0.7634769 5 3199024404016 1 0
-7.9194064 20.72802 2.7245111 26 3199024404016 1 0
-8.589116 26.275845 2.256725 8 3199024406320 1 0
-6.2945213 14.338186 -0.6379645 4 3199024406320 1 0
-4.014103 14.6798 -0.53144956 6 3199024408624 1 0
-7.347015 19.24665 5.5200925 4 3199024408624 1 0
-6.6697836 20.424334 3.9174159 25 3199024410928 1 0
-10.557903 27.670149 -0.6891473 48 3199024410928 1 0
-1.2732967 3.9164784 -1.9203774 4 3199024431664 1 0
0 0 0 65 3199024431664 1 0
-2.6141474 6.8811884 -2.0606341 6 3199024433968 1 0
-4.5237346 13.921246 -0.4260018 9 3199024433968 1 0
-3.5355365 10.8855715 -2.289081 2 3199024436272 1 0
-8.443277 22.234877 0 13 3199024436272 1 0
-5.597682 14.747631 -2.454105 8 3199024438576 1 0
-10.465227 38.558327 -0.46513113 21 3199024438576 1 0
-4.5752463 14.1006975 -1.8869523 20 3199024440880 1 0
-8.458546 19.382359 0.12291035 30 3199024440880 1 0
-9.938189 30.644217 -0.1872366 51 3199024443184 1 0
-5.351722 14.111998 -1.6257333 28 3199024443184 1 0
-3.981783 14.695937 -1.4213006 3 3199024445488 1 0
-10.63075 28.04461 0.6978942 28 3199024445488 1 0
-7.1716447 26.484318 0.31943133 19 3199024447792 1 0
-5.332931 14.074796 -1.0524857 9 3199024447792 1 0
-4.4744024 13.817278 -1.1856431 10 3199024450096 1 0
-8.930949 20.49737 0.65069705 10 3199024450096 1 0
-9.479346 29.287441 0.53732467 78 3199024452400 1 0
-6.2324095 14.309649 -1.0002959 6 3199024452400 1 0
-3.9920924 14.768021 -0.89092237 13 3199024454704 1 0
-11.318688 29.91193 1.8625417 17 3199024454704 1 0
-9.731247 30.09559 1.2886297 16 3199024457008 1 0
-4.4664807 13.820243 -0.76117414 5 3199024459312 1 0
-5.324895 14.0783 -0.701131 4 3199024457008 1 0
-7.8554277 20.777819 2.7274358 21 3199024459312 1 0
-8.431169 26.100805 2.2391503 8 3199024461616 1 0
-6.2284956 14.32342 -0.6363362 4 3199024461616 1 0
-3.9951053 14.813372 -0.5357771 4 3199024463920 1 0
0 0 0 96 3199024463920 1 0
-6.5090194 20.170364 3.8643227 22 3199024466224 1 0
-10.473965 27.740505 -0.68998474 44 3199024466224 1 0
-1.2607267 3.9243505 -1.9220679 4 3199024486960 1 0
-8.499509 19.631804 -0.3734117 4 3199024486960 1 0
-4.455555 13.876041 -0.42413998 9 3199024489264 1 0
-2.587401 6.8830605 -2.0584774 6 3199024489264 1 0
-8.406412 22.3728 0 7 3199024491568 1 0
-3.497517 10.897847 -2.289081 2 3199024491568 1 0
-14.676255 54.82994 -0.66079444 16 3199024493872 1 0
-5.54339 14.759681 -2.4528751 7 3199024493872 1 0
-4.5175176 14.090133 -1.8834168 22 3199024496176 1 0
-9.443065 21.846039 0.13832355 27 3199024496176 1 0
-5.28706 14.089634 -1.6210209 20 3199024498480 1 0
-9.821394 30.648247 -0.18705063 25 3199024498480 1 0
-3.9551349 14.802092 -1.4302233 3 3199024500784 1 0
-10.719572 28.579527 0.71027017 28 3199024500784 1 0
-6.7478986 25.268745 0.30448416 23 3199024503088 1 0
-5.2697606 14.055962 -1.0496954 9 3199024503088 1 0
-8.63913 20.018147 0.63452274 24 3199024505392 1 0
-9.377057 29.320353 0.53732467 21 3199024507696 1 0
-4.415209 13.798638 -1.182714 10 3199024505392 1 0
-6.1634474 14.287334 -0.99722594 6 3199024507696 1 0
-3.963147 14.866753 -0.8960386 9 3199024510000 1 0
0 0 0 33 3199024512304 1 0
-11.085389 29.607204 1.8411465 45 3199024510000 1 0
-5.2631154 14.063122 -0.69945586 4 3199024512304 1 0
-4.410921 13.812918 -0.7599181 5 3199024514608 1 0
-7.738339 20.68612 2.7118366 21 3199024514608 1 0
-8.366677 26.21363 2.2463105 13 3199024516912 1 0
-6.1547446 14.290013 -0.6338938 4 3199024516912 1 0
-3.9649494 14.908356 -0.5387086 4 3199024519216 1 0
-7.274693 19.463955 5.567715 6 3199024519216 1 0
-6.328593 19.84804 3.798315 28 3199024521520 1 0
-10.386865 27.803118 -0.6906361 24 3199024521520 1 0
-1.249214 3.9356382 -1.9254488 4 3199024542256 1 0
-22.66689 52.860332 -1.0039322 10 3199024542256 1 0
-4.391373 13.841966 -0.42262727 11 3199024544560 1 0
-2.5633588 6.8920503 -2.0584774 6 3199024544560 1 0
-3.4914653 11.010939 -2.3102617 2 3199024546864 1 0
-8.207001 22.07582 0 57 3199024546864 1 0
-14.665438 55.56535 -0.6690363 25 3199024549168 1 0
-5.246774 14.119464 -2.3434212 3 3199024549168 1 0
-4.4347553 13.999899 -1.8692747 13 3199024551472 1 0
-8.403313 19.62847 0.124095984 20 3199024551472 1 0
-9.408892 29.717562 -0.18116897 8 3199024553776 1 0
-5.2240033 14.07072 -1.616737 15 3199024553776 1 0
-3.9247499 14.896684 -1.4380306 3 3199024556080 1 0
-10.629485 28.643013 0.7109216 44 3199024556080 1 0
-6.6545606 25.272806 0.30425134 25 3199024558384 1 0
-5.208174 14.040601 -1.0471842 10 3199024558384 1 0
-4.3598056 13.791158 -1.1807612 5 3199024560688 1 0
-9.439793 22.084984 0.69898736 21 3199024560688 1 0
-9.424068 29.825785 0.5459811 23 3199024562992 1 0
-6.0962853 14.268383 -0.9944118 6 3199024562992 1 0
-3.9335606 14.965461 -0.9011548 6 3199024565296 1 0
-10.86684 29.33492 1.8218443 38 3199024565296 1 0
-9.547372 30.246643 1.2922119 53 3199024567600 1 0
-5.197345 14.036444 -0.69722235 4 3199024567600 1 0
-4.356669 13.809183 -0.7588714 9 3199024569904 1 0
-7.6302543 20.6162 2.6991622 18 3199024569904 1 0
-8.314689 26.368149 2.2570505 21 3199024572208 1 0
-6.0907125 14.278324 -0.6324283 4 3199024572208 1 0
-3.9412763 15.030376 -0.5426174 6 3199024574512 1 0
-7.1504254 19.337027 5.524234 19 3199024574512 1 0
0 0 0 1 3199024576816 1 0
-6.2273483 19.768671 3.7789433 26 3199024576816 1 0
-1.2343837 3.9365156 -1.9237583 4 3199024597552 1 0
0 0 0 43 3199024597552 1 0
-4.327484 13.8076105 -0.42111456 9 3199024599856 1 0
-2.5419457 6.908186 -2.0606341 6 3199024599856 1 0
-3.4201787 10.918256 -2.2882965 2 3199024602160 1 0
-11.2131195 30.487312 0 18 3199024602160 1 0
0 0 0 11 3199024604464 1 0
-5.1824546 14.096886 -2.3366573 6 3199024604464 1 0
-4.3135715 13.784293 -1.8384653 18 3199024606768 1 0
-8.337868 19.665049 0.124142475 22 3199024606768 1 0
0 0 0 100 3199024609072 1 0
-5.161144 14.051538 -1.6124532 18 3199024609072 1 0
-3.882739 14.948841 -1.4417484 7 3199024611376 1 0
-10.467419 28.511017 0.7067342 40 3199024611376 1 0
-6.5462027 25.218452 0.30332005 31 3199024613680 1 0
-5.1440105 14.017489 -1.044115 9 3199024613680 1 0
-4.304508 13.78346 -1.1788085 3 3199024615984 1 0
-8.514753 20.11479 0.63568634 8 3199024615984 1 0
-9.479581 30.370077 0.5553356 33 3199024618288 1 0
-6.030887 14.252813 -0.99185354 8 3199024618288 1 0
-10.734147 29.290188 1.8167281 16 3199024620592 1 0
-3.9023316 15.060278 -0.9060385 4 3199024620592 1 0
-9.328708 29.917313 1.2767432 10 3199024622896 1 0
-5.137322 14.024486 -0.69573337 4 3199024622896 1 0
-4.301308 13.801426 -0.7576153 7 3199024625200 1 0
-7.6442413 20.87758 2.7298732 18 3199024625200 1 0
-9.626425 30.903727 2.6423926 6 3199024627504 1 0
-6.0206156 14.2516365 -0.63031155 4 3199024627504 1 0
-3.9077952 15.1175785 -0.5452697 6 3199024629808 1 0
-7.0735917 19.336468 5.516987 6 3199024629808 1 0
-6.1664896 19.81659 3.7839656 26 3199024632112 1 0
-18.704123 51.15291 -1.2673758 10 3199024632112 1 0
-10.694706 25.404457 -0.48112795 28 3199024652296 1 0
-4.294739 13.85551 -0.42216182 6 3199024654600 1 0
-1.2230846 3.9438367 -1.9254488 3 3199024652296 1 0
-2.5162742 6.9052806 -2.0573993 5 3199024654600 1 0
-3.3847005 10.9251995 -2.287512 2 3199024656904 1 0
-11.129606 30.556215 0 58 3199024656904 1 0
-5.135438 14.10567 -2.3354275 12 3199024659208 1 0
0 0 0 28 3199024659208 1 0
-4.2901893 13.862217 -1.8470516 21 3199024661512 1 0
-8.279147 19.69852 0.124188974 5 3199024661512 1 0
-8.03074 25.961842 -0.15794456 30 3199024663816 1 0
-3.8505933 15.018834 -1.447325 3 3199024666120 1 0
-5.104739 14.034046 -1.6085976 16 3199024663816 1 0
-10.364133 28.506178 0.7058037 44 3199024666120 1 0
-5.449349 21.267467 0.25559163 4 3199024668424 1 0
-5.087682 13.999827 -1.0416037 10 3199024668424 1 0
-4.285891 13.876908 -1.1856431 12 3199024670728 1 0
-9.530401 30.873568 0.56399196 48 3199024673032 1 0
-9.307036 22.180286 0.7000346 19 3199024670728 1 0
-5.9660087 14.223835 -0.9885277 7 3199024673032 1 0
-6.5691323 25.684313 -1.5439398 7 3199024675336 1 0
-10.659786 29.372562 1.8197514 11 3199024675336 1 0
-9.328894 30.25201 1.2897695 10 3199024677640 1 0
-5.082337 14.010506 -0.6942444 4 3199024677640 1 0
-4.27793 13.879765 -0.76117414 9 3199024679944 1 0
-7.5055356 20.699942 2.7035496 21 3199024679944 1 0
0 0 0 76 3199024682248 1 0
-5.9619193 14.237302 -0.62884605 4 3199024682248 1 0
-6.59885 25.86317 -0.93209577 14 3199024684552 1 0
-7.0943995 19.583822 5.581174 25 3199024684552 1 0
-6.1285095 19.914846 3.7990324 23 3199024686856 1 0
0 0 0 29 3199024686856 1 0
-10.6044235 25.437943 -0.48105812 31 3199024707592 1 0
-4.269757 13.946879 -0.42448908 4 3199024709896 1 0
-1.2093105 3.948082 -1.9254488 4 3199024707592 1 0
-2.4921548 6.914022 -2.0573993 6 3199024709896 1 0
-3.345396 10.933197 -2.2867277 2 3199024712200 1 0
-11.017454 30.579826 0 27 3199024712200 1 0
-5.38648 21.279352 -0.25554505 1 3199024714504 1 0
-5.0834904 14.116073 -2.3341975 13 3199024714504 1 0
-4.2510543 13.907466 -1.8510922 12 3199024716808 1 0
-9.078708 21.81377 0.1373239 35 3199024716808 1 0
-7.9622726 26.062399 -0.15838628 10 3199024719112 1 0
-5.0436025 14.0181 -1.6047422 20 3199024719112 1 0
-4.0840054 16.163555 -1.5562555 13 3199024721416 1 0
-11.02375 30.653212 0.75800616 13 3199024721416 1 0
-6.370971 25.23029 0.30294755 20 3199024723720 1 0
-5.026634 13.983706 -1.0390924 9 3199024723720 1 0
-4.25371 13.945169 -1.1901995 11 3199024726024 1 0
-9.186599 22.109257 0.69677645 42 3199024726024 1 0
-7.932037 26.01759 0.47477525 14 3199024728328 1 0
-5.905604 14.218768 -0.9867369 6 3199024728328 1 0
-7.121623 28.25495 -1.6969618 4 3199024730632 1 0
-9.910943 27.609314 1.708357 9 3199024730632 1 0
-9.190634 30.177338 1.2852103 15 3199024732936 1 0
-5.0199056 13.990552 -0.6923831 4 3199024732936 1 0
-4.249229 13.959577 -0.764733 5 3199024735240 1 0
-7.4841647 20.868025 2.7220736 23 3199024735240 1 0
-8.071713 26.531061 2.263885 13 3199024737544 1 0
-5.895346 14.217416 -0.6270549 4 3199024737544 1 0
-8.270912 32.89548 -1.1844889 5 3199024739848 1 0
-7.022086 19.597555 5.5780683 12 3199024739848 1 0
-6.0200505 19.808105 3.7746384 16 3199024742152 1 0
-11.913974 33.26529 -0.8222124 71 3199024742152 1 0
-1.1944722 3.9488091 -1.9237583 3 3199024762888 1 0
-4.2557597 14.076515 -0.42797995 17 3199024765192 1 0
-10.533875 25.519165 -0.48189583 35 3199024762888 1 0
-2.4692988 6.926307 -2.0584774 6 3199024765192 1 0
-10.809942 30.335503 0 13 3199024767496 1 0
-3.3083463 10.948563 -2.287512 2 3199024767496 1 0
0 0 0 14 3199024769800 1 0
-5.020923 14.096498 -2.3280485 11 3199024769800 1 0
-4.225415 13.998194 -1.8611937 15 3199024772104 1 0
-9.058897 21.982162 0.13818406 32 3199024772104 1 0
-4.926318 16.32877 -0.099128 21 3199024774408 1 0
-4.9786396 13.990659 -1.5996015 20 3199024774408 1 0
0 0 0 80 3199024776712 1 0
-10.770609 30.280828 0.7478634 21 3199024776712 1 0
-6.838141 27.484179 0.32972205 6 3199024779016 1 0
-4.9644246 13.963571 -1.0363022 9 3199024779016 1 0
-4.2245536 14.024828 -1.1957324 12 3199024781320 1 0
-9.11241 22.148584 0.6970092 29 3199024781320 1 0
-5.837716 14.194995 -0.98366696 6 3199024783624 1 0
-4.918458 16.33708 0.29780787 25 3199024783624 1 0
0 0 0 10 3199024785928 1 0
-10.405035 29.307032 1.8111467 16 3199024785928 1 0
-9.066823 30.147997 1.282605 10 3199024788232 1 0
-4.9590125 13.974099 -0.690708 4 3199024788232 1 0
-4.2234726 14.050833 -0.7689199 6 3199024790536 1 0
-7.3993306 20.860348 2.7176864 15 3199024790536 1 0
-5.8259487 14.189844 -0.6249382 4 3199024792840 1 0
-7.914817 26.345259 2.2456594 8 3199024792840 1 0
-7.5898705 30.638668 -1.1022657 4 3199024795144 1 0
-6.94202 19.58917 5.5687504 14 3199024795144 1 0
0 0 0 3 3199024797448 1 0
-6.0990486 20.322744 3.8686275 20 3199024797448 1 0
-1.1817185 3.9564283 -1.9254488 4 3199024818184 1 0
-10.455325 25.581694 -0.4823845 28 3199024818184 1 0
-4.219178 14.133429 -0.42925993 17 3199024820488 1 0
-2.4463873 6.938517 -2.0595558 5 3199024820488 1 0
-3.2667441 10.948769 -2.2851586 2 3199024822792 1 0
-10.668088 30.271193 0 45 3199024822792 1 0
0 0 0 56 3199024825096 1 0
-4.951989 14.05802 -2.3188248 5 3199024825096 1 0
-4.195794 14.077503 -1.8697798 28 3199024827400 1 0
-6.955695 17.047247 0.10700896 8 3199024827400 1 0
-4.873858 16.3612 -0.09922099 13 3199024829704 1 0
-4.919211 13.97794 -1.5961744 22 3199024829704 1 0
-5.3817115 21.943468 -2.1090868 5 3199024832008 1 0
-10.126095 28.786673 0.7100841 56 3199024832008 1 0
0 0 0 68 3199024834312 1 0
-4.905064 13.9507 -1.03407 7 3199024834312 1 0
-4.197166 14.112093 -1.201916 12 3199024836616 1 0
-6.9399376 17.036955 0.5353822 20 3199024836616 1 0
-7.7490683 26.068499 0.47470546 17 3199024838920 1 0
-5.768561 14.167223 -0.98034114 5 3199024838920 1 0
-6.309301 25.790483 -1.5462654 10 3199024841224 1 0
-7.9524064 26.781065 1.1381756 34 3199024843528 1 0
-4.8969717 13.953622 -0.68884677 4 3199024843528 1 0
-10.257693 29.21507 1.8032398 10 3199024841224 1 0
-4.193721 14.13059 -0.7724787 6 3199024845832 1 0
-7.354067 20.964722 2.7279234 21 3199024845832 1 0
-7.781992 26.23513 2.233943 8 3199024848136 1 0
-5.762836 14.176772 -0.6234727 4 3199024848136 1 0
-7.5928063 31.115473 -1.1184591 4 3199024850440 1 0
-6.862098 19.580467 5.559433 14 3199024850440 1 0
-6.0504313 20.41937 3.8829772 20 3199024852744 1 0
-5.3952007 15.401967 -0.3797475 4 3199024852744 1 0
-1.1668755 3.957052 -1.9237583 4 3199024873480 1 0
-6.9066424 17.068804 -0.3214035 26 3199024873480 1 0
-4.1980762 14.24395 -0.43216896 10 3199024875784 1 0
-2.4221523 6.9470143 -2.0595558 5 3199024875784 1 0
-3.2318308 10.971393 -2.287512 2 3199024878088 1 0
-10.559725 30.300692 0 63 3199024878088 1 0
-5.071149 20.953617 -0.25098175 16 3199024880392 1 0
-4.8859854 14.026697 -2.310831 2 3199024880392 1 0
-8.878246 21.978111 0.1377656 7 3199024882696 1 0
-4.169031 14.168196 -1.8798813 24 3199024882696 1 0
-9.88059 33.596622 -0.20353322 14 3199024885000 1 0
-4.8586245 13.961222 -1.5923189 29 3199024885000 1 0
0 0 0 20 3199024887304 1 0
-10.037373 28.855837 0.7109216 32 3199024887304 1 0
-4.960407 20.548319 0.2460925 22 3199024889608 1 0
-4.8445435 13.933816 -1.0315588 10 3199024889608 1 0
-4.171467 14.206988 -1.2087506 11 3199024891912 1 0
0 0 0 10 3199024891912 1 0
-9.031965 30.777208 0.5598732 38 3199024894216 1 0
-5.702656 14.146547 -0.977527 6 3199024894216 1 0
-3.8097384 15.811956 -0.94720095 7 3199024896520 1 0
-10.192324 29.356323 1.8097514 16 3199024896520 1 0
-7.6508784 26.099133 1.1080521 12 3199024898824 1 0
-4.1690793 14.229477 -0.7770843 6 3199024901128 1 0
-4.836445 13.936657 -0.68717164 4 3199024898824 1 0
-9.1127615 26.27159 3.4142916 16 3199024901128 1 0
-5.6954093 14.152309 -0.62151873 4 3199024903432 1 0
-8.937363 30.520548 2.5961776 11 3199024903432 1 0
0 0 0 100 3199024905736 1 0
-6.796238 19.611603 5.5615034 19 3199024905736 1 0
-5.9581265 20.368605 3.8693452 20 3199024908040 1 0
-5.316537 15.348911 -0.3779795 5 3199024908040 1 0
-1.1520424 3.9576201 -1.9220679 3 3199024928776 1 0
0 0 0 7 3199024928776 1 0
-4.163967 14.312265 -0.43379804 10 3199024931080 1 0
-2.3928661 6.9408607 -2.0552425 6 3199024931080 1 0
-3.1891332 10.967542 -2.2843742 2 3199024933384 1 0
-10.465619 30.371405 0 49 3199024933384 1 0
-4.9887037 20.932283 -0.25051612 21 3199024935688 1 0
-4.821548 13.998823 -2.303452 2 3199024935688 1 0
-4.1660357 14.342703 -1.9010944 17 3199024937992 1 0
-8.798504 22.001541 0.13771911 37 3199024937992 1 0
-4.795627 13.93673 -1.5876067 39 3199024940296 1 0
-3.9021668 16.404982 -1.5741007 11 3199024942600 1 0
-9.7799835 33.688526 -0.20388193 9 3199024940296 1 0
-9.839041 28.607086 0.7039426 12 3199024942600 1 0
-4.9025245 20.623878 0.24679096 22 3199024944904 1 0
-4.785498 13.920454 -1.0293266 9 3199024944904 1 0
-4.142936 14.294217 -1.2149343 11 3199024947208 1 0
-11.122947 27.861048 0.8730651 10 3199024947208 1 0
-8.736418 30.15934 0.5480754 69 3199024949512 1 0
-5.642884 14.140415 -0.9757362 6 3199024949512 1 0
-6.716288 28.30889 -1.6944036 16 3199024951816 1 0
-10.057375 29.2973 1.8039376 26 3199024951816 1 0
-7.5519524 26.098804 1.1069124 32 3199024954120 1 0
-4.7760963 13.91944 -0.6854965 4 3199024954120 1 0
-4.148237 14.343713 -0.7825272 16 3199024956424 1 0
-8.8097725 25.687344 3.3343453 16 3199024956424 1 0
-10.10607 34.96367 2.971105 15 3199024958728 1 0
-5.631182 14.1349745 -0.61989045 4 3199024958728 1 0
-6.1363444 25.931606 -0.9305602 10 3199024961032 1 0
-6.7289915 19.638863 5.562539 10 3199024961032 1 0
-5.8684335 20.325006 3.857148 23 3199024963336 1 0
-5.237014 15.291712 -0.37611845 8 3199024963336 1 0
-1.1392218 3.9651017 -1.9237583 3 3199024984072 1 0
-10.962306 27.645323 -0.51910436 12 3199024984072 1 0
-4.1449866 14.434287 -0.43705618 5 3199024986376 1 0
-2.369917 6.9528 -2.056321 6 3199024986376 1 0
-3.1499076 10.974791 -2.2835898 2 3199024988680 1 0
-10.472212 30.737007 0 72 3199024988680 1 0
-4.9261146 20.992296 -0.25102833 32 3199024990984 1 0
-4.786975 14.05662 -2.3102162 1 3199024990984 1 0
-8.608919 21.745495 0.13592903 32 3199024993288 1 0
-7.1821036 25.062794 -0.15152821 9 3199024995592 1 0
-4.739771 13.930622 -1.5850363 41 3199024995592 1 0
-3.7002728 15.797896 -1.5146165 26 3199024997896 1 0
-9.753249 28.67869 0.70487314 16 3199024997896 1 0
-4.8397593 20.675669 0.24721004 28 3199025000200 1 0
-4.722176 13.891497 -1.0259782 10 3199025000200 1 0
-4.1201673 14.400344 -1.2227453 10 3199025002504 1 0
-10.990506 27.806103 0.87015605 35 3199025002504 1 0
-8.637464 30.20447 0.5483546 23 3199025004808 1 0
-4.1382346 14.433324 -1.9111959 17 3199024993288 1 0
-5.5782824 14.118822 -0.9729221 6 3199025004808 1 0
-3.6831481 15.764017 -0.94278234 17 3199025007112 1 0
-9.959747 29.339067 1.8044027 10 3199025007112 1 0
-7.4672856 26.139782 1.1075637 8 3199025009416 1 0
-4.715755 13.897811 -0.6836353 4 3199025009416 1 0
-4.115846 14.415362 -0.78566736 16 3199025011720 1 0
-8.760553 25.829973 3.3489695 24 3199025011720 1 0
-10.401902 36.45076 3.0944536 17 3199025014024 1 0
-5.5714135 14.124274 -0.61858785 4 3199025014024 1 0
-4.912422 21.077932 -0.7557835 5 3199025016328 1 0
-7.105072 20.967932 5.9321327 10 3199025016328 1 0
-5.8266397 20.439344 3.8750849 15 3199025018632 1 0
-5.1480713 15.199494 -0.37341994 8 3199025018632 1 0
-1.1260668 3.9688578 -1.9237583 3 3199025039368 1 0
-10.845718 27.618238 -0.51791763 48 3199025039368 1 0
-4.1177177 14.521069 -0.43926707 17 3199025041672 1 0
-2.3467968 6.9606376 -2.056321 5 3199025041672 1 0
-3.1133368 10.985221 -2.2835898 2 3199025043976 1 0
-10.332735 30.661789 0 31 3199025043976 1 0
-4.8163824 20.837154 -0.2489795 35 3199025046280 1 0
-5.0213766 14.907806 -2.447341 10 3199025046280 1 0
-4.236924 14.966327 -1.9798857 12 3199025048584 1 0
-10.857394 27.695318 0.17289281 8 3199025048584 1 0
-7.106753 25.117521 -0.15171419 31 3199025050888 1 0
-4.6816263 13.91251 -1.5811808 36 3199025050888 1 0
-3.917535 16.982231 -1.6268929 8 3199025053192 1 0
0 0 0 101 3199025053192 1 0
-4.759334 20.645079 0.24665128 26 3199025055496 1 0
-4.665204 13.87706 -1.023746 9 3199025055496 1 0
-10.892246 27.83186 0.86980695 35 3199025057800 1 0
-4.092143 14.487061 -1.228929 11 3199025057800 1 0
-8.585259 30.410557 0.5515658 13 3199025060104 1 0
-5.515964 14.10043 -0.9703638 6 3199025060104 1 0
-6.561941 28.521286 -1.7044035 4 3199025062408 1 0
-10.362237 30.867971 1.8962623 18 3199025062408 1 0
-7.535758 26.722757 1.131174 12 3199025064712 1 0
-4.659632 13.88723 -0.6823324 4 3199025064712 1 0
-4.0884333 14.506182 -0.7898542 16 3199025067016 1 0
-8.604424 25.656376 3.3226457 40 3199025067016 1 0
-9.959726 35.357826 2.998769 16 3199025069320 1 0
-5.5072155 14.102242 -0.61679673 4 3199025069320 1 0
-4.8215756 21.012777 -0.75285196 34 3199025071624 1 0
-5.793901 20.591763 3.9001966 12 3199025073928 1 0
-5.040106 15.050193 -0.3693256 10 3199025073928 1 0
-1.1131834 3.9762552 -1.9254488 3 3199025094664 1 0
-6.549743 19.548658 5.524234 21 3199025071624 1 0
-10.734757 27.618652 -0.51721954 40 3199025094664 1 0
-4.079933 14.581559 -0.4406634 5 3199025096968 1 0
-2.3237033 6.972441 -2.0573993 6 3199025096968 1 0
-3.0749722 10.996022 -2.2835898 2 3199025099272 1 0
-9.789514 29.3884 0 52 3199025099272 1 0
-4.7400694 20.83824 -0.24879323 30 3199025101576 1 0
-4.9530764 14.8764925 -2.4393473 8 3199025101576 1 0
-4.4323196 15.867657 -2.0970626 78 3199025103880 1 0
-8.432578 21.732985 0.13548733 23 3199025103880 1 0
-6.99322 25.049713 -0.15115625 34 3199025106184 1 0
-4.621737 13.894804 -1.5773253 43 3199025106184 1 0
-3.563751 15.69859 -1.5027196 13 3199025108488 1 0
-4.683701 20.645964 0.24646501 30 3199025110792 1 0
0 0 0 47 3199025108488 1 0
-4.606669 13.862967 -1.0215138 9 3199025110792 1 0
-4.0650964 14.585745 -1.2360891 10 3199025113096 1 0
-10.819579 27.933094 0.8717851 35 3199025113096 1 0
-7.7793527 27.928366 0.50605 7 3199025115400 1 0
-5.4508567 14.07865 -0.9675497 7 3199025115400 1 0
0 0 0 100 3199025117704 1 0
-10.327365 31.123777 1.9097506 30 3199025117704 1 0
-9.398655 33.779774 1.4284999 13 3199025120008 1 0
-4.599808 13.869277 -0.68065727 4 3199025120008 1 0
-4.058106 14.593486 -0.79383177 14 3199025122312 1 0
-8.516064 25.690023 3.3231332 12 3199025122312 1 0
-8.135665 29.273422 2.4803145 5 3199025124616 1 0
-5.4464293 14.091557 -0.6154941 4 3199025124616 1 0
-4.707698 20.850107 -0.74643046 28 3199025126920 1 0
-6.4243765 19.399015 5.475576 14 3199025126920 1 0
-5.644094 20.331274 3.8471034 16 3199025129224 1 0
-1.0983317 3.9766223 -1.9237583 3 3199025149960 1 0
-4.9573812 14.976583 -0.36709234 10 3199025129224 1 0
-10.652643 27.693283 -0.51791763 40 3199025149960 1 0
-4.063054 14.719045 -0.444387 12 3199025152264 1 0
-2.2981455 6.9768515 -2.056321 6 3199025152264 1 0
-3.0407426 11.021813 -2.2867277 2 3199025154568 1 0
-9.765676 29.661753 0 39 3199025154568 1 0
-4.7179666 21.081043 -0.25149396 29 3199025156872 1 0
-4.901118 14.893692 -2.4393473 7 3199025156872 1 0
-4.364254 15.837127 -2.0910017 81 3199025159176 1 0
-8.375305 21.810831 0.13578956 32 3199025159176 1 0
-6.8972406 25.04312 -0.15097027 34 3199025161480 1 0
-4.5595446 13.869293 -1.5726131 45 3199025161480 1 0
0 0 0 56 3199025163784 1 0
-9.920547 30.19127 0.7394887 17 3199025163784 1 0
-4.62206 20.70903 0.24702379 22 3199025166088 1 0
-4.54829 13.848635 -1.0192816 10 3199025166088 1 0
-10.730596 27.993092 0.8724833 14 3199025168392 1 0
-4.035296 14.676727 -1.2425982 10 3199025168392 1 0
-7.5334578 27.41545 0.49627662 15 3199025170696 1 0
-5.3873973 14.060316 -0.96499133 8 3199025170696 1 0
-3.498642 15.707818 -0.937201 3 3199025173000 1 0
-10.096713 30.787785 1.88696 12 3199025173000 1 0
-9.26799 33.766125 1.426546 19 3199025175304 1 0
-4.540166 13.851077 -0.67898214 4 3199025175304 1 0
-8.563541 26.13838 3.3772433 8 3199025177608 1 0
-4.0303884 14.692311 -0.79843736 12 3199025177608 1 0
-7.212274 26.306501 2.2267828 8 3199025179912 1 0
-5.3786454 14.0619545 -0.6133773 4 3199025179912 1 0
-6.3566217 19.421322 5.475576 6 3199025182216 1 0
0 0 0 10 3199025182216 1 0
-5.513846 20.134516 3.8062072 30 3199025184520 1 0
-4.8802056 14.917781 -0.3652313 10 3199025184520 1 0
-1.084444 3.980432 -1.9237583 3 3199025205256 1 0
-10.558757 27.737774 -0.5180572 32 3199025205256 1 0
-4.0263567 14.787148 -0.44601607 9 3199025207560 1 0
-2.2725856 6.9811683 -2.0552425 6 3199025207560 1 0
-3.002251 11.03236 -2.2867277 2 3199025209864 1 0
-9.668265 29.71468 0 43 3199025209864 1 0
-4.6159744 20.96848 -0.24995734 17 3199025212168 1 0
-4.8466544 14.903192 -2.4381173 6 3199025212168 1 0
-4.2985377 15.813974 -2.085951 58 3199025214472 1 0
-8.292016 21.821238 0.13567331 26 3199025214472 1 0
-4.501273 13.854866 -1.569186 45 3199025216776 1 0
-6.8171225 25.094063 -0.151133 12 3199025216776 1 0
-3.6565952 16.645 -1.5908307 12 3199025219080 1 0
-4.560035 20.77192 0.24758255 24 3199025221384 1 0
-9.57179 29.476444 0.7211574 12 3199025219080 1 0
-4.4900665 13.834064 -1.0170494 10 3199025221384 1 0
-4.003866 14.763831 -1.2487819 10 3199025223688 1 0
-10.849783 28.60235 0.8902867 47 3199025223688 1 0
-7.1646457 26.434088 0.4780563 59 3199025225992 1 0
-5.3255477 14.045444 -0.96268886 6 3199025225992 1 0
-6.5218377 29.770359 -1.774868 4 3199025228296 1 0
-9.138579 33.755836 1.4247549 19 3199025230600 1 0
0 0 0 9 3199025228296 1 0
-4.481939 13.8364315 -0.67749316 4 3199025230600 1 0
-4.000987 14.787264 -0.80283356 8 3199025232904 1 0
-8.48937 26.220993 3.384068 8 3199025232904 1 0
-7.118322 26.323818 2.226132 12 3199025235208 1 0
-5.316794 14.047003 -0.61191183 4 3199025235208 1 0
-4.615774 21.128508 -0.7552251 2 3199025237512 1 0
-5.4137726 20.043468 3.7854004 21 3199025239816 1 0
-6.891629 21.307224 6.0004606 42 3199025237512 1 0
-4.813342 14.889065 -0.36411467 7 3199025239816 1 0
-1.0714839 3.9876943 -1.9254488 3 3199025260552 1 0
0 0 0 14 3199025260552 1 0
-2.2482028 6.9890585 -2.0552425 5 3199025262856 1 0
-4.0006394 14.89765 -0.4489251 5 3199025262856 1 0
-9.60611 29.87772 0 39 3199025265160 1 0
-4.447971 20.546635 -0.24474213 29 3199025267464 1 0
-4.795812 14.923781 -2.4387324 6 3199025267464 1 0
-2.958639 11.023831 -2.2828052 2 3199025265160 1 0
-4.2350907 15.798222 -2.0819104 78 3199025269768 1 0
-8.186232 21.771425 0.13518511 42 3199025269768 1 0
0 0 0 9 3199025272072 1 0
-4.443158 13.8402 -1.5657588 38 3199025272072 1 0
-3.3739345 15.618261 -1.4915664 8 3199025274376 1 0
-9.424855 29.372599 0.7178075 57 3199025274376 1 0
-4.429563 13.811656 -1.0142591 10 3199025276680 1 0
-4.5001597 20.846355 0.24828102 24 3199025276680 1 0
-3.9790878 14.877852 -1.2572439 10 3199025278984 1 0
-10.7639265 28.67748 0.89145035 29 3199025278984 1 0
-7.025856 26.285067 0.47491488 38 3199025281288 1 0
-5.259661 14.019098 -0.9596189 7 3199025281288 1 0
0 0 0 10 3199025283592 1 0
-8.121755 25.36219 1.5509166 12 3199025283592 1 0
-7.745425 29.010939 1.2233351 47 3199025285896 1 0
-4.4226513 13.817742 -0.675818 4 3199025285896 1 0
-3.9720013 14.886048 -0.80743915 6 3199025288200 1 0
-6.462258 20.20023 2.604104 4 3199025288200 1 0
-7.022282 26.333097 2.2248302 4 3199025290504 1 0
-5.2551126 14.031791 -0.6104464 4 3199025290504 1 0
0 0 0 100 3199025292808 1 0
-6.7936873 21.257544 5.9797554 17 3199025292808 1 0
-5.268824 19.780855 3.7323072 27 3199025295112 1 0
-4.750389 14.871492 -0.3632772 7 3199025295112 1 0
-1.0547721 3.9808972 -1.9203774 3 3199025316296 1 0
-18.995018 50.967125 -0.9494109 9 3199025316296 1 0
-3.9670353 14.981095 -0.45101964 5 3199025318600 1 0
-2.222626 6.9931927 -2.0541642 6 3199025318600 1 0
-2.9151232 11.015133 -2.278883 2 3199025320904 1 0
-9.367334 29.487907 0 30 3199025320904 1 0
-4.357905 20.475971 -0.24371772 19 3199025323208 1 0
-4.738905 14.925363 -2.4362726 7 3199025323208 1 0
-4.1697783 15.774546 -2.0768597 79 3199025325512 1 0
-11.288247 42.729332 -0.25686333 7 3199025327816 1 0
-8.263602 22.212246 0.13774236 10 3199025325512 1 0
-4.387605 13.83288 -1.5631886 46 3199025327816 1 0
-3.6280038 17.083076 -1.630239 15 3199025330120 1 0
-9.311392 29.371012 0.71696997 24 3199025330120 1 0
-4.4464626 20.951925 0.24935201 22 3199025332424 1 0
-4.372887 13.800407 -1.012306 10 3199025332424 1 0
-3.9464457 14.964895 -1.2634275 3 3199025334728 1 0
-10.567713 28.456255 0.88342136 10 3199025334728 1 0
-6.8780017 26.09673 0.47107536 35 3199025337032 1 0
-5.198191 14.003692 -0.95731646 7 3199025337032 1 0
0 0 0 12 3199025339336 1 0
-8.009084 25.314241 1.5462654 28 3199025339336 1 0
-7.642076 29.030067 1.2230096 19 3199025341640 1 0
-4.3671627 13.810238 -0.6747013 13 3199025341640 1 0
-3.943391 14.988673 -0.812254 4 3199025343944 1 0
-6.4012785 20.252949 2.6080039 7 3199025343944 1 0
-7.664309 29.148964 2.4604616 15 3199025346248 1 0
-5.1908255 14.008825 -0.6086553 4 3199025346248 1 0
-4.386393 20.772997 -0.7414049 34 3199025348552 1 0
-6.71828 21.277445 5.9787197 12 3199025348552 1 0
-5.2157373 19.860023 3.7437868 29 3199025350856 1 0
-1.0427023 3.9915698 -1.9237583 3 3199025371592 1 0
-18.832212 51.074398 -0.9501788 9 3199025371592 1 0
-4.688821 14.857475 -0.36253276 7 3199025350856 1 0
-2.1982017 7.0009084 -2.0541642 6 3199025373896 1 0
-2.8736846 11.013856 -2.2765296 2 3199025376200 1 0
-3.940977 15.095437 -0.45404506 5 3199025373896 1 0
-9.421246 30.020384 0 4 3199025376200 1 0
-4.6879597 14.945585 -2.4368875 6 3199025378504 1 0
-4.101681 15.739089 -2.070294 79 3199025380808 1 0
-4.1701126 19.93513 -0.23710558 19 3199025378504 1 0
-10.501589 28.532238 0.17670542 21 3199025380808 1 0
-5.503479 21.130701 -0.12690894 6 3199025383112 1 0
-4.3285904 13.813956 -1.5593331 48 3199025383112 1 0
-3.2485418 15.563462 -1.4841309 11 3199025385416 1 0
-9.496848 30.323025 0.7393956 21 3199025385416 1 0
-4.354516 20.877264 0.24828102 18 3199025387720 1 0
-3.919263 15.075042 -1.271564 3 3199025390024 1 0
-4.318728 13.796547 -1.0109109 5 3199025387720 1 0
-10.486243 28.54176 0.88493407 10 3199025390024 1 0
-6.5796785 25.323181 0.45669457 16 3199025392328 1 0
-5.1341405 13.980533 -0.95450234 7 3199025392328 1 0
-3.250508 15.618304 -0.92906153 15 3199025394632 1 0
-7.9325843 25.38016 1.548591 20 3199025394632 1 0
-7.4814625 28.828323 1.2134026 32 3199025396936 1 0
-4.311781 13.802514 -0.6735845 9 3199025396936 1 0
-3.9131093 15.087411 -0.8168596 6 3199025399240 1 0
-6.3092446 20.206955 2.5992293 23 3199025399240 1 0
-6.982321 26.937204 2.271696 13 3199025401544 1 0
-5.1308894 13.996839 -0.6073526 5 3199025401544 1 0
-4.3325367 20.878208 -0.7446157 37 3199025403848 1 0
-6.655472 21.33765 5.989073 10 3199025403848 1 0
-5.146381 19.878109 3.7437868 27 3199025406152 1 0
-4.6202674 14.820305 -0.36123005 8 3199025406152 1 0
-1.0260508 3.984653 -1.9186869 3 3199025426888 1 0
-18.616812 51.038376 -0.948294 9 3199025426888 1 0
-6.689362 25.993694 -0.781139 24 3199025429192 1 0
-2.1748917 7.012218 -2.0552425 6 3199025429192 1 0
-2.8361986 11.027618 -2.277314 1 3199025431496 1 0
0 0 0 58 3199025431496 1 0
-4.1399593 20.141537 -0.23938723 18 3199025433800 1 0
-4.6345916 14.958083 -2.4362726 8 3199025433800 1 0
-4.0358567 15.711035 -2.064738 82 3199025436104 1 0
-10.395086 28.549929 0.17658919 34 3199025436104 1 0
-10.985689 42.7916 -0.25677034 7 3199025438408 1 0
-4.267409 13.78719 -1.5546207 34 3199025438408 1 0
-3.8375154 18.711496 -1.783039 2 3199025440712 1 0
-10.406148 33.637615 0.8193278 5 3199025440712 1 0
-4.184451 20.418222 0.24264674 8 3199025443016 1 0
-4.2858663 13.861096 -1.0145382 11 3199025443016 1 0
-4.8206534 18.811548 -1.5853055 12 3199025445320 1 0
-10.446643 28.743532 0.890054 29 3199025445320 1 0
-6.483306 25.314999 0.4561361 26 3199025447624 1 0
-5.073041 13.964602 -0.9521999 7 3199025447624 1 0
0 0 0 12 3199025449928 1 0
-8.039482 26.041075 1.5871953 13 3199025449928 1 0
-4.27889 13.867116 -0.6760042 10 3199025452232 1 0
-7.3867297 28.877495 1.2143795 18 3199025452232 1 0
-6.5741916 25.716557 -1.3910897 8 3199025454536 1 0
-6.2492013 20.263 2.6036167 26 3199025454536 1 0
-7.2297015 28.297895 2.3843045 14 3199025456840 1 0
-5.067013 13.973333 -0.6055615 6 3199025456840 1 0
-4.12547 20.235151 -0.7211632 33 3199025459144 1 0
-6.629865 21.519527 6.0335894 5 3199025459144 1 0
-5.123665 20.078974 3.7782257 21 3199025461448 1 0
-4.54497 14.759906 -0.35936898 8 3199025461448 1 0
-1.0112437 3.9846966 -1.9169965 3 3199025482184 1 0
-18.431755 51.08424 -0.9479449 9 3199025482184 1 0
-6.593672 25.997509 -0.7805572 8 3199025484488 1 0
-2.149273 7.016084 -2.0541642 6 3199025484488 1 0
-2.7890143 11.003232 -2.2702537 2 3199025486792 1 0
-7.9560766 25.9853 0 28 3199025486792 1 0
-4.232697 20.963512 -0.2489795 29 3199025489096 1 0
-4.58235 14.97417 -2.4362726 7 3199025489096 1 0
-3.9741738 15.698101 -2.0612025 75 3199025491400 1 0
-10.292655 28.578514 0.17654268 42 3199025491400 1 0
0 0 0 15 3199025493704 1 0
-4.2366967 13.859052 -1.5610466 22 3199025493704 1 0
-3.1390235 15.581858 -1.4837592 5 3199025496008 1 0
0 0 0 7 3199025496008 1 0
-4.0989447 20.362125 0.24180858 5 3199025498312 1 0
-4.2467794 13.906503 -1.0167704 14 3199025498312 1 0
-3.9993982 15.836458 -1.333401 13 3199025500616 1 0
-10.384119 28.885176 0.8933121 43 3199025500616 1 0
-6.403709 25.372375 0.45676437 26 3199025502920 1 0
-5.0148153 13.955929 -0.95040905 6 3199025502920 1 0
-3.1256666 15.562316 -0.92441046 13 3199025505224 1 0
-7.7773333 25.507492 1.5530095 24 3199025505224 1 0
-4.2537546 13.95841 -0.67972666 6 3199025507528 1 0
-7.2995605 28.95736 1.2166592 13 3199025507528 1 0
-6.2582507 20.546747 2.6372526 25 3199025509832 1 0
-3.9989474 15.873567 -0.857891 6 3199025509832 1 0
-6.2879443 24.974928 2.102458 11 3199025512136 1 0
-4.0540266 20.245508 -0.7210236 38 3199025514440 1 0
-6.5547075 21.542538 6.0335894 5 3199025514440 1 0
-5.01011 13.968364 -0.6045845 5 3199025512136 1 0
-5.0324326 20.012777 3.7624412 20 3199025516744 1 0
-4.2514133 13.97989 -0.34001407 7 3199025516744 1 0
0 0 0 29 3199025537480 1 0
-1.0008463 4.0022697 -1.9237583 3 3199025537480 1 0
-5.234879 20.946629 -0.62835556 6 3199025539784 1 0
-2.1247692 7.023544 -2.0541642 5 3199025539784 1 0
-2.7306294 10.932987 -2.25378 2 3199025542088 1 0
0 0 0 7 3199025542088 1 0
-4.035807 20.354345 -0.24157576 22 3199025544392 1 0
-4.525479 14.974939 -2.433813 8 3199025544392 1 0
-3.909749 15.673377 -2.0561519 78 3199025546696 1 0
-10.196861 28.625572 0.17661244 8 3199025546696 1 0
-5.295447 21.241508 -0.12723441 11 3199025549000 1 0
-4.208982 13.942287 -1.5687575 20 3199025549000 1 0
-3.4331882 17.354763 -1.6514302 7 3199025551304 1 0
-9.332426 30.929995 0.7517716 13 3199025551304 1 0
-4.021638 20.34492 0.24143606 43 3199025553608 1 0
-4.2189484 13.990007 -1.0217928 14 3199025553608 1 0
-6.3132463 25.371347 -2.134353 13 3199025555912 1 0
-10.79759 30.367874 0.9379952 50 3199025555912 1 0
-6.286149 25.27814 0.4546701 42 3199025558216 1 0
-4.9540386 13.939497 -0.9481066 6 3199025558216 1 0
-7.7227864 25.649195 1.5599862 12 3199025560520 1 0
-7.283214 29.324001 1.2309881 14 3199025562824 1 0
-6.447078 32.689865 -1.9404479 13 3199025560520 1 0
-4.2268815 14.045871 -0.683263 6 3199025562824 1 0
-3.9367778 15.860291 -0.8564256 6 3199025565128 1 0
-6.1441803 20.427795 2.619216 25 3199025565128 1 0
-6.9609404 28.061338 2.3602207 4 3199025567432 1 0
-4.9466224 13.944333 -0.6027934 4 3199025567432 1 0
-3.9779332 20.232079 -0.7200464 22 3199025569736 1 0
-6.4928117 21.60969 6.046013 2 3199025569736 1 0
-4.904818 19.797222 3.7186754 20 3199025572040 1 0
-4.224441 14.067414 -0.34178206 13 3199025572040 1 0
-0.98600245 4.002219 -1.9220679 3 3199025592776 1 0
-10.659252 30.201273 -0.5590355 23 3199025592776 1 0
-5.2160606 21.186106 -0.6349882 18 3199025595080 1 0
-2.1001885 7.030933 -2.0541642 4 3199025595080 1 0
-2.7138438 11.030092 -2.2718227 2 3199025597384 1 0
0 0 0 58 3199025597384 1 0
-4.019305 20.651072 -0.24492839 29 3199025599688 1 0
-4.470592 14.983168 -2.432583 8 3199025599688 1 0
-10.663506 30.272232 0.18653919 23 3199025601992 1 0
-5.079323 20.685143 -0.12379376 14 3199025604296 1 0
-4.184772 14.0408945 -1.5781821 23 3199025604296 1 0
-3.5471773 18.269924 -1.7373105 15 3199025606600 1 0
-3.8479307 15.6600685 -2.0526164 79 3199025601992 1 0
-4.871242 16.353287 0.39705527 6 3199025606600 1 0
-3.9076648 20.143076 0.23887503 11 3199025608904 1 0
-4.191008 14.077525 -1.0270944 14 3199025608904 1 0
-10.673839 30.360737 0.93659884 46 3199025611208 1 0
-3.8650448 15.771287 -1.32559 9 3199025611208 1 0
-5.0964437 20.809748 0.37397015 19 3199025613512 1 0
-4.88988 13.915599 -0.9452924 7 3199025613512 1 0
-4.040051 20.876648 -1.2383611 7 3199025615816 1 0
-7.633615 25.684208 1.5604513 8 3199025615816 1 0
-6.47201 26.461426 1.1098433 8 3199025618120 1 0
-4.1971817 14.129818 -0.68661326 4 3199025618120 1 0
-6.3098702 25.815582 -1.3927644 40 3199025620424 1 0
-6.033765 20.324049 2.6031291 23 3199025620424 1 0
-6.9189415 28.326233 2.380399 14 3199025622728 1 0
-4.884693 13.928035 -0.60132796 4 3199025622728 1 0
-3.9052246 20.246239 -0.7200464 27 3199025625032 1 0
-3.7853706 12.764878 3.5675616 2 3199025625032 1 0
-4.858701 19.917973 3.7380471 29 3199025627336 1 0
-4.1965017 14.159211 -0.3436431 13 3199025627336 1 0
-0.9696184 3.99876 -1.9186869 3 3199025648072 1 0
-10.540584 30.21748 -0.55861664 37 3199025648072 1 0
-5.1347623 21.1895 -0.63452274 9 3199025650376 1 0
-2.0733669 7.0348735 -2.053086 5 3199025650376 1 0
-2.6514022 10.948435 -2.2529955 2 3199025652680 1 0
-3.8015738 19.919104 -0.23608117 46 3199025654984 1 0
-9.898807 33.604385 0 14 3199025652680 1 0
-3.7788372 15.623817 -2.0460503 84 3199025657288 1 0
-10.557308 30.322138 0.18660893 13 3199025657288 1 0
-4.4137406 14.991774 -2.4313533 7 3199025654984 1 0
-4.1573563 14.136111 -1.5871782 23 3199025659592 1 0
-5.0296006 20.808414 -0.12442145 19 3199025659592 1 0
-2.9446497 15.465722 -1.4696316 10 3199025661896 1 0
-7.6662474 26.081284 0.6325713 32 3199025661896 1 0
-3.8206336 20.08241 0.2379903 16 3199025664200 1 0
-3.8081326 15.785126 -1.32559 4 3199025666504 1 0
-4.1614704 14.165321 -1.0323958 12 3199025664200 1 0
-9.993323 28.756155 0.8859813 14 3199025666504 1 0
-4.9371376 20.478039 0.36768728 44 3199025668808 1 0
-4.8292775 13.902945 -0.94324577 7 3199025668808 1 0
-7.8739676 26.845682 1.629288 40 3199025671112 1 0
-6.3827133 26.507772 1.1108203 12 3199025673416 1 0
-2.9464054 15.524093 -0.9202244 14 3199025671112 1 0
-4.1701007 14.225296 -0.6905219 4 3199025673416 1 0
-3.8063624 15.81815 -0.8526574 13 3199025675720 1 0
-6.83733 28.43216 2.3872337 9 3199025678024 1 0
-4.824456 13.915178 -0.6000253 5 3199025678024 1 0
-6.001195 20.482668 2.6206784 27 3199025675720 1 0
-3.9073677 20.652815 -0.7340062 25 3199025680328 1 0
-4.789678 19.942778 3.7394822 20 3199025682632 1 0
-3.745287 12.796827 3.5727382 2 3199025680328 1 0
-4.1652093 14.239292 -0.345225 15 3199025682632 1 0
-0.9573382 4.0091724 -1.9220679 3 3199025703368 1 0
-10.448081 30.291897 -0.5593147 37 3199025703368 1 0
-4.9951773 20.931097 -0.626261 28 3199025705672 1 0
-2.0489004 7.042038 -2.053086 4 3199025705672 1 0
-2.6052978 10.923209 -2.2459352 1 3199025707976 1 0
-9.779073 33.626926 0 19 3199025707976 1 0
-3.703439 19.774834 -0.2342186 19 3199025710280 1 0
-4.358728 14.995513 -2.4295087 9 3199025710280 1 0
-3.7159908 15.598097 -2.0409997 82 3199025712584 1 0
-10.490931 30.467876 0.18728311 37 3199025712584 1 0
-4.95567 20.81381 -0.1243517 59 3199025714888 1 0
-4.1278696 14.215165 -1.5944608 21 3199025714888 1 0
-3.5306797 18.893373 -1.7941923 6 3199025717192 1 0
-8.775695 30.235683 0.73260283 21 3199025717192 1 0
-3.7327318 19.989086 0.23673306 27 3199025719496 1 0
-4.399246 18.509087 -1.5530851 14 3199025721800 1 0
-4.1379004 14.263652 -1.0385344 14 3199025719496 1 0
-9.930028 28.888021 0.88900673 39 3199025721800 1 0
-4.8498225 20.416689 0.3662911 24 3199025724104 1 0
-4.7721624 13.88889 -0.9411991 6 3199025724104 1 0
-3.9353507 21.120087 -1.2511517 14 3199025726408 1 0
-7.7907853 26.894884 1.6306833 13 3199025726408 1 0
-6.3562074 26.789429 1.1217299 8 3199025728712 1 0
-4.1482563 14.327381 -0.69480276 9 3199025728712 1 0
-6.6875033 28.202171 -1.5189987 72 3199025731016 1 0
-5.8835745 20.330841 2.5987418 23 3199025731016 1 0
-6.5503583 27.639927 2.3188875 9 3199025733320 1 0
-4.768114 13.900787 -0.5987227 4 3199025733320 1 0
-3.7846942 20.370773 -0.7235364 30 3199025735624 1 0
-5.750642 19.890987 5.548045 6 3199025735624 1 0
-4.7026353 19.866442 3.7222626 33 3199025737928 1 0
-4.141902 14.333524 -0.3471791 16 3199025737928 1 0
-0.9455692 4.015689 -1.9237583 3 3199025758664 1 0
-10.369663 30.373775 -0.56022227 9 3199025758664 1 0
-6.127746 26.041433 -0.77857906 20 3199025760968 1 0
-2.025549 7.0447826 -2.0520077 5 3199025760968 1 0
-2.569594 10.927634 -2.2451508 2 3199025763272 1 0
-7.184061 25.000269 0 12 3199025763272 1 0
-3.760852 20.44354 -0.24199484 16 3199025765576 1 0
-4.30625 14.994219 -2.427049 13 3199025765576 1 0
-3.6565366 15.571385 -2.0359488 82 3199025767880 1 0
-10.463451 30.709831 0.18856172 18 3199025767880 1 0
-4.916313 20.950527 -0.12507239 25 3199025770184 1 0
-4.107958 14.320256 -1.6047422 21 3199025770184 1 0
0 0 0 14 3199025772488 1 0
-8.664579 30.221954 0.73157924 12 3199025772488 1 0
-3.653879 19.93046 0.2358949 21 3199025774792 1 0
-4.1128716 14.353924 -1.044115 14 3199025774792 1 0
-3.6978936 15.790842 -1.3239627 11 3199025777096 1 0
-9.790412 28.792088 0.8850504 43 3199025777096 1 0
-4.7129307 13.866947 -0.93864083 7 3199025779400 1 0
-2.8214211 15.4295845 -0.9134803 14 3199025781704 1 0
-7.4818454 26.156895 1.5844046 12 3199025781704 1 0
-4.830857 20.64305 0.37006083 42 3199025779400 1 0
-4.8840427 20.89909 0.8743924 16 3199025784008 1 0
-4.118454 14.406636 -0.6979669 16 3199025784008 1 0
-3.6818187 15.765572 -0.8484705 6 3199025786312 1 0
-5.8056216 20.320208 2.594842 21 3199025786312 1 0
-6.133998 26.283945 2.2033498 8 3199025788616 1 0
-4.7050676 13.871618 -0.59676874 4 3199025788616 1 0
-3.6922367 20.261782 -0.71920884 24 3199025790920 1 0
0 0 0 38 3199025790920 1 0
-4.6292276 19.863472 3.7186754 24 3199025793224 1 0
-4.110802 14.413179 -0.348761 15 3199025793224 1 0
-0.9292087 4.012064 -1.9203774 4 3199025813960 1 0
-12.1974325 36.160408 -0.66612345 12 3199025813960 1 0
-4.7956357 20.719242 -0.6189302 23 3199025816264 1 0
-1.9977157 7.0447183 -2.049851 5 3199025816264 1 0
-2.5324948 10.94837 -2.2475042 2 3199025818568 1 0
-7.09311 25.026224 0 12 3199025818568 1 0
-3.6662173 20.342875 -0.24064447 30 3199025820872 1 0
-4.2562284 15.024927 -2.4295087 9 3199025820872 1 0
-3.5940945 15.557409 -2.0324132 82 3199025823176 1 0
-9.839514 29.223463 0.17921618 56 3199025823176 1 0
-4.857214 21.038208 -0.12549084 25 3199025825480 1 0
-4.078144 14.411456 -1.61331 23 3199025825480 1 0
-2.7408104 15.244233 -1.445838 14 3199025827784 1 0
-8.81759 31.176277 0.75391185 13 3199025827784 1 0
-3.5644479 19.841 0.23468424 24 3199025830088 1 0
-4.08232 14.441444 -1.0494164 15 3199025830088 1 0
-3.939946 17.097546 -1.4323401 3 3199025832392 1 0
-9.68053 28.803911 0.8843522 29 3199025832392 1 0
-4.7686386 20.706762 0.37089854 36 3199025834696 1 0
-4.6537223 13.853245 -0.9365942 6 3199025834696 1 0
-2.7375085 15.274334 -0.9037129 30 3199025837000 1 0
-7.390818 26.18691 1.5846372 8 3199025837000 1 0
-4.090711 14.501741 -0.70187545 16 3199025839304 1 0
-6.794478 29.559547 -1.5895476 4 3199025841608 1 0
-4.8035903 20.884922 0.87308973 11 3199025839304 1 0
-5.730346 20.325064 2.5928922 26 3199025841608 1 0
-6.105074 26.577095 2.226132 12 3199025843912 1 0
-4.645385 13.853786 -0.5953033 5 3199025843912 1 0
-5.4413114 19.320322 5.3782597 8 3199025846216 1 0
-4.5695295 19.917665 3.72585 20 3199025848520 1 0
-3.571458 19.991102 -0.70915776 30 3199025846216 1 0
-4.0881834 14.523497 -0.3510873 25 3199025848520 1 0
-0.91670537 4.0186577 -1.9220679 3 3199025869256 1 0
-12.079985 36.208244 -0.66626304 18 3199025869256 1 0
-4.755925 20.863743 -0.62277013 28 3199025871560 1 0
-1.974241 7.051333 -2.049851 6 3199025871560 1 0
-2.4906292 10.933834 -2.2427974 1 3199025873864 1 0
-7.005041 25.034405 0 46 3199025873864 1 0
-3.6096847 20.422035 -0.24143606 21 3199025876168 1 0
-4.2014666 15.023916 -2.427049 9 3199025876168 1 0
-3.5345378 15.538495 -2.0283728 82 3199025878472 1 0
0 0 0 84 3199025878472 1 0
-4.7575197 20.929733 -0.12474692 25 3199025880776 1 0
-4.046401 14.48648 -1.6201642 16 3199025880776 1 0
-2.6847641 15.229939 -1.4436072 64 3199025883080 1 0
-8.539398 30.58984 0.73902345 12 3199025883080 1 0
-3.5063248 19.908213 0.23533614 19 3199025885384 1 0
-4.055455 14.536026 -1.0552759 14 3199025885384 1 0
-3.5611067 15.699634 -1.314199 12 3199025887688 1 0
-9.638337 29.007713 0.88958853 29 3199025887688 1 0
-4.727293 20.855692 0.37327206 31 3199025889992 1 0
-4.597135 13.842686 -0.9348034 7 3199025889992 1 0
-2.679783 15.256187 -0.90208507 84 3199025892296 1 0
-7.5636764 27.158659 1.641846 9 3199025892296 1 0
-4.062776 14.59671 -0.7057841 11 3199025894600 1 0
-5.586807 24.682629 1.031034 10 3199025894600 1 0
0 0 0 85 3199025896904 1 0
-5.704051 20.50559 2.6133661 27 3199025896904 1 0
-6.0101204 26.590555 2.225481 12 3199025899208 1 0
-4.5879946 13.843428 -0.5941635 3 3199025899208 1 0
-5.379481 19.36169 5.3844714 18 3199025901512 1 0
-3.502451 20.011425 -0.70943695 35 3199025901512 1 0
-4.5103693 19.983593 3.7351773 15 3199025903816 1 0
-4.059296 14.618771 -0.3530414 16 3199025903816 1 0
-0.9003835 4.014916 -1.9186869 3 3199025924552 1 0
-12.182532 36.966385 -0.6793873 6 3199025924552 1 0
-4.6820464 20.89274 -0.62311924 25 3199025926856 1 0
-1.9483833 7.0585217 -2.049851 5 3199025926856 1 0
-2.4496808 10.939061 -2.242013 1 3199025929160 1 0
-6.9004736 25.01364 0 28 3199025929160 1 0
-3.5648065 20.60854 -0.2434849 17 3199025931464 1 0
-4.1432214 15.027783 -2.4252043 7 3199025931464 1 0
-3.4689033 15.512623 -2.023322 81 3199025933768 1 0
-9.711032 29.527586 0.18065752 52 3199025933768 1 0
-4.699967 21.032911 -0.12525837 38 3199025936072 1 0
-2.621478 15.196506 -1.4395177 67 3199025938376 1 0
-4.020731 14.600904 -1.6313022 20 3199025936072 1 0
-8.470728 30.779013 0.7428386 21 3199025938376 1 0
-3.4367306 19.94064 0.23556896 17 3199025940680 1 0
-4.027548 14.643129 -1.0619725 13 3199025940680 1 0
-5.650956 25.343248 -2.1197073 9 3199025942984 1 0
-9.543176 29.077036 0.8906358 25 3199025942984 1 0
-4.636035 20.806517 0.3720853 29 3199025945288 1 0
-4.532682 13.817719 -0.93198925 6 3199025945288 1 0
-2.6157312 15.21868 -0.8992944 76 3199025947592 1 0
-8.044506 29.300253 1.7695192 10 3199025947592 1 0
-5.1638513 23.208748 0.9686704 9 3199025949896 1 0
-4.0314527 14.692421 -0.7096927 9 3199025949896 1 0
0 0 0 8 3199025952200 1 0
-5.539609 20.200909 2.5719306 19 3199025952200 1 0
-5.8840866 26.483973 2.214741 12 3199025954504 1 0
-4.524791 13.822167 -0.5925352 3 3199025954504 1 0
-2.6045368 15.209195 -0.5388482 46 3199025956808 1 0
-5.2962327 19.33656 5.372048 10 3199025956808 1 0
