# .PCD v.7 - Point Cloud Data file format
VERSION .7
FIELDS x y z rgb timestamp_ns device_id active
SIZE 4 4 4 4 8 1 1
TYPE F F F F F U U
COUNT 1 1 1 1 1 1 1
WIDTH 978
HEIGHT 1
VIEWPOINT 0 0 0 1 0 0 0
POINTS 978               
DATA ascii
6.256626 6.8167543 -1.8505628 3 3203041248496 1 0
21.969587 26.418684 0 66 3203041248496 1 0
4.181262 5.0295043 -1.8309559 1 3203041246192 1 0
23.169727 22.884377 -0.3791268 6 3203041250800 1 0
7.7092347 9.267702 -1.8754749 54 3203041250800 1 0
10.30642 11.222554 -1.93948 4 3203041253104 1 0
38.425068 51.059742 0.37140453 40 3203041253104 1 0
22.048502 24.001377 -0.18942189 35 3203041255408 1 0
11.31152 13.590167 -1.9046139 7 3203041255408 1 0
14.423459 14.233397 -1.8915976 4 3203041257712 1 0
22.147877 26.601583 0.80546296 4 3203041257712 1 0
22.058338 21.761337 0.3607339 28 3203041260016 1 0
16.999165 20.411482 -1.8574754 9 3203041260016 1 0
15.442693 16.795763 -1.8625956 7 3203041262320 1 0
36.66588 48.663155 1.7732426 22 3203041262320 1 0
17.164244 22.773586 -1.8276507 9 3203041264624 1 0
21.970133 23.888155 0.56650513 39 3203041264624 1 0
22.182724 21.864958 -1.8139374 13 3203041266928 1 0
45.069096 54.06802 4.099266 28 3203041266928 1 0
20.375933 24.437157 -1.4821093 10 3203041269232 1 0
22.276148 24.20675 1.3402466 28 3203041269232 1 0
21.88073 23.770123 -1.6931728 5 3203041271536 1 0
45.066166 54.03254 8.639074 28 3203041271536 1 0
63.334583 68.783424 7.632964 28 3203041273840 1 0
20.18364 26.747343 -1.3651594 16 3203041273840 1 0
0 0 0 53 3203041276144 1 0
20.131668 24.122799 8.418866 5 3203041276144 1 0
21.12567 22.929777 5.684558 10 3203041278448 1 0
20.409294 24.448236 -0.74107057 8 3203041278448 1 0
22.277632 29.424274 -0.64420325 5 3203041299184 1 0
21.395432 23.155243 -0.91751546 5 3203041301488 1 0
4.203702 5.0208154 -1.8331125 1 3203041301488 1 0
6.269635 6.783443 -1.8474249 3 3203041303792 1 0
0 0 0 4 3203041299184 1 0
22.246712 21.820795 -0.36278272 18 3203041306096 1 0
21.91233 26.164291 0 33 3203041303792 1 0
7.7337217 9.231814 -1.8736302 52 3203041306096 1 0
10.323654 11.163505 -1.9354393 4 3203041308400 1 0
38.647495 50.98699 0.37184623 20 3203041308400 1 0
21.66953 23.4259 -0.18546979 21 3203041310704 1 0
11.350732 13.541869 -1.9033288 6 3203041310704 1 0
14.443992 14.155718 -1.88788 4 3203041313008 1 0
0 0 0 22 3203041313008 1 0
22.073063 21.626549 0.35975602 32 3203041315312 1 0
17.05389 20.334543 -1.8558012 9 3203041315312 1 0
36.827866 48.530643 1.7730099 22 3203041317616 1 0
21.981173 23.736467 0.56469005 34 3203041319920 1 0
15.484002 16.725103 -1.8606428 7 3203041317616 1 0
17.2518 22.727379 -1.828674 9 3203041319920 1 0
22.243061 21.775043 -1.8127747 13 3203041322224 1 0
45.1227 53.75767 4.0874057 28 3203041322224 1 0
22.247208 24.010435 1.3335705 28 3203041324528 1 0
20.31528 24.196154 -1.4716864 10 3203041324528 1 0
21.871897 23.598837 -1.6862645 5 3203041326832 1 0
63.84157 68.86322 7.6658354 28 3203041329136 1 0
20.196978 26.576817 -1.3599489 10 3203041329136 1 0
45.045536 53.63563 8.600076 28 3203041326832 1 0
25.614672 25.048004 -1.2510772 31 3203041331440 1 0
0 0 0 48 3203041331440 1 0
21.280697 22.941875 5.7053647 15 3203041333744 1 0
0 0 0 4 3203041354480 1 0
22.241726 29.175306 -0.6403637 5 3203041354480 1 0
21.556686 23.174765 -0.92112267 16 3203041356784 1 0
20.376062 24.24133 -0.7368832 8 3203041333744 1 0
4.2153997 5.000927 -1.8309559 1 3203041356784 1 0
21.965834 26.05141 0 19 3203041359088 1 0
24.12423 23.504887 -0.39211825 7 3203041361392 1 0
7.7619457 9.202928 -1.8730153 42 3203041361392 1 0
10.350125 11.1172905 -1.933419 4 3203041363696 1 0
37.47335 49.095932 0.35896704 17 3203041363696 1 0
21.731588 23.335558 -0.1853303 29 3203041366000 1 0
6.292194 6.762523 -1.8474249 4 3203041359088 1 0
11.4011965 13.509818 -1.9041855 6 3203041366000 1 0
14.471494 14.087663 -1.8852775 4 3203041368304 1 0
21.919312 21.331732 0.35607746 31 3203041370608 1 0
22.02147 26.086582 0.7943897 28 3203041368304 1 0
17.106813 20.258715 -1.854127 9 3203041370608 1 0
15.529476 16.661097 -1.8593409 7 3203041372912 1 0
37.12979 48.58718 1.7796425 23 3203041372912 1 0
21.777672 23.35778 0.55742985 42 3203041375216 1 0
17.340677 22.684769 -1.8299531 9 3203041375216 1 0
22.28237 21.666136 -1.809984 13 3203041377520 1 0
45.29946 53.59835 4.086941 28 3203041377520 1 0
22.222294 23.820766 1.3272202 28 3203041379824 1 0
20.317368 24.03243 -1.4659165 14 3203041379824 1 0
22.990416 24.636953 -1.7660245 13 3203041382128 1 0
22.08067 26.110453 4.1986427 18 3203041382128 1 0
63.24635 67.756195 7.5665708 28 3203041384432 1 0
25.625574 24.887896 -1.2474476 18 3203041386736 1 0
20.209774 26.406214 -1.3547384 5 3203041384432 1 0
20.584906 24.327349 8.538958 20 3203041386736 1 0
21.866808 23.412388 5.8409677 10 3203041389040 1 0
20.358217 24.052353 -0.7332542 8 3203041389040 1 0
0 0 0 4 3203041409776 1 0
22.26305 28.992811 -0.63806 5 3203041409776 1 0
21.738754 23.207186 -0.9254281 5 3203041412080 1 0
4.2353597 4.9890876 -1.8320341 1 3203041412080 1 0
6.3104954 6.7347016 -1.845856 4 3203041414384 1 0
22.142456 26.074871 0 19 3203041414384 1 0
7.791664 9.172594 -1.8724004 22 3203041416688 1 0
24.140526 23.35604 -0.39104727 23 3203041416688 1 0
10.367479 11.057634 -1.9293785 4 3203041418992 1 0
37.56791 48.86226 0.3582231 16 3203041418992 1 0
21.846594 23.293776 -0.18560928 12 3203041421296 1 0
11.441049 13.460431 -1.9029003 7 3203041421296 1 0
14.509739 14.025357 -1.8837904 4 3203041423600 1 0
22.038408 25.920238 0.7916912 23 3203041423600 1 0
21.974586 21.234514 0.3557515 27 3203041425904 1 0
17.173285 20.191923 -1.853569 9 3203041425904 1 0
37.404427 48.588177 1.7845297 24 3203041428208 1 0
21.800367 23.216047 0.5558941 52 3203041430512 1 0
15.563949 16.57972 -1.8564118 7 3203041428208 1 0
17.41393 22.613472 -1.8291856 9 3203041430512 1 0
22.270374 21.500616 -1.8027748 13 3203041432816 1 0
45.614414 53.582542 4.0981035 28 3203041432816 1 0
22.247 23.677189 1.323638 28 3203041435120 1 0
20.322742 23.865425 -1.4601467 14 3203041435120 1 0
23.113981 24.592377 -1.768746 19 3203041437424 1 0
22.524078 26.442318 4.2649393 18 3203041437424 1 0
63.598095 67.645195 7.579589 28 3203041439728 1 0
20.16033 26.146847 -1.3451314 5 3203041439728 1 0
23.568079 22.72567 -1.1433076 20 3203041442032 1 0
20.205992 23.706308 8.346396 14 3203041442032 1 0
22.24215 23.643068 5.918455 5 3203041444336 1 0
20.421318 23.951527 -0.7324167 8 3203041444336 1 0
0 0 0 4 3203041465072 1 0
22.224768 28.724394 -0.63394123 5 3203041465072 1 0
21.930347 23.241085 -0.9299662 11 3203041467376 1 0
4.241027 4.958956 -1.8266426 1 3203041467376 1 0
6.329557 6.706007 -1.844287 3 3203041469680 1 0
22.48414 26.282944 0 29 3203041469680 1 0
0 0 0 10 3203041471984 1 0
7.8094134 9.126298 -1.8687109 11 3203041471984 1 0
10.393674 11.005743 -1.9268531 4 3203041474288 1 0
37.954563 48.998386 0.3602224 34 3203041474288 1 0
21.6637 22.933094 -0.18335426 45 3203041476592 1 0
11.494504 13.425284 -1.9037571 8 3203041476592 1 0
14.556954 13.970594 -1.8834186 4 3203041478896 1 0
22.055574 25.75314 0.78899264 33 3203041478896 1 0
21.998163 21.106232 0.35491335 31 3203041481200 1 0
17.239933 20.12454 -1.853011 9 3203041481200 1 0
15.611733 16.512793 -1.8551099 7 3203041483504 1 0
37.593773 48.477245 1.7853442 24 3203041483504 1 0
21.832819 23.08655 0.5546375 42 3203041485808 1 0
17.476618 22.529705 -1.8273948 6 3203041485808 1 0
22.302673 21.380646 -1.7992864 13 3203041488112 1 0
0 0 0 3 3203041488112 1 0
22.187016 23.448103 1.3151708 33 3203041490416 1 0
20.336039 23.71215 -1.4551213 9 3203041490416 1 0
23.040424 24.34328 -1.7566041 12 3203041492720 1 0
21.755434 25.360098 4.1026096 11 3203041492720 1 0
63.70677 67.29054 7.5646176 28 3203041495024 1 0
20.204521 26.016634 -1.3420377 10 3203041495024 1 0
25.615711 24.529564 -1.2385134 42 3203041497328 1 0
20.393623 23.75936 8.389878 14 3203041497328 1 0
22.439882 23.689104 5.9493065 11 3203041499632 1 0
20.38914 23.747494 -0.7283224 8 3203041499632 1 0
0 0 0 4 3203041520368 1 0
20.043913 25.729008 -0.5692975 9 3203041520368 1 0
23.381735 24.614458 -0.9880309 19 3203041522672 1 0
4.2625465 4.9506407 -1.8287992 1 3203041522672 1 0
6.3492527 6.6819525 -1.8435025 4 3203041524976 1 0
22.073355 25.628695 0 42 3203041524976 1 0
0 0 0 28 3203041527280 1 0
7.834872 9.09402 -1.8674811 7 3203041527280 1 0
10.414347 10.953355 -1.9238226 4 3203041529584 1 0
39.839314 51.074627 0.37647253 21 3203041529584 1 0
21.713726 22.830564 -0.18312177 28 3203041531888 1 0
11.547724 13.395291 -1.9050423 7 3203041531888 1 0
14.601534 13.918223 -1.8830469 4 3203041534192 1 0
22.004683 25.517422 0.7840609 33 3203041534192 1 0
21.971724 20.937105 0.35333017 31 3203041536496 1 0
17.324255 20.083626 -1.8546851 9 3203041536496 1 0
15.657326 16.44756 -1.8538082 7 3203041538800 1 0
21.868141 22.964813 0.5535205 47 3203041541104 1 0
17.534513 22.444164 -1.8253481 6 3203041541104 1 0
22.34763 21.275782 -1.7969608 12 3203041543408 1 0
37.668888 48.231327 1.7810389 23 3203041538800 1 0
0 0 0 3 3203041543408 1 0
22.182922 23.281137 1.3101231 33 3203041545712 1 0
20.308651 23.51431 -1.4473041 9 3203041545712 1 0
22.625074 26.18829 4.24934 18 3203041548016 1 0
64.12106 67.25438 7.5857725 28 3203041550320 1 0
20.22664 25.857512 -1.3374784 10 3203041550320 1 0
23.034311 24.167286 -1.7496957 18 3203041548016 1 0
25.612085 24.353857 -1.2341858 24 3203041552624 1 0
20.482178 23.693277 8.391949 14 3203041552624 1 0
22.395802 23.475824 5.915585 16 3203041554928 1 0
0 0 0 4 3203041575664 1 0
20.444168 23.642012 -0.7272988 8 3203041554928 1 0
20.22451 25.765478 -0.5717408 9 3203041575664 1 0
4.283151 4.9379253 -1.8298776 0 3203041577968 1 0
6.3708916 6.6558957 -1.842718 4 3203041580272 1 0
21.94657 25.294155 0 46 3203041580272 1 0
22.183216 21.010653 -0.35570493 9 3203041582576 1 0
23.521372 24.580765 -0.9901254 19 3203041577968 1 0
7.85759 9.053474 -1.8650215 3 3203041582576 1 0
10.437638 10.898221 -1.9207922 4 3203041584880 1 0
40.10138 51.026924 0.3771932 21 3203041584880 1 0
21.849005 22.806498 -0.18356349 17 3203041587184 1 0
11.580611 13.335282 -1.902472 7 3203041587184 1 0
14.648952 13.8625145 -1.882675 4 3203041589488 1 0
21.92649 25.241331 0.77801245 37 3203041589488 1 0
22.026915 20.838316 0.35300422 19 3203041591792 1 0
17.39673 20.020882 -1.8546851 9 3203041591792 1 0
15.708273 16.382343 -1.8528318 7 3203041594096 1 0
37.946453 48.227116 1.7859261 12 3203041594096 1 0
21.756878 22.6839 0.5486339 50 3203041596400 1 0
17.6226 22.39031 -1.8261156 9 3203041596400 1 0
22.336857 21.113071 -1.7899842 12 3203041598704 1 0
22.266247 23.201458 1.3101231 27 3203041601008 1 0
20.361353 23.405176 -1.4450706 9 3203041601008 1 0
63.159252 72.62227 5.605067 28 3203041598704 1 0
23.034878 23.995386 -1.743206 18 3203041603312 1 0
22.721235 26.110167 4.249828 12 3203041603312 1 0
64.46573 67.13427 7.59814 28 3203041605616 1 0
20.261946 25.712923 -1.3337333 5 3203041605616 1 0
20.609608 23.669678 8.409549 14 3203041607920 1 0
22.4955 23.41306 5.91989 11 3203041610224 1 0
25.608595 24.177364 -1.2298583 24 3203041607920 1 0
20.423056 23.44854 -0.7235767 8 3203041610224 1 0
0 0 0 4 3203041630960 1 0
20.416021 25.823357 -0.574603 4 3203041630960 1 0
27.274324 28.305115 -1.1439562 24 3203041633264 1 0
4.295222 4.917205 -1.827721 0 3203041633264 1 0
21.915562 25.082485 0 37 3203041635568 1 0
6.3911715 6.630978 -1.8419336 4 3203041635568 1 0
22.354565 21.027237 -0.35728812 27 3203041637872 1 0
7.878347 9.014431 -1.8625618 3 3203041637872 1 0
10.461212 10.848048 -1.9182669 4 3203041640176 1 0
39.951103 50.4781 0.37414774 62 3203041640176 1 0
21.83519 22.636683 -0.18279631 12 3203041642480 1 0
11.610415 13.277659 -1.8999016 8 3203041642480 1 0
14.68734 13.804395 -1.8815597 4 3203041644784 1 0
21.941187 25.08529 0.77550006 32 3203041644784 1 0
22.199425 20.859411 0.35463396 11 3203041647088 1 0
17.453968 19.949799 -1.853569 9 3203041647088 1 0
38.111454 48.101933 1.7860425 12 3203041649392 1 0
15.74408 16.309168 -1.8505536 7 3203041649392 1 0
21.794075 22.570396 0.54765654 55 3203041651696 1 0
17.707644 22.343489 -1.827139 9 3203041651696 1 0
62.60478 71.50027 5.534602 28 3203041654000 1 0
22.375336 21.008165 -1.7874261 12 3203041654000 1 0
22.290638 23.072556 1.3070294 27 3203041656304 1 0
20.452356 23.352259 -1.4460012 4 3203041656304 1 0
23.033823 23.835566 -1.737135 18 3203041658608 1 0
22.894028 26.133226 4.2659144 12 3203041658608 1 0
65.37972 67.63769 7.6795044 28 3203041660912 1 0
25.623781 24.032892 -1.2267871 18 3203041663216 1 0
20.626177 23.532072 8.384702 14 3203041663216 1 0
27.887402 28.835415 7.313945 16 3203041665520 1 0
20.239916 25.511253 -1.3267317 5 3203041660912 1 0
20.468046 23.345497 -0.7224601 12 3203041665520 1 0
0 0 0 4 3203041686256 1 0
0 0 0 7 3203041686256 1 0
27.216003 28.066761 -1.137789 16 3203041688560 1 0
4.313263 4.906517 -1.8287992 0 3203041688560 1 0
6.406702 6.6050496 -1.8403647 4 3203041690864 1 0
21.987055 25.00386 0 27 3203041690864 1 0
23.523067 21.98556 -0.37484288 6 3203041693168 1 0
7.8913574 8.971485 -1.8588723 3 3203041693168 1 0
10.476525 10.794587 -1.9147314 4 3203041695472 1 0
40.2171 50.481407 0.37512416 42 3203041695472 1 0
21.785246 22.440104 -0.18177341 41 3203041697776 1 0
11.642524 13.22833 -1.8981881 7 3203041697776 1 0
14.726014 13.751463 -1.8808162 4 3203041700080 1 0
21.993002 24.9813 0.77447647 23 3203041700080 1 0
22.074 20.607159 0.3515607 38 3203041702384 1 0
17.52122 19.896078 -1.8538481 9 3203041702384 1 0
40.641483 50.95325 1.8968192 18 3203041704688 1 0
15.794353 16.254929 -1.8502281 7 3203041704688 1 0
21.812069 22.441595 0.5462603 32 3203041706992 1 0
17.795607 22.304144 -1.828674 9 3203041706992 1 0
22.438429 20.929056 -1.786961 12 3203041709296 1 0
62.873787 71.333046 5.5376253 28 3203041709296 1 0
22.182787 22.809732 1.2962826 32 3203041711600 1 0
21.002346 23.821089 -1.4793174 5 3203041711600 1 0
23.012466 23.655975 -1.7295986 18 3203041713904 1 0
22.095585 25.053703 4.1016345 11 3203041713904 1 0
65.476746 67.288124 7.664533 28 3203041716208 1 0
20.22749 25.321915 -1.3203814 5 3203041716208 1 0
23.504507 21.897863 -1.1218094 14 3203041718512 1 0
20.67666 23.431074 8.373314 14 3203041718512 1 0
26.839394 27.565844 7.0147576 7 3203041720816 1 0
20.472267 23.192654 -0.7198546 8 3203041720816 1 0
0 0 0 4 3203041741552 1 0
0 0 0 7 3203041741552 1 0
0 0 0 37 3203041743856 1 0
4.332917 4.8943152 -1.8298776 0 3203041743856 1 0
21.872658 24.69937 0 37 3203041746160 1 0
6.4242377 6.577034 -1.8387957 5 3203041746160 1 0
0 0 0 17 3203041748464 1 0
7.9121423 8.93205 -1.8564126 5 3203041748464 1 0
10.497501 10.740925 -1.911701 4 3203041750768 1 0
40.538258 50.52166 0.37647253 63 3203041750768 1 0
21.765577 22.263815 -0.18095975 37 3203041753072 1 0
11.667524 13.163799 -1.894761 7 3203041753072 1 0
14.776846 13.702684 -1.8811879 4 3203041755376 1 0
22.072466 20.462 0.3503966 27 3203041757680 1 0
22.042929 24.862486 0.77317375 27 3203041755376 1 0
17.598505 19.843752 -1.8546851 9 3203041757680 1 0
38.78828 48.283146 1.8024495 26 3203041759984 1 0
21.79236 22.265284 0.543817 40 3203041762288 1 0
15.850996 16.199697 -1.8502281 7 3203041759984 1 0
17.863352 22.229443 -1.8276507 9 3203041762288 1 0
63.23904 71.244545 5.5478578 28 3203041764592 1 0
22.49377 20.834322 -1.7855656 12 3203041764592 1 0
22.15601 22.623655 1.2900951 26 3203041766896 1 0
21.138428 23.80739 -1.48304 5 3203041766896 1 0
23.013836 23.492752 -1.7235277 18 3203041769200 1 0
22.317362 25.127813 4.126496 5 3203041769200 1 0
65.82562 67.1759 7.677877 28 3203041771504 1 0
20.22807 25.142164 -1.3146824 5 3203041771504 1 0
23.574932 21.810255 -1.1215302 14 3203041773808 1 0
20.614597 23.197023 8.315338 14 3203041773808 1 0
24.613005 25.103277 6.4099255 6 3203041776112 1 0
0 0 0 4 3203041797296 1 0
0 0 0 6 3203041776112 1 0
0 0 0 7 3203041797296 1 0
24.259 24.661732 -1.0067652 52 3203041799600 1 0
4.3508267 4.8784013 -1.8298776 0 3203041799600 1 0
6.4455495 6.550648 -1.8380113 5 3203041801904 1 0
21.960377 24.616053 0 32 3203041801904 1 0
22.123688 20.383003 -0.35021034 24 3203041804208 1 0
7.936932 8.894143 -1.854568 5 3203041804208 1 0
10.520095 10.685412 -1.9086704 4 3203041806512 1 0
40.74579 50.400738 0.37668175 42 3203041806512 1 0
21.872292 22.20954 -0.18116897 33 3203041808816 1 0
14.84162 13.661919 -1.8830469 4 3203041811120 1 0
21.992722 24.623455 0.76824194 41 3203041811120 1 0
22.117884 20.353878 0.34993097 23 3203041813424 1 0
11.699801 13.103148 -1.8921907 12 3203041808816 1 0
17.689728 19.799948 -1.8566383 6 3203041813424 1 0
15.927056 16.158527 -1.8521808 7 3203041815728 1 0
39.138557 48.355095 1.8104784 27 3203041815728 1 0
21.924364 22.236525 0.54507357 31 3203041818032 1 0
17.952242 22.173128 -1.8284181 9 3203041818032 1 0
22.44358 20.63552 -1.7755657 17 3203041820336 1 0
63.619522 71.14623 5.558323 28 3203041820336 1 0
23.055609 25.77573 -1.6109076 16 3203041822640 1 0
23.010002 23.31726 -1.7168287 18 3203041824944 1 0
23.920912 26.735296 4.4048457 6 3203041824944 1 0
22.174223 22.476858 1.28635 36 3203041822640 1 0
66.076996 66.939865 7.678528 28 3203041827248 1 0
20.267233 25.002657 -1.311263 5 3203041827248 1 0
25.780516 23.675968 -1.22232 11 3203041829552 1 0
20.568047 22.9745 8.262539 9 3203041829552 1 0
24.710377 25.018497 6.4113607 13 3203041831856 1 0
20.691061 23.105145 -0.7217157 8 3203041831856 1 0
0 0 0 4 3203041852592 1 0
23.483917 23.707676 -0.9711584 12 3203041854896 1 0
4.365255 4.8603187 -1.8287992 0 3203041854896 1 0
6.468376 6.528109 -1.8380113 6 3203041857200 1 0
22.008743 24.49759 0 46 3203041857200 1 0
20.310865 24.974697 -0.5618977 9 3203041852592 1 0
22.289137 20.392048 -0.3517004 9 3203041859504 1 0
7.9600043 8.857565 -1.8527232 5 3203041859504 1 0
10.540567 10.631718 -1.90564 4 3203041861808 1 0
44.02537 54.070293 0.4052531 56 3203041861808 1 0
21.915884 22.098974 -0.18089001 33 3203041864112 1 0
11.726854 13.041528 -1.889192 7 3203041864112 1 0
14.868642 13.591219 -1.8804444 4 3203041866416 1 0
21.90204 24.350307 0.76210046 27 3203041866416 1 0
22.182892 20.271152 0.34983784 19 3203041868720 1 0
17.756065 19.735111 -1.8563592 6 3203041868720 1 0
15.994597 16.114151 -1.8534827 7 3203041871024 1 0
44.07176 54.063 2.0299375 52 3203041871024 1 0
21.925768 22.08323 0.5431887 45 3203041873328 1 0
18.014395 22.091766 -1.8268832 9 3203041873328 1 0
63.856792 70.91186 5.5573926 28 3203041875632 1 0
22.477139 20.522049 -1.7725425 8 3203041875632 1 0
22.151142 22.297247 1.2804883 21 3203041877936 1 0
21.655897 24.041464 -1.5072361 15 3203041877936 1 0
22.998339 23.143297 -1.7099204 18 3203041880240 1 0
24.02472 26.663431 4.4067955 19 3203041880240 1 0
66.456406 66.855835 7.6954517 28 3203041882544 1 0
20.250755 24.804825 -1.3045869 4 3203041882544 1 0
25.780298 23.51041 -1.2184112 23 3203041884848 1 0
21.91154 22.030415 5.665186 10 3203041887152 1 0
20.830505 23.098112 -0.7237628 8 3203041887152 1 0
20.464428 22.698822 8.189034 27 3203041884848 1 0
0 0 0 4 3203041907888 1 0
20.382713 24.885082 -0.5614788 4 3203041907888 1 0
23.673656 23.7333 -0.97558016 12 3203041910192 1 0
4.3744073 4.836513 -1.8255644 0 3203041910192 1 0
6.4882593 6.502808 -1.8372267 5 3203041912496 1 0
22.085716 24.412037 0 32 3203041912496 1 0
22.780113 20.696533 -0.35831255 33 3203041914800 1 0
7.985378 8.8240385 -1.8514934 5 3203041914800 1 0
10.560487 10.578319 -1.9026096 4 3203041917104 1 0
0 0 0 5 3203041917104 1 0
22.170153 22.201452 -0.1823546 12 3203041919408 1 0
11.750479 12.977357 -1.8857648 6 3203041919408 1 0
14.880016 13.507763 -1.8759831 4 3203041921712 1 0
21.94021 24.22428 0.76051855 31 3203041921712 1 0
22.28803 20.226984 0.3503966 15 3203041924016 1 0
17.711323 19.549719 -1.8446401 6 3203041924016 1 0
16.038542 16.047874 -1.8521808 7 3203041926320 1 0
44.35601 54.03193 2.0344756 26 3203041926320 1 0
22.202036 22.208818 0.5481452 18 3203041928624 1 0
18.084892 22.023764 -1.8263716 9 3203041928624 1 0
22.5294 20.42901 -1.7711471 12 3203041930928 1 0
22.28359 22.278082 1.2837448 15 3203041933232 1 0
21.75119 23.982262 -1.5081668 15 3203041933232 1 0
23.000689 22.988647 -1.7042681 17 3203041935536 1 0
0 0 0 8 3203041935536 1 0
0 0 0 12 3203041930928 1 0
66.55053 66.497314 7.6801553 28 3203041937840 1 0
20.243507 24.624762 -1.2987251 4 3203041937840 1 0
25.765013 23.337034 -1.2139441 17 3203041940144 1 0
21.902378 21.872772 5.643662 15 3203041942448 1 0
20.954193 23.07787 -0.7253447 8 3203041942448 1 0
20.756773 22.86679 8.274962 14 3203041940144 1 0
0 0 0 4 3203041963184 1 0
20.523645 24.888323 -0.5630844 4 3203041963184 1 0
23.880062 23.78128 -0.9808164 18 3203041965488 1 0
4.4034586 4.8361573 -1.8309559 0 3203041965488 1 0
6.501637 6.4727654 -1.8348733 4 3203041967792 1 0
23.066286 20.815495 -0.36171174 28 3203041970096 1 0
8.006993 8.788395 -1.8496487 4 3203041970096 1 0
10.584869 10.531429 -1.9005893 4 3203041972400 1 0
21.927029 26.557089 0.2001623 40 3203041972400 1 0
22.102613 24.267046 0 18 3203041967792 1 0
22.103464 21.985155 -0.18119222 12 3203041974704 1 0
11.7809925 12.922768 -1.8836229 6 3203041974704 1 0
22.003666 24.128784 0.7598672 27 3203041977008 1 0
14.919987 13.451709 -1.8752395 4 3203041977008 1 0
22.291672 20.091776 0.34937218 31 3203041979312 1 0
17.786106 19.497911 -1.8454772 9 3203041979312 1 0
16.079391 15.978678 -1.8505536 7 3203041981616 1 0
45.30038 54.797688 2.0691514 28 3203041981616 1 0
22.145105 21.999678 0.5448641 49 3203041983920 1 0
18.168333 21.970524 -1.827139 9 3203041983920 1 0
22.608885 20.358917 -1.7718447 12 3203041986224 1 0
0 0 0 3 3203041986224 1 0
22.36657 22.206118 1.2840705 15 3203041988528 1 0
21.837118 23.909458 -1.5083529 10 3203041988528 1 0
21.353355 23.372616 3.8871446 10 3203041990832 1 0
23.00141 22.82943 -1.6984065 17 3203041990832 1 0
67.54449 67.01899 7.7677035 28 3203041993136 1 0
20.250683 24.458221 -1.2936773 4 3203041993136 1 0
25.75188 23.16066 -1.209477 23 3203041995440 1 0
21.87616 21.692707 5.6171155 10 3203041997744 1 0
20.328781 22.23751 8.073084 13 3203041995440 1 0
0 0 0 4 3203042018480 1 0
20.525276 24.705263 -0.5606411 4 3203042018480 1 0
21.108488 23.083347 -0.7278571 8 3203041997744 1 0
26.59418 26.291117 -1.088335 15 3203042020784 1 0
6.5224338 6.44623 -1.8340889 3 3203042023088 1 0
4.4081006 4.8058243 -1.8255644 0 3203042020784 1 0
21.909813 23.879667 0 45 3203042023088 1 0
0 0 0 11 3203042025392 1 0
8.025598 8.744604 -1.8465742 4 3203042025392 1 0
10.600509 10.470565 -1.8965487 4 3203042027696 1 0
21.88532 26.311125 0.19890693 35 3203042027696 1 0
22.072098 21.795193 -0.18028556 28 3203042030000 1 0
11.81436 12.865285 -1.8814809 6 3203042030000 1 0
14.959702 13.389618 -1.8741242 4 3203042032304 1 0
22.101725 24.060719 0.7602394 31 3203042032304 1 0
22.393951 20.037746 0.34983784 27 3203042034608 1 0
17.848362 19.424686 -1.8446401 9 3203042034608 1 0
16.136923 15.920575 -1.8505536 7 3203042036912 1 0
21.982124 21.681103 0.5389303 45 3203042039216 1 0
0 0 0 47 3203042036912 1 0
18.257523 21.917248 -1.8281623 9 3203042039216 1 0
22.574705 20.181751 -1.7634728 8 3203042041520 1 0
22.76817 24.757309 1.9588199 13 3203042041520 1 0
22.411882 22.09212 1.2821165 21 3203042043824 1 0
21.898352 23.804548 -1.5066777 10 3203042043824 1 0
22.994743 22.66007 -1.6919168 17 3203042046128 1 0
21.495987 23.360338 3.897869 15 3203042046128 1 0
68.396805 67.38173 7.838002 28 3203042048432 1 0
20.319967 24.364273 -1.2925376 14 3203042048432 1 0
25.777592 23.01816 -1.2068245 23 3203042050736 1 0
20.402658 22.159245 8.071013 13 3203042050736 1 0
24.064636 23.693705 6.1573744 12 3203042053040 1 0
21.258167 23.081675 -0.7301834 8 3203042053040 1 0
0 0 0 4 3203042073776 1 0
20.316244 24.280727 -0.552613 4 3203042073776 1 0
4.43269 4.7988963 -1.8287992 0 3203042076080 1 0
6.539297 6.417928 -1.83252 4 3203042078384 1 0
21.9116 23.714905 0 31 3203042078384 1 0
22.559727 20.068222 -0.35151416 9 3203042080688 1 0
8.048024 8.7078285 -1.8447294 4 3203042080688 1 0
10.619996 10.416827 -1.8935183 4 3203042082992 1 0
23.313332 22.887297 -0.950795 11 3203042076080 1 0
21.833189 26.062862 0.19760506 19 3203042082992 1 0
21.939558 21.513575 -0.17858848 16 3203042085296 1 0
11.856496 12.821047 -1.8810526 6 3203042085296 1 0
14.958719 13.294986 -1.8681757 4 3203042087600 1 0
22.047089 23.83371 0.75549376 31 3203042087600 1 0
22.4518 19.948828 0.34965158 27 3203042089904 1 0
17.894379 19.338835 -1.842408 9 3203042089904 1 0
16.1867 15.85857 -1.8499026 7 3203042092208 1 0
22.016756 26.250952 0.99710715 29 3203042092208 1 0
21.91481 21.464315 0.53543985 48 3203042094512 1 0
18.318523 21.835035 -1.8266274 9 3203042094512 1 0
22.546467 20.015345 -1.7557985 8 3203042096816 1 0
22.840883 24.663033 1.9576571 26 3203042096816 1 0
22.31464 21.84321 1.2721839 35 3203042099120 1 0
21.878126 23.61658 -1.4996051 10 3203042099120 1 0
22.990908 22.498644 -1.6858459 17 3203042101424 1 0
21.728516 23.448238 3.9251678 16 3203042101424 1 0
20.30464 24.17384 -1.2861873 9 3203042103728 1 0
54.328476 53.14977 6.2045293 28 3203042103728 1 0
23.518768 20.85404 -1.097659 9 3203042106032 1 0
20.553438 22.167223 8.1 32 3203042106032 1 0
27.990715 27.3675 7.137446 23 3203042108336 1 0
21.420189 23.095287 -0.732975 8 3203042108336 1 0
0 0 0 4 3203042129072 1 0
20.426647 24.240246 -0.5533111 4 3203042129072 1 0
23.467186 22.878689 -0.9538204 17 3203042131376 1 0
4.444098 4.777818 -1.8266426 0 3203042131376 1 0
6.561474 6.3952537 -1.83252 4 3203042133680 1 0
21.6557 23.27578 0 39 3203042133680 1 0
23.366175 20.641768 -0.36296898 28 3203042135984 1 0
8.067223 8.668462 -1.8422698 4 3203042135984 1 0
10.635794 10.360931 -1.8899828 4 3203042138288 1 0
21.971523 26.045858 0.19804677 15 3203042138288 1 0
21.992903 21.418926 -0.17842574 44 3203042140592 1 0
14.977008 13.220278 -1.8648298 4 3203042142896 1 0
11.878567 12.757162 -1.8776255 6 3203042140592 1 0
22.07084 23.697084 0.7535396 31 3203042142896 1 0
22.603245 19.94673 0.35095537 11 3203042145200 1 0
17.957092 19.275162 -1.842129 9 3203042145200 1 0
21.976225 26.023771 0.991289 33 3203042147504 1 0
16.23155 15.79552 -1.8489263 7 3203042147504 1 0
21.918003 21.323633 0.5337644 39 3203042149808 1 0
18.389204 21.770317 -1.8263716 9 3203042149808 1 0
22.89875 24.560202 1.9555641 19 3203042152112 1 0
22.622282 19.947733 -1.7564961 12 3203042152112 1 0
22.13225 21.520794 1.2576921 45 3203042154416 1 0
21.910336 23.493902 -1.4964409 5 3203042154416 1 0
22.973736 22.333181 -1.6791468 16 3203042156720 1 0
21.822403 23.393475 3.9280927 16 3203042156720 1 0
54.520813 52.986782 6.206482 28 3203042159024 1 0
0 0 0 12 3203042159024 1 0
23.57519 20.76605 -1.0971006 13 3203042161328 1 0
27.975685 27.174307 7.110899 23 3203042163632 1 0
20.59192 22.062822 8.086542 9 3203042161328 1 0
21.572063 23.106913 -0.7355805 8 3203042163632 1 0
0 0 0 4 3203042184368 1 0
20.383709 24.035645 -0.55009985 9 3203042184368 1 0
28.8835 27.981915 -1.1703703 8 3203042186672 1 0
4.46442 4.7693925 -1.8287992 0 3203042186672 1 0
6.5789003 6.3716884 -1.8317355 4 3203042188976 1 0
21.688383 23.163202 0 39 3203042188976 1 0
0 0 0 29 3203042191280 1 0
8.081283 8.628298 -1.8391953 7 3203042191280 1 0
10.657487 10.315807 -1.8879625 4 3203042193584 1 0
22.10912 26.039452 0.19853497 15 3203042193584 1 0
21.969652 21.259115 -0.17768182 36 3203042195888 1 0
11.911353 12.71021 -1.8763403 7 3203042195888 1 0
14.995662 13.150843 -1.8618556 4 3203042198192 1 0
21.903833 23.366043 0.745258 35 3203042198192 1 0
22.721956 19.920776 0.35179353 31 3203042200496 1 0
18.014055 19.210999 -1.8415709 9 3203042200496 1 0
16.251396 15.712072 -1.8453462 7 3203042202800 1 0
21.996153 25.875875 0.98837996 24 3203042202800 1 0
21.996294 21.26013 0.5339738 35 3203042205104 1 0
18.455177 21.70394 -1.8258598 9 3203042205104 1 0
22.72077 19.902208 -1.7590542 8 3203042207408 1 0
23.135122 24.650768 1.9688199 6 3203042207408 1 0
22.006926 23.441828 -1.4977438 5 3203042209712 1 0
22.975834 22.187504 -1.6739132 16 3203042212016 1 0
22.128443 21.37541 1.2534586 30 3203042209712 1 0
21.867245 23.286251 3.9222429 16 3203042212016 1 0
54.66257 52.77167 6.2025766 28 3203042214320 1 0
20.309072 23.856049 -1.2764175 9 3203042214320 1 0
25.849823 22.616531 -1.1994259 34 3203042216624 1 0
20.543907 21.86429 8.038919 13 3203042216624 1 0
27.54859 26.580145 6.9796014 15 3203042218928 1 0
21.81116 23.206226 -0.74107057 8 3203042218928 1 0
0 0 0 4 3203042239664 1 0
20.350601 23.827494 -0.54695845 4 3203042239664 1 0
28.914928 27.816954 -1.1676941 8 3203042241968 1 0
4.470507 4.7425356 -1.824486 0 3203042241968 1 0
6.598367 6.34587 -1.830951 4 3203042244272 1 0
21.780416 23.098679 0 26 3203042244272 1 0
23.805428 20.747599 -0.36762542 12 3203042246576 1 0
10.676565 10.261734 -1.884932 4 3203042248880 1 0
8.09798 8.585484 -1.8361207 6 3203042246576 1 0
21.776897 25.465954 0.1947456 14 3203042248880 1 0
22.004116 21.142696 -0.17735636 28 3203042251184 1 0
11.9588375 12.671011 -1.8767687 7 3203042251184 1 0
15.030032 13.087299 -1.8603685 4 3203042253488 1 0
21.884706 23.180895 0.74181503 39 3203042253488 1 0
22.698843 19.75877 0.35035005 31 3203042255792 1 0
18.07376 19.138376 -1.8407339 6 3203042255792 1 0
16.266788 15.615647 -1.8407898 7 3203042258096 1 0
22.00463 25.700464 0.9846564 37 3203042258096 1 0
22.074644 21.184544 0.5340436 17 3203042260400 1 0
18.527048 21.63211 -1.8253481 9 3203042260400 1 0
22.869886 19.88925 -1.7651007 12 3203042262704 1 0
63.696785 67.3869 5.4001846 28 3203042262704 1 0
23.059538 24.387976 -1.5634458 16 3203042265008 1 0
22.971455 22.024986 -1.6678423 16 3203042267312 1 0
22.219048 21.310093 1.2542727 25 3203042265008 1 0
27.33845 28.904547 4.8850107 15 3203042267312 1 0
54.77371 52.50087 6.193789 28 3203042269616 1 0
20.293005 23.66476 -1.2700671 4 3203042269616 1 0
25.927887 22.520899 -1.1992863 17 3203042271920 1 0
20.691372 21.863308 8.065837 13 3203042271920 1 0
23.816319 22.814106 6.0131617 11 3203042274224 1 0
0 0 0 4 3203042294960 1 0
0 0 0 42 3203042274224 1 0
20.518661 23.846725 -0.5491225 4 3203042294960 1 0
27.804937 26.553959 -1.1189383 23 3203042297264 1 0
4.487825 4.726151 -1.824486 0 3203042297264 1 0
6.6214895 6.3217397 -1.830951 6 3203042299568 1 0
21.732368 22.8798 0 39 3203042299568 1 0
22.958294 19.862564 -0.3534233 9 3203042301872 1 0
8.131928 8.558787 -1.8367356 4 3203042301872 1 0
10.699453 10.209148 -1.8824067 4 3203042304176 1 0
21.814528 25.322964 0.19425741 34 3203042304176 1 0
22.028597 21.013014 -0.1769379 28 3203042306480 1 0
11.982818 12.604472 -1.8733416 6 3203042306480 1 0
21.985048 23.118872 0.74237335 39 3203042308784 1 0
22.824581 19.723675 0.35118818 31 3203042311088 1 0
15.050213 13.009341 -1.8570225 4 3203042308784 1 0
18.09056 19.017996 -1.8354323 6 3203042311088 1 0
16.302807 15.537618 -1.8385116 7 3203042313392 1 0
21.851723 25.336315 0.97371835 33 3203042313392 1 0
21.985714 20.947691 0.53006446 55 3203042315696 1 0
18.612621 21.574345 -1.8261156 9 3203042315696 1 0
22.97444 19.835669 -1.7676588 12 3203042318000 1 0
0 0 0 12 3203042318000 1 0
22.399504 21.329515 1.2601346 20 3203042320304 1 0
23.061403 24.215448 -1.5576758 16 3203042320304 1 0
22.969103 21.865538 -1.6619806 16 3203042322608 1 0
25.85341 27.139269 4.602274 14 3203042322608 1 0
54.929054 52.274727 6.190209 28 3203042324912 1 0
20.270264 23.46814 -1.2633911 13 3203042324912 1 0
25.886879 22.323938 -1.1937023 28 3203042327216 1 0
20.68651 21.70274 8.033743 27 3203042327216 1 0
23.888742 22.721132 6.011009 17 3203042329520 1 0
23.397802 24.540077 -0.78899264 14 3203042329520 1 0
0 0 0 4 3203042350256 1 0
20.470823 23.62383 -0.54563206 4 3203042350256 1 0
28.912663 27.419914 -1.1596651 8 3203042352560 1 0
4.5042605 4.7104897 -1.824486 0 3203042352560 1 0
6.6263466 6.282492 -1.8262442 4 3203042354864 1 0
21.778591 22.769432 0 35 3203042354864 1 0
22.914803 19.686367 -0.3517004 30 3203042357168 1 0
8.145174 8.513392 -1.8330461 44 3203042357168 1 0
10.717447 10.155675 -1.8793763 4 3203042359472 1 0
21.797209 25.12644 0.1933275 19 3203042359472 1 0
21.952955 20.796501 -0.17575227 28 3203042361776 1 0
12.012535 12.548641 -1.8711996 6 3203042361776 1 0
15.079857 12.944416 -1.8551636 4 3203042364080 1 0
22.111626 23.092054 0.7439552 21 3203042364080 1 0
22.916574 19.665886 0.3515607 31 3203042366384 1 0
18.13103 18.929722 -1.8329211 9 3203042366384 1 0
16.341566 15.467865 -1.8368844 7 3203042368688 1 0
21.870394 25.182673 0.97069293 33 3203042368688 1 0
22.04281 20.858519 0.5297154 29 3203042370992 1 0
18.704733 21.53156 -1.8279065 9 3203042370992 1 0
23.03907 19.754429 -1.7674263 12 3203042373296 1 0
22.863914 23.851294 1.9241691 18 3203042373296 1 0
22.437275 21.220041 1.2581806 20 3203042375600 1 0
23.04707 24.035711 -1.5511615 16 3203042375600 1 0
22.970821 21.71863 -1.656747 16 3203042377904 1 0
25.964863 27.07118 4.605686 14 3203042377904 1 0
55.088882 52.071445 6.1882563 28 3203042380208 1 0
20.347223 23.396149 -1.2632283 4 3203042380208 1 0
25.91684 22.197077 -1.1916084 22 3203042382512 1 0
20.698406 21.568396 8.009932 13 3203042382512 1 0
22.260569 21.029625 5.583394 10 3203042384816 1 0
23.552652 24.535822 -0.79141206 14 3203042384816 1 0
0 0 0 4 3203042405552 1 0
20.388674 23.371977 -0.54137367 8 3203042405552 1 0
23.334288 21.983034 -0.9329916 16 3203042407856 1 0
4.509171 4.6844263 -1.8201728 0 3203042407856 1 0
6.6499987 6.263173 -1.8270286 4 3203042410160 1 0
21.865076 22.708612 0 35 3203042410160 1 0
23.086447 19.701143 -0.35333017 12 3203042412464 1 0
8.151426 8.463561 -1.8281268 53 3203042412464 1 0
10.733729 10.103761 -1.8763458 4 3203042414768 1 0
21.856731 25.026905 0.19311827 19 3203042414768 1 0
21.989756 20.693434 -0.17549655 20 3203042417072 1 0
12.032005 12.485827 -1.8677726 7 3203042417072 1 0
15.092393 12.868498 -1.8514458 4 3203042419376 1 0
21.991037 22.814184 0.7373485 38 3203042419376 1 0
23.152122 19.735085 0.35416833 27 3203042421680 1 0
18.14385 18.817787 -1.8278986 9 3203042421680 1 0
16.36663 15.38901 -1.8339552 7 3203042423984 1 0
21.898518 25.046799 0.9682493 28 3203042423984 1 0
22.041922 20.719566 0.52804 38 3203042426288 1 0
18.718218 21.403309 -1.8222783 6 3203042426288 1 0
23.06493 19.64426 -1.764403 12 3203042428592 1 0
22.99002 23.824194 1.9281225 6 3203042428592 1 0
22.42596 21.068895 1.2536215 20 3203042430896 1 0
23.040623 23.870031 -1.5453917 16 3203042430896 1 0
22.958279 21.56303 -1.650676 16 3203042433200 1 0
0 0 0 14 3203042433200 1 0
55.246723 51.874836 6.1866293 28 3203042435504 1 0
20.282528 23.166166 -1.2544355 4 3203042435504 1 0
25.996395 22.116192 -1.1918876 33 3203042437808 1 0
20.812769 21.544098 8.026496 9 3203042437808 1 0
22.433485 21.052633 5.609223 15 3203042440112 1 0
26.337683 27.255613 -0.88195217 16 3203042440112 1 0
0 0 0 4 3203042460296 1 0
0 0 0 21 3203042460296 1 0
23.39426 21.878244 -0.93217707 11 3203042462600 1 0
4.547762 4.6899905 -1.8287992 0 3203042462600 1 0
6.6671796 6.2334003 -1.8254597 4 3203042464904 1 0
21.792202 22.46753 0 48 3203042464904 1 0
24.214489 20.51087 -0.36944142 3 3203042467208 1 0
0 0 0 16 3203042467208 1 0
10.759092 10.053515 -1.8743255 4 3203042469512 1 0
21.932459 24.92861 0.19297878 14 3203042469512 1 0
22.024532 20.574472 -0.17517108 36 3203042471816 1 0
12.069377 12.433083 -1.8664874 7 3203042471816 1 0
15.115136 12.792511 -1.8484716 4 3203042474120 1 0
21.846075 22.498177 0.7297182 38 3203042474120 1 0
23.343382 19.750853 0.35598433 31 3203042476424 1 0
18.215479 18.754023 -1.8281777 9 3203042476424 1 0
16.38212 15.290836 -1.8293989 7 3203042478728 1 0
21.966387 24.939363 0.96720207 32 3203042478728 1 0
22.10017 20.622267 0.52762115 34 3203042481032 1 0
18.807095 21.34654 -1.8233016 6 3203042481032 1 0
22.993448 19.438423 -1.7534729 8 3203042483336 1 0
0 0 0 12 3203042483336 1 0
22.383194 20.874798 1.2469454 39 3203042485640 1 0
23.036036 23.690887 -1.5392495 15 3203042485640 1 0
22.961195 21.407915 -1.6452332 16 3203042487944 1 0
25.62451 26.345661 4.512578 13 3203042487944 1 0
25.905745 24.14658 2.8910425 14 3203042490248 1 0
20.420176 23.151619 -1.2576921 13 3203042490248 1 0
26.007032 21.961441 -1.1886768 22 3203042492552 1 0
20.565538 21.132627 7.901228 21 3203042492552 1 0
22.481703 20.943445 5.6020484 10 3203042494856 1 0
27.399725 28.147484 -0.9140553 5 3203042494856 1 0
0 0 0 4 3203042515592 1 0
20.540743 23.217087 -0.5410944 4 3203042515592 1 0
28.89762 26.845884 -1.1479125 8 3203042517896 1 0
4.552527 4.6638584 -1.824486 0 3203042517896 1 0
6.6878138 6.2112565 -1.8254597 4 3203042520200 1 0
21.82467 22.352211 0 35 3203042520200 1 0
24.260948 20.412434 -0.36911547 9 3203042522504 1 0
8.210314 8.406447 -1.8281268 12 3203042522504 1 0
10.783648 10.009683 -1.8728102 4 3203042524808 1 0
22.033998 20.446907 -0.17470613 36 3203042527112 1 0
21.967268 24.801844 0.19256033 14 3203042524808 1 0
12.102201 12.384458 -1.8652022 7 3203042527112 1 0
15.148329 12.734629 -1.8473563 4 3203042529416 1 0
21.881428 22.385574 0.7284154 38 3203042529416 1 0
18.252462 18.667837 -1.8256664 9 3203042531720 1 0
23.506733 19.755682 0.3574744 34 3203042531720 1 0
21.913681 24.713812 0.9612676 36 3203042534024 1 0
22.130304 20.513523 0.5267136 34 3203042536328 1 0
16.403503 15.209321 -1.8261442 7 3203042534024 1 0
18.891024 21.298988 -1.8245807 6 3203042536328 1 0
22.920168 19.246511 -1.7430079 12 3203042538632 1 0
22.912802 23.414808 1.9078901 12 3203042538632 1 0
23.025032 23.522993 -1.5332936 15 3203042540936 1 0
22.95 21.255655 -1.6393715 15 3203042543240 1 0
25.397873 25.939981 4.4574933 13 3203042543240 1 0
22.434704 20.78416 1.2459685 34 3203042540936 1 0
25.968122 24.044289 2.8890898 14 3203042545544 1 0
20.49949 23.086765 -1.2578549 4 3203042545544 1 0
26.174664 21.954718 -1.1930044 33 3203042547848 1 0
20.586836 21.014635 7.8825927 21 3203042547848 1 0
22.51926 20.839378 5.5941563 5 3203042550152 1 0
24.389011 24.88894 -0.81086004 10 3203042550152 1 0
0 0 0 4 3203042570888 1 0
20.68412 23.223507 -0.54283965 4 3203042570888 1 0
28.954552 26.71966 -1.1466324 16 3203042573192 1 0
6.6999054 6.180871 -1.8231063 3 3203042575496 1 0
4.570735 4.651417 -1.8255644 0 3203042573192 1 0
21.921755 22.301899 0 30 3203042575496 1 0
22.303732 18.63807 -0.33838302 88 3203042577800 1 0
8.232969 8.3731785 -1.826897 56 3203042577800 1 0
10.791106 9.949032 -1.8682647 4 3203042580104 1 0
22.056156 24.73355 0.19260682 14 3203042580104 1 0
22.07081 20.3423 -0.1744504 32 3203042582408 1 0
15.185468 12.677895 -1.8466127 5 3203042584712 1 0
21.906998 22.25967 0.7267405 25 3203042584712 1 0
24.077723 20.095533 0.36511093 40 3203042587016 1 0
12.130155 12.3292 -1.8630602 7 3203042582408 1 0
18.313362 18.602499 -1.8253874 9 3203042587016 1 0
16.44388 15.142124 -1.8248425 7 3203042589320 1 0
21.835943 24.456514 0.9541695 32 3203042589320 1 0
22.227365 20.461496 0.5273419 25 3203042591624 1 0
18.966988 21.236721 -1.8248365 6 3203042591624 1 0
0 0 0 17 3203042593928 1 0
22.974098 23.315445 1.9062623 6 3203042593928 1 0
22.480345 20.681696 1.244503 24 3203042596232 1 0
23.022514 23.357443 -1.5277098 15 3203042596232 1 0
22.941734 21.0997 -1.6335099 15 3203042598536 1 0
25.633211 25.998178 4.482842 20 3203042598536 1 0
26.01409 23.91804 2.8848588 14 3203042600840 1 0
0 0 0 52 3203042603144 1 0
20.625578 23.065414 -1.2606231 4 3203042600840 1 0
25.336054 25.681095 9.666373 12 3203042603144 1 0
22.462378 20.639845 5.5618696 14 3203042605448 1 0
24.479633 24.805433 -0.8109531 5 3203042605448 1 0
0 0 0 4 3203042626184 1 0
20.91333 23.308287 -0.54660934 4 3203042626184 1 0
28.93692 26.508448 -1.1420944 8 3203042628488 1 0
6.7165504 6.1511707 -1.8215374 3 3203042630792 1 0
4.587685 4.6347 -1.8255644 0 3203042628488 1 0
21.839468 22.05718 0 39 3203042630792 1 0
22.152515 18.375866 -0.33507693 100 3203042633096 1 0
8.229863 8.309608 -1.8195181 72 3203042633096 1 0
10.8093605 9.893969 -1.8652343 4 3203042635400 1 0
22.027617 24.522902 0.19158392 14 3203042635400 1 0
22.21752 20.330387 -0.17503159 20 3203042637704 1 0
12.177168 12.288368 -1.8634887 6 3203042637704 1 0
15.218466 12.613316 -1.8451257 4 3203042640008 1 0
22.025913 22.220907 0.72804326 21 3203042640008 1 0
22.159588 18.361069 0.33503038 91 3203042642312 1 0
18.393581 18.55129 -1.8267826 9 3203042642312 1 0
16.482801 15.070222 -1.8232151 7 3203042644616 1 0
21.874475 24.325354 0.952075 36 3203042644616 1 0
22.23755 20.326145 0.5258759 29 3203042646920 1 0
22.192719 18.37301 -1.6778921 62 3203042649224 1 0
19.068623 21.199232 -1.8273948 6 3203042646920 1 0
41.023796 41.341255 3.3918304 26 3203042649224 1 0
22.564503 20.613552 1.2451543 29 3203042651528 1 0
23.0198 23.191526 -1.5221261 15 3203042651528 1 0
22.941507 20.952147 -1.6282762 15 3203042653832 1 0
25.76017 25.94517 4.489179 20 3203042653832 1 0
25.714333 23.478012 2.8425493 7 3203042656136 1 0
20.71633 23.005459 -1.2612743 4 3203042656136 1 0
21.029852 21.169176 7.995438 9 3203042658440 1 0
22.186893 18.347528 -1.0053847 92 3203042658440 1 0
24.36757 22.236032 6.0145965 17 3203042660744 1 0
23.510798 23.660019 -0.7761514 14 3203042660744 1 0
0 0 0 4 3203042681480 1 0
21.006592 23.256615 -0.54702824 4 3203042681480 1 0
28.953886 26.34755 -1.1393017 16 3203042683784 1 0
4.5976253 4.6139703 -1.8234078 0 3203042683784 1 0
6.7399015 6.1314054 -1.8223219 3 3203042686088 1 0
21.974936 22.046646 0 39 3203042686088 1 0
22.201382 18.291647 -0.3348907 100 3203042688392 1 0
8.257555 8.282092 -1.8195181 60 3203042688392 1 0
10.827718 9.844407 -1.8627088 4 3203042690696 1 0
21.964653 24.288872 0.19032855 42 3203042690696 1 0
22.217474 20.19391 -0.1744969 28 3203042693000 1 0
12.198634 12.227767 -1.86049 7 3203042693000 1 0
15.233083 12.539333 -1.8417797 4 3203042695304 1 0
22.199665 18.26856 0.33470443 73 3203042697608 1 0
22.114569 22.160934 0.7285085 25 3203042695304 1 0
18.45312 18.486431 -1.8265035 9 3203042697608 1 0
16.512901 14.995756 -1.8209369 7 3203042699912 1 0
21.910812 24.201017 0.95009685 28 3203042699912 1 0
22.424603 20.358364 0.5286683 21 3203042702216 1 0
19.158957 21.15534 -1.8291856 9 3203042702216 1 0
22.239431 18.285017 -1.6767293 69 3203042704520 1 0
22.544758 22.565754 1.857658 17 3203042704520 1 0
22.740934 20.633484 1.2510161 25 3203042706824 1 0
23.022167 23.036905 -1.5171008 15 3203042706824 1 0
22.947592 20.814905 -1.6236707 15 3203042709128 1 0
25.67991 25.688877 4.4599304 19 3203042709128 1 0
25.752913 23.35268 2.837993 7 3203042711432 1 0
20.896687 23.04718 -1.2674619 4 3203042711432 1 0
22.227848 18.25383 -1.0044075 84 3203042713736 1 0
0 0 0 48 3203042713736 1 0
24.289051 22.012383 5.9765706 11 3203042716040 1 0
23.64261 23.630236 -0.77782637 9 3203042716040 1 0
0 0 0 4 3203042736776 1 0
21.19529 23.301489 -0.5498206 4 3203042736776 1 0
0 0 0 11 3203042739080 1 0
6.7584414 6.105114 -1.8215374 3 3203042741384 1 0
21.907558 21.825504 0 43 3203042741384 1 0
22.253109 18.203423 -0.33470443 100 3203042743688 1 0
8.294995 8.261404 -1.8213629 38 3203042743688 1 0
10.847573 9.792941 -1.8601835 4 3203042745992 1 0
21.837238 23.977785 0.18849199 32 3203042745992 1 0
28.921274 26.133522 -1.1344144 8 3203042739080 1 0
22.309345 20.134182 -0.17465962 28 3203042748296 1 0
12.23323 12.176249 -1.8592048 6 3203042748296 1 0
15.243383 12.457694 -1.8376901 4 3203042750600 1 0
22.155903 22.045969 0.7272988 17 3203042750600 1 0
22.24874 18.177172 0.3344716 73 3203042752904 1 0
16.548248 14.921042 -1.8189842 7 3203042755208 1 0
18.512817 18.415333 -1.8259455 9 3203042752904 1 0
21.975008 24.09947 0.94916594 24 3203042755208 1 0
22.535477 20.313301 0.5295758 29 3203042757512 1 0
19.271727 21.128366 -1.8327672 9 3203042757512 1 0
22.2797 18.185453 -1.674869 69 3203042759816 1 0
22.735489 22.595057 1.8667277 5 3203042759816 1 0
22.90355 20.632402 1.255901 35 3203042762120 1 0
23.010738 22.861622 -1.5109587 15 3203042762120 1 0
22.947712 20.66584 -1.618437 15 3203042764424 1 0
25.481522 25.30866 4.4097204 6 3203042764424 1 0
56.081734 50.489574 6.160267 28 3203042766728 1 0
21.022303 23.019333 -1.2700671 4 3203042766728 1 0
22.27779 18.16123 -1.0037096 84 3203042769032 1 0
21.051598 20.89602 7.9478154 13 3203042769032 1 0
23.408619 21.0615 5.7412386 10 3203042771336 1 0
23.849579 23.666094 -0.7818276 23 3203042771336 1 0
0 0 0 4 3203042792072 1 0
21.275148 23.21775 -0.549681 4 3203042792072 1 0
23.438797 21.024584 -0.9163518 16 3203042794376 1 0
4.605846 4.556605 -1.8137031 5 3203042794376 1 0
6.7718353 6.0726433 -1.819184 3 3203042796680 1 0
21.972553 21.731638 0 29 3203042796680 1 0
22.297153 18.105062 -0.33437848 100 3203042798984 1 0
8.32205 8.22853 -1.820748 11 3203042798984 1 0
10.873961 9.745805 -1.8586682 4 3203042801288 1 0
21.891136 23.863491 0.188213 27 3203042801288 1 0
12.265578 12.121041 -1.8574913 6 3203042803592 1 0
15.23528 12.360418 -1.8313699 4 3203042805896 1 0
22.10378 21.837275 0.7230184 41 3203042805896 1 0
22.288517 18.07762 0.33409908 73 3203042808200 1 0
22.39047 20.061914 -0.17472938 36 3203042803592 1 0
18.561287 18.332424 -1.8242713 9 3203042808200 1 0
16.586245 14.848926 -1.8173568 7 3203042810504 1 0
22.03335 23.991884 0.94800234 24 3203042810504 1 0
22.556467 20.188185 0.52838904 59 3203042812808 1 0
19.34358 21.057182 -1.8325114 6 3203042812808 1 0
22.33426 18.099379 -1.6741712 77 3203042815112 1 0
22.97275 20.54933 1.2557381 25 3203042817416 1 0
41.05086 40.5111 3.3588076 51 3203042815112 1 0
23.0054 22.696638 -1.5053749 15 3203042817416 1 0
22.939316 20.513718 -1.6127849 15 3203042819720 1 0
26.11525 25.75763 4.5038033 6 3203042819720 1 0
56.22421 50.265095 6.156687 28 3203042822024 1 0
21.205 23.057907 -1.2762547 4 3203042822024 1 0
22.324986 18.07143 -1.0030116 84 3203042824328 1 0
24.68984 24.338284 9.289534 12 3203042824328 1 0
23.501621 20.999039 5.7462606 15 3203042826632 1 0
23.999372 23.65111 -0.7840609 14 3203042826632 1 0
0 0 0 4 3203042847368 1 0
21.384565 23.182348 -0.5505187 4 3203042847368 1 0
23.383162 20.834856 -0.91146463 16 3203042849672 1 0
4.6017327 4.522373 -1.806155 6 3203042849672 1 0
22.044811 21.658335 0 38 3203042851976 1 0
6.783237 6.042228 -1.8168306 3 3203042851976 1 0
22.338781 18.01547 -0.33409908 100 3203042854280 1 0
0 0 0 6 3203042854280 1 0
21.856863 23.66671 0.1872366 32 3203042856584 1 0
22.481504 20.008013 -0.17491536 32 3203042858888 1 0
10.879829 9.685629 -1.8541226 4 3203042856584 1 0
12.306146 12.079853 -1.8574913 7 3203042858888 1 0
15.245709 12.284174 -1.8276522 4 3203042861192 1 0
22.054293 21.642448 0.71901715 28 3203042861192 1 0
22.32434 17.982399 0.33372658 73 3203042863496 1 0
18.611513 18.258646 -1.8231552 9 3203042863496 1 0
16.609442 14.769032 -1.8144277 7 3203042865800 1 0
21.970316 23.761808 0.9418351 23 3203042865800 1 0
22.651508 20.135708 0.5290173 34 3203042868104 1 0
19.37131 20.944761 -1.8284181 6 3203042868104 1 0
22.376804 18.008566 -1.6727759 73 3203042870408 1 0
0 0 0 15 3203042870408 1 0
23.31729 20.715405 1.2707185 35 3203042872712 1 0
22.993876 22.531685 -1.4996051 15 3203042872712 1 0
22.934332 20.369213 -1.6075512 10 3203042875016 1 0
25.51926 24.999033 4.3863215 19 3203042875016 1 0
56.380413 50.059807 6.15506 28 3203042877320 1 0
21.297096 23.000113 -1.2770689 4 3203042877320 1 0
22.364813 17.977488 -1.0020343 88 3203042879624 1 0
24.808773 24.28889 9.302992 12 3203042879624 1 0
22.713945 20.155754 5.536758 9 3203042881928 1 0
23.317196 22.82193 -0.75921583 13 3203042881928 1 0
0 0 0 4 3203042902664 1 0
21.615063 23.268723 -0.55435824 4 3203042902664 1 0
23.530607 20.819344 -0.9143737 32 3203042904968 1 0
4.614734 4.5035925 -1.8050766 7 3203042904968 1 0
22.014345 21.4779 0 51 3203042907272 1 0
22.379677 17.919884 -0.33377314 100 3203042909576 1 0
8.363897 8.157712 -1.8176733 15 3203042909576 1 0
6.8072248 6.021112 -1.817615 2 3203042907272 1 0
10.898707 9.634452 -1.8515972 4 3203042911880 1 0
21.69418 23.32666 0.18514432 36 3203042911880 1 0
22.554207 19.932064 -0.1749386 32 3203042914184 1 0
12.336845 12.025719 -1.8557776 6 3203042914184 1 0
15.244957 12.19605 -1.8224473 4 3203042916488 1 0
21.975052 21.414625 0.7139923 33 3203042916488 1 0
18.64941 18.168509 -1.820644 9 3203042918792 1 0
16.645952 14.69777 -1.8128004 7 3203042921096 1 0
21.91962 23.541586 0.9361334 34 3203042921096 1 0
22.371357 17.891872 0.33349374 77 3203042918792 1 0
22.706665 20.043282 0.5286683 42 3203042923400 1 0
19.43614 20.868252 -1.8276507 6 3203042923400 1 0
22.417692 17.912897 -1.6711481 69 3203042925704 1 0
