# .PCD v.7 - Point Cloud Data file format
VERSION .7
FIELDS x y z rgb timestamp_ns device_id active
SIZE 4 4 4 4 8 1 1
TYPE F F F F F U U
COUNT 1 1 1 1 1 1 1
WIDTH 929
HEIGHT 1
VIEWPOINT 0 0 0 1 0 0 0
POINTS 929               
DATA ascii
-4.7586913 20.785872 0.12393325 28 3204327382992 1 0
-2.71075 15.239245 -1.6672869 78 3204327385296 1 0
-1.2324817 15.739182 -1.4737211 16 3204327387600 1 0
-1.8364177 14.36283 -0.08415651 27 3204327385296 1 0
-3.602215 20.26882 0.47903457 28 3204327387600 1 0
-1.6326834 20.890877 0.24395055 17 3204327389904 1 0
0 0 0 96 3204327389904 1 0
-1.8212819 14.296514 -1.1765302 26 3204327392208 1 0
-1.8289105 14.373906 0.25292027 85 3204327394512 1 0
-4.712028 20.64 0.6161375 27 3204327392208 1 0
-3.5780804 15.68403 -1.0309955 5 3204327394512 1 0
-1.3052893 16.800817 -0.98138666 59 3204327396816 1 0
-3.982338 22.487408 1.3299882 20 3204327396816 1 0
-1.8247952 14.376632 0.5904184 42 3204327399120 1 0
-18.188488 143.47322 -7.5792933 248 3204327401424 1 0
-2.6976128 15.2464 -0.7212324 66 3204327399120 1 0
-3.6822941 20.830175 2.5972795 30 3204327401424 1 0
-1.8093632 14.28999 1.1758794 107 3204327403728 1 0
-7.4418244 32.712368 -1.3667877 10 3204327403728 1 0
-1.2958156 16.811857 -0.58882433 49 3204327406032 1 0
-4.0587525 23.000725 6.2582445 11 3204327406032 1 0
-1.8284782 14.476435 2.660399 15 3204327408336 1 0
-3.6417022 20.655754 -0.48806068 35 3204327408336 1 0
-0.5077538 4.064922 -1.9102346 3 3204327429072 1 0
-4.7262483 20.937937 -0.37466827 12 3204327429072 1 0
-1.7905358 14.350605 -0.42088184 26 3204327431376 1 0
-1.2485361 7.1448927 -2.0304415 6 3204327431376 1 0
-1.3669775 10.968247 -2.210634 2 3204327433680 1 0
-3.4585907 19.808327 0 33 3204327433680 1 0
-3.9938154 53.162582 -0.620656 22 3204327435984 1 0
-2.5058892 14.363648 -2.2684023 8 3204327435984 1 0
-1.7759496 14.281884 -1.8318994 23 3204327438288 1 0
0 0 0 202 3204327440592 1 0
-4.645907 20.635105 0.1229336 35 3204327438288 1 0
-2.6498444 15.213624 -1.6634314 82 3204327440592 1 0
-1.1815012 15.8149805 -1.4804131 20 3204327442896 1 0
-3.5248723 20.254 0.4783832 24 3204327442896 1 0
-1.5582311 20.896563 0.24395055 17 3204327445200 1 0
-2.6489935 15.23364 -1.0812254 76 3204327445200 1 0
0 0 0 219 3204327447504 1 0
0 0 0 216 3204327449808 1 0
-4.630866 20.62148 0.61509025 24 3204327447504 1 0
-1.2517573 16.880972 -0.9858052 54 3204327452112 1 0
-5.956997 26.543964 -1.7434825 20 3204327449808 1 0
-3.9243207 22.623253 1.3371975 23 3204327452112 1 0
-1.763136 14.291708 0.5866733 111 3204327454416 1 0
-2.6400604 15.23214 -0.72011566 84 3204327454416 1 0
-1.7660692 14.331779 -0.75677794 220 3204327456720 1 0
-3.5960114 20.764662 2.58753 21 3204327456720 1 0
-1.7669845 14.355546 1.1807612 151 3204327459024 1 0
-7.320211 32.702934 -1.3653222 16 3204327459024 1 0
-1.2434808 16.895977 -0.5916163 49 3204327461328 1 0
-3.9922748 23.09078 6.27895 14 3204327461328 1 0
-2.4663944 20.083548 3.6892588 27 3204327463632 1 0
-2.6290169 15.218404 -0.35936898 68 3204327463632 1 0
-0.49470863 4.070182 -1.911925 3 3204327484368 1 0
-4.588244 20.64507 -0.3691533 31 3204327484368 1 0
-1.7465833 14.388243 -0.42181274 11 3204327486672 1 0
-1.2247319 7.149011 -2.0304415 5 3204327486672 1 0
-1.3288625 10.961078 -2.2082808 2 3204327488976 1 0
-3.3896093 19.804014 0 36 3204327488976 1 0
-1.5336285 21.375603 -0.24949169 19 3204327491280 1 0
-2.4456253 14.301861 -2.257334 7 3204327491280 1 0
-1.73013 14.307491 -1.8344247 22 3204327493584 1 0
-4.543366 20.502266 0.12205019 31 3204327493584 1 0
-1.7293881 14.319706 -0.08383104 116 3204327495888 1 0
-2.591581 15.183313 -1.6591475 78 3204327495888 1 0
-1.1350328 15.922198 -1.4900793 21 3204327498192 1 0
-3.4444919 20.198866 0.47680134 16 3204327498192 1 0
-1.4896369 20.941664 0.24441618 3 3204327500496 1 0
-2.5895386 15.199336 -1.0781561 67 3204327500496 1 0
-1.7300013 14.380128 -1.1823885 194 3204327502800 1 0
-4.5514293 20.598213 0.61392665 22 3204327502800 1 0
-1.7256554 14.362499 0.25250143 119 3204327505104 1 0
-3.4478428 15.615077 -1.0248556 17 3204327505104 1 0
-1.1983824 16.956903 -0.98999125 57 3204327507408 1 0
-3.8312702 22.550093 1.3320812 10 3204327507408 1 0
-1.7277128 14.416799 0.5915582 118 3204327509712 1 0
-2.5810778 15.205771 -0.71844053 86 3204327509712 1 0
-17.19259 143.64827 -7.5820146 245 3204327512016 1 0
-3.5042567 20.663574 2.573393 16 3204327512016 1 0
-7.198661 32.697166 -1.3640195 16 3204327514320 1 0
-1.7299032 14.472491 1.189874 169 3204327514320 1 0
-1.8442528 10.895204 2.9608898 2 3204327516624 1 0
-2.3809566 19.971008 3.667017 21 3204327518928 1 0
-1.188753 16.968042 -0.59398943 49 3204327516624 1 0
-2.5698798 15.196057 -0.35862458 90 3204327518928 1 0
-0.47978735 4.071968 -1.911925 3 3204327539664 1 0
-4.6217747 21.161879 -0.37808892 38 3204327539664 1 0
-1.8799238 15.974956 -0.46812487 72 3204327541968 1 0
-1.1966637 7.1420465 -2.0272067 6 3204327541968 1 0
-1.2879231 10.958065 -2.2067118 2 3204327544272 1 0
-1.4603579 21.448887 -0.2502833 14 3204327546576 1 0
-3.3437061 19.974062 0 28 3204327544272 1 0
-2.390894 14.295083 -2.2548742 8 3204327546576 1 0
-1.7464756 14.8969555 -1.9091755 94 3204327548880 1 0
-4.4764485 20.553825 0.122259416 24 3204327548880 1 0
-1.7053233 14.564255 -0.0852259 116 3204327551184 1 0
-2.5305724 15.157313 -1.655292 60 3204327551184 1 0
-1.0875767 16.077202 -1.5042068 16 3204327553488 1 0
-3.349606 20.081041 0.4737306 17 3204327553488 1 0
-2.5286837 15.173172 -1.0756449 70 3204327555792 1 0
-3.3685079 49.90305 0.58228695 25 3204327555792 1 0
0 0 0 20 3204327558096 1 0
-4.469465 20.579332 0.6128794 22 3204327558096 1 0
-1.6961573 14.559299 0.25585228 117 3204327560400 1 0
-5.7647214 26.561876 -1.7419475 14 3204327560400 1 0
-3.7587464 22.61492 1.3351045 37 3204327562704 1 0
-1.1425344 17.0368 -0.9944098 56 3204327562704 1 0
-1.6912386 14.553909 0.5969316 116 3204327565008 1 0
-2.5193455 15.171569 -0.7163932 86 3204327565008 1 0
0 0 0 25 3204327567312 1 0
-3.409508 20.550648 2.5577939 23 3204327567312 1 0
-1.6956593 14.629065 1.2022414 117 3204327569616 1 0
-4.5296206 20.929691 -0.87243843 20 3204327569616 1 0
-1.1341157 17.059923 -0.59706056 49 3204327571920 1 0
-1.8035235 10.890271 2.957784 9 3204327571920 1 0
-2.306307 19.948076 3.6612773 25 3204327574224 1 0
-2.508644 15.161702 -0.357601 93 3204327574224 1 0
-0.4647473 4.0664144 -1.9085441 3 3204327594960 1 0
-4.3555837 20.282438 -0.36210254 24 3204327594960 1 0
-1.8309509 16.041008 -0.4698703 58 3204327597264 1 0
-1.1723493 7.1499815 -2.028285 6 3204327597264 1 0
-1.2496644 10.962494 -2.2067118 2 3204327599568 1 0
-3.250684 19.843506 0 24 3204327599568 1 0
-3.3998995 52.64676 -0.61418355 21 3204327601872 1 0
-2.340342 14.299441 -2.2542593 16 3204327601872 1 0
-1.6922235 14.883247 -1.9066502 66 3204327604176 1 0
0 0 0 38 3204327606480 1 0
-2.3647945 14.475261 -1.5798956 13 3204327606480 1 0
-1.0370587 16.168339 -1.5123858 22 3204327608784 1 0
-3.2672503 20.017624 0.4719626 16 3204327608784 1 0
-4.3988123 20.541948 0.12209668 35 3204327604176 1 0
-3.2042553 50.070175 0.584103 25 3204327611088 1 0
-2.469924 15.146462 -1.0731336 67 3204327611088 1 0
-1.7107888 15.124918 -1.2425982 25 3204327613392 1 0
-4.415136 20.676922 0.61532295 19 3204327613392 1 0
0 0 0 6 3204327615696 1 0
-5.666137 26.55451 -1.7401568 8 3204327615696 1 0
-1.0886302 17.128359 -0.999526 54 3204327618000 1 0
-3.7047803 22.78162 1.3441741 20 3204327618000 1 0
0 0 0 100 3204327620304 1 0
-2.4599638 15.140831 -0.71453196 81 3204327620304 1 0
-1.8049139 16.04062 -0.8459584 54 3204327622608 1 0
-3.3263018 20.491882 2.549019 27 3204327622608 1 0
-4.4573665 20.949286 -0.8726013 16 3204327624912 1 0
-1.0795834 17.14357 -0.59985256 49 3204327627216 1 0
0 0 0 17 3204327624912 1 0
-1.7753857 10.957523 2.9743485 6 3204327627216 1 0
-2.2353463 19.944273 3.6591249 36 3204327629520 1 0
-2.4518707 15.146682 -0.35704267 80 3204327629520 1 0
-0.45055005 4.0680118 -1.9085441 4 3204327650256 1 0
-4.2731934 20.242733 -0.3611252 24 3204327650256 1 0
-1.1468261 7.1502185 -2.0272067 5 3204327652560 1 0
-1.2106887 10.958974 -2.2051427 2 3204327654864 1 0
-3.1810534 19.850737 0 22 3204327654864 1 0
-3.2155488 52.630287 -0.6138576 14 3204327657168 1 0
-1.7829754 16.118822 -0.47196484 60 3204327652560 1 0
-2.280103 14.241126 -2.243806 15 3204327657168 1 0
-1.6376518 14.861407 -1.9031147 74 3204327659472 1 0
-4.26835 20.275234 0.120422855 24 3204327659472 1 0
-2.248677 20.432285 -0.119469695 24 3204327661776 1 0
0 0 0 108 3204327661776 1 0
-0.9839735 16.215548 -1.5164754 27 3204327664080 1 0
-3.2398472 20.289394 0.47810405 24 3204327664080 1 0
-3.0346665 50.124817 0.5846152 25 3204327666384 1 0
-1.655387 15.098997 -1.2399945 25 3204327668688 1 0
-2.4108942 15.111524 -1.0700643 69 3204327666384 1 0
-4.3531733 20.734997 0.61660296 19 3204327668688 1 0
-2.2614586 20.653395 0.362661 18 3204327670992 1 0
-3.2695193 15.584054 -1.0205065 7 3204327670992 1 0
-1.0343943 17.20373 -1.003712 54 3204327673296 1 0
-3.6444626 22.904572 1.3506857 27 3204327673296 1 0
-2.3206146 21.24792 0.87081015 16 3204327675600 1 0
-2.403918 15.1215105 -0.71322906 81 3204327675600 1 0
-1.7585406 16.12212 -0.84993595 56 3204327677904 1 0
-3.2577865 20.510927 2.5499942 18 3204327677904 1 0
0 0 0 17 3204327680208 1 0
-4.358367 20.831295 -0.8670651 18 3204327680208 1 0
-1.0257593 17.21896 -0.6023653 52 3204327682512 1 0
-1.7557881 11.074142 3.0043714 6 3204327682512 1 0
-2.1402607 19.697432 3.612489 21 3204327684816 1 0
-0.4374447 4.073088 -1.9102346 3 3204327705552 1 0
-2.396883 15.131187 -0.35648435 88 3204327684816 1 0
-4.380854 21.098705 -0.37613428 17 3204327705552 1 0
-1.7367626 16.19223 -0.473943 60 3204327707856 1 0
-1.1237062 7.1577873 -2.028285 5 3204327707856 1 0
-1.1743407 10.962929 -2.2051427 2 3204327710160 1 0
-3.1350427 19.987629 0 21 3204327710160 1 0
-3.0433097 52.68059 -0.61432326 21 3204327712464 1 0
-2.2175672 14.15099 -2.2284331 18 3204327712464 1 0
-1.5849882 14.835193 -1.8990741 79 3204327714768 1 0
-4.201092 20.289276 0.120422855 21 3204327714768 1 0
-2.1830306 20.459517 -0.11958594 24 3204327717072 1 0
-2.3644629 15.1156845 -1.6480094 81 3204327717072 1 0
-0.9361246 16.3221 -1.5261416 56 3204327719376 1 0
-3.1540232 20.181498 0.47531247 17 3204327719376 1 0
-2.8631752 50.042763 0.5835442 25 3204327721680 1 0
-2.3632317 15.135205 -1.0711805 60 3204327721680 1 0
-1.6040438 15.09251 -1.2390182 25 3204327723984 1 0
-4.266602 20.663174 0.614043 27 3204327723984 1 0
-2.176072 20.501698 0.35986862 24 3204327726288 1 0
-5.47167 26.517824 -1.735296 17 3204327726288 1 0
-0.9825472 17.298761 -1.0090609 58 3204327728592 1 0
-3.5703313 22.928368 1.3513834 33 3204327728592 1 0
-2.2661295 21.406528 0.87699765 11 3204327730896 1 0
-1.7109476 16.183475 -0.85286677 58 3204327733200 1 0
-2.3580596 15.157036 -0.71453196 69 3204327730896 1 0
-2.5677028 24.319473 1.9963588 10 3204327735504 1 0
-3.184264 20.48631 2.5456069 24 3204327733200 1 0
-4.264293 20.724277 -0.8620174 32 3204327735504 1 0
-0.9738167 17.314066 -0.60557604 47 3204327737808 1 0
-1.776515 11.450252 3.1047933 4 3204327737808 1 0
-2.0790508 19.743555 3.6196637 19 3204327740112 1 0
-0.42213923 4.0710583 -1.9085441 3 3204327761296 1 0
0 0 0 82 3204327761296 1 0
-2.3528187 15.17857 -0.35741487 81 3204327740112 1 0
-1.0968807 7.1580505 -2.0272067 5 3204327763600 1 0
-1.1337483 10.963258 -2.2043583 2 3204327765904 1 0
-1.6848165 16.270073 -0.4760375 56 3204327763600 1 0
-3.0750806 20.085972 0 24 3204327765904 1 0
-2.8467486 52.62749 -0.6135782 29 3204327768208 1 0
-2.1555274 14.092603 -2.2179797 40 3204327768208 1 0
-4.0820866 20.08503 0.119120985 17 3204327770512 1 0
-2.0981927 20.371887 -0.119027995 35 3204327772816 1 0
-2.3036432 15.088866 -1.6441538 88 3204327772816 1 0
-0.8899569 16.579947 -1.5499353 22 3204327775120 1 0
-3.0758123 20.165249 0.4746611 39 3204327775120 1 0
-2.6739664 49.945084 0.58228695 25 3204327777424 1 0
-1.3995255 13.569952 -1.7364407 116 3204327770512 1 0
-2.3167596 15.202936 -1.0753658 59 3204327777424 1 0
-1.5503435 15.114152 -1.2403201 21 3204327779728 1 0
-4.136041 20.408285 0.606014 26 3204327779728 1 0
-2.0882807 20.3862 0.35770452 31 3204327782032 1 0
-3.1432118 15.520428 -1.0148783 4 3204327782032 1 0
-0.9233742 17.381998 -1.0137119 58 3204327784336 1 0
-3.4790714 22.893925 1.3485928 30 3204327784336 1 0
-2.1263232 20.814316 0.85241044 10 3204327786640 1 0
-2.3144858 15.244585 -0.71825445 71 3204327786640 1 0
-1.6597289 16.269115 -0.85705364 56 3204327788944 1 0
-3.1103473 20.505693 2.5465817 18 3204327788944 1 0
-2.4785502 24.32872 1.9963588 21 3204327791248 1 0
-4.213623 20.865131 -0.8672279 20 3204327791248 1 0
-0.9143382 17.393368 -0.60822845 47 3204327793552 1 0
-2.0058777 19.743214 3.6182287 23 3204327795856 1 0
-2.3055434 15.242447 -0.35871762 77 3204327795856 1 0
-1.5968834 10.547486 2.8583975 15 3204327793552 1 0
-0.40863678 4.0724354 -1.9085441 3 3204327816592 1 0
-4.1501656 20.7131 -0.36873445 27 3204327816592 1 0
-1.6381902 16.351183 -0.4782484 54 3204327818896 1 0
-1.0724627 7.1578546 -2.0261285 6 3204327818896 1 0
-1.0966772 10.963086 -2.203574 2 3204327821200 1 0
-3.0084636 20.100103 0 29 3204327821200 1 0
-2.665054 52.54089 -0.6124607 64 3204327823504 1 0
-2.0994005 14.04113 -2.208756 20 3204327823504 1 0
-1.3533348 13.570649 -1.7359356 202 3204327825808 1 0
-4.010373 20.079077 0.11900474 16 3204327825808 1 0
-2.0251803 20.339079 -0.118795514 33 3204327828112 1 0
-2.247801 15.065119 -1.6407268 88 3204327828112 1 0
-0.8297251 16.507305 -1.5428715 13 3204327830416 1 0
-3.0118806 20.207243 0.47540554 24 3204327830416 1 0
-2.509848 50.085754 0.5838236 17 3204327832720 1 0
-2.2759488 15.285754 -1.0806673 56 3204327832720 1 0
-1.501601 15.151122 -1.2429237 18 3204327835024 1 0
-4.065966 20.422363 0.606014 17 3204327835024 1 0
-2.019966 20.413177 0.35805357 28 3204327837328 1 0
-5.276702 26.524748 -1.7332493 8 3204327837328 1 0
-0.86696225 17.460869 -1.0181305 52 3204327839632 1 0
-3.38749 22.822882 1.3437091 30 3204327839632 1 0
-2.053565 20.817604 0.8522476 42 3204327841936 1 0
-2.2702703 15.311825 -0.72104627 65 3204327841936 1 0
-1.6107595 16.354317 -0.8612405 54 3204327844240 1 0
-3.0340965 20.485006 2.542682 22 3204327844240 1 0
-2.400281 24.408676 2.002217 18 3204327846544 1 0
-4.1630054 20.993464 -0.87195 16 3204327846544 1 0
-0.85742 17.484318 -0.6112996 49 3204327848848 1 0
-1.5908198 10.763262 2.9153378 56 3204327848848 1 0
-1.9756303 20.153564 3.6921287 15 3204327851152 1 0
-2.2610035 15.313797 -0.36020645 81 3204327851152 1 0
-0.3937078 4.073906 -1.9085441 3 3204327871888 1 0
-4.0695925 20.704626 -0.36831558 18 3204327871888 1 0
-1.5841285 16.416763 -0.47999382 58 3204327874192 1 0
-1.0468296 7.165541 -2.0272067 7 3204327874192 1 0
-1.0562714 10.963113 -2.2027893 2 3204327876496 1 0
-2.9454632 20.182198 0 35 3204327876496 1 0
-2.4926052 52.953773 -0.61716366 36 3204327878800 1 0
-2.052221 14.076064 -2.2130604 15 3204327878800 1 0
-1.3036023 13.57153 -1.7354305 108 3204327881104 1 0
-3.9334915 20.0739 0.118888505 14 3204327881104 1 0
-1.9494509 20.326385 -0.11867928 30 3204327883408 1 0
-2.1879642 15.037757 -1.6368713 88 3204327883408 1 0
-0.7678968 16.466438 -1.538782 30 3204327885712 1 0
-2.9685895 20.4238 0.48024428 28 3204327885712 1 0
-2.3852727 51.309105 0.5979792 26 3204327888016 1 0
-2.2292874 15.353113 -1.0848527 49 3204327888016 1 0
-1.4567919 15.259626 -1.2513856 20 3204327890320 1 0
-3.9930425 20.44082 0.60613036 16 3204327890320 1 0
-1.9460913 20.416334 0.35798377 22 3204327892624 1 0
0 0 0 49 3204327892624 1 0
-3.2946084 22.759815 1.3392905 33 3204327894928 1 0
-1.9804292 20.840748 0.85289896 13 3204327897232 1 0
-2.2245097 15.383139 -0.7240243 66 3204327897232 1 0
-1.5578945 16.419624 -0.86438066 49 3204327899536 1 0
-0.8082705 17.551628 -1.0232468 56 3204327894928 1 0
-2.9755418 20.597897 2.5553565 21 3204327899536 1 0
-4.043741 20.780655 -0.86250585 32 3204327901840 1 0
-2.530059 26.707186 2.1900063 8 3204327901840 1 0
-1.5965601 11.074795 2.99816 31 3204327904144 1 0
-0.7989245 17.571125 -0.61423117 47 3204327904144 1 0
-1.9061697 20.183968 3.6964335 15 3204327906448 1 0
-2.217932 15.400902 -0.36206752 72 3204327906448 1 0
-0.37982097 4.078865 -1.9102346 3 3204327927184 1 0
-3.9563825 20.506649 -0.36454585 18 3204327927184 1 0
-1.5338463 16.497835 -0.4822047 54 3204327929488 1 0
-1.0190932 7.150085 -2.0218153 6 3204327929488 1 0
-1.0147338 10.931582 -2.1957293 2 3204327931792 1 0
-2.8563898 20.061674 0 33 3204327931792 1 0
-2.3110552 53.038074 -0.61804837 73 3204327934096 1 0
-2.0014043 14.071403 -2.2112157 15 3204327934096 1 0
-1.3739458 14.848254 -1.8980639 55 3204327936400 1 0
-3.837711 19.953959 0.11809809 21 3204327936400 1 0
-1.8913655 20.472471 -0.11949295 28 3204327938704 1 0
-2.1315472 15.017739 -1.6338726 88 3204327938704 1 0
-2.8478777 20.085617 0.47205564 17 3204327941008 1 0
-0.7074956 16.401377 -1.5324618 16 3204327941008 1 0
0 0 0 8 3204327943312 1 0
-2.185754 15.431916 -1.0898751 57 3204327943312 1 0
-1.4126426 15.363868 -1.2595221 25 3204327945616 1 0
-1.9336752 21.064209 0.36922312 19 3204327947920 1 0
-3.9141378 20.415365 0.60496676 19 3204327945616 1 0
-4.1098557 21.453062 -1.3999026 10 3204327947920 1 0
-3.2101173 22.73559 1.3371975 13 3204327950224 1 0
-1.9338917 21.134098 0.86462265 33 3204327952528 1 0
-0.75022465 17.630146 -1.0276654 46 3204327950224 1 0
-1.5074748 16.500544 -0.8683582 54 3204327954832 1 0
-2.1802857 15.45807 -0.7271884 66 3204327952528 1 0
-2.8798053 20.43911 2.534395 22 3204327954832 1 0
-2.4462337 26.81908 2.198468 20 3204327957136 1 0
-0.74077 17.649694 -0.6168835 47 3204327959440 1 0
-1.6176041 11.504994 3.1130755 14 3204327959440 1 0
-1.9689623 21.65619 3.9647694 13 3204327961744 1 0
-2.1725023 15.467951 -0.3634633 73 3204327961744 1 0
-3.9644315 20.759312 -0.8610404 22 3204327957136 1 0
-0.3646102 4.0693336 -1.9051632 3 3204327982480 1 0
-3.863947 20.410307 -0.3625912 20 3204327982480 1 0
-1.4836146 16.582716 -0.48453194 54 3204327984784 1 0
-0.99370235 7.149769 -2.020737 6 3204327984784 1 0
-0.9796794 10.966284 -2.202005 2 3204327987088 1 0
-2.7863777 20.067478 0 33 3204327987088 1 0
-2.1277373 53.033737 -0.6179087 36 3204327989392 1 0
-1.3300123 14.93193 -1.9081655 52 3204327991696 1 0
-1.9539741 14.086047 -2.2124455 15 3204327989392 1 0
-3.723937 19.727251 0.11667998 26 3204327991696 1 0
-1.8288225 20.562485 -0.11998115 14 3204327994000 1 0
-2.077478 15.00524 -1.6317307 88 3204327994000 1 0
-0.6518294 16.40767 -1.5328336 20 3204327996304 1 0
-2.7981308 20.229874 0.47521943 16 3204327996304 1 0
-2.0991771 53.014862 0.6176759 27 3204327998608 1 0
-2.1427307 15.506431 -1.0946186 58 3204327998608 1 0
-1.365715 15.424144 -1.2640785 18 3204328000912 1 0
-3.811206 20.24771 0.5996141 15 3204328000912 1 0
-3.872467 20.587994 -1.3425967 34 3204328003216 1 0
-0.69484174 17.72433 -1.0330142 48 3204328005520 1 0
-1.8734604 21.190102 0.3713174 46 3204328003216 1 0
-3.2370586 23.493858 1.3811506 10 3204328005520 1 0
-19.75027 143.48203 -6.7466407 153 3204328007824 1 0
-1.4597533 16.585035 -0.87254506 51 3204328010128 1 0
-2.7957847 20.330551 2.5197706 22 3204328010128 1 0
-1.8571734 21.06876 0.8616917 22 3204328007824 1 0
-2.3576753 26.827011 2.198468 12 3204328012432 1 0
-3.7794669 20.151632 -0.8353134 18 3204328012432 1 0
-0.68630445 17.743908 -0.62009424 47 3204328014736 1 0
-1.6134015 11.75523 3.1793332 39 3204328014736 1 0
-1.8101507 20.65897 3.7810955 16 3204328017040 1 0
-2.1321933 15.550253 -0.3652313 76 3204328017040 1 0
-0.35276076 4.0812945 -1.9102346 3 3204328037776 1 0
-3.8137069 20.497051 -0.3639176 22 3204328037776 1 0
-1.4366485 16.651062 -0.48639372 52 3204328040080 1 0
-0.9715979 7.1566935 -2.0218153 7 3204328040080 1 0
-0.9444078 10.965441 -2.2012205 2 3204328042384 1 0
-1.9522048 14.396238 0 8 3204328042384 1 0
-1.9567599 53.016308 -0.6176293 36 3204328044688 1 0
-1.9066676 14.076574 -2.2099857 15 3204328044688 1 0
-1.2868816 14.995448 -1.9157414 55 3204328046992 1 0
-3.6587627 19.731306 0.11663348 29 3204328046992 1 0
-1.8435658 21.520815 -0.12553734 21 3204328049296 1 0
-2.0254943 14.988267 -1.6291603 88 3204328049296 1 0
-0.6026293 16.533096 -1.5443586 17 3204328051600 1 0
-1.946094 14.41731 0.3385252 4 3204328051600 1 0
-1.9266951 53.081444 0.61837435 100 3204328053904 1 0
-2.0985672 15.564813 -1.098246 20 3204328053904 1 0
-1.3385895 15.710625 -1.2871859 20 3204328056208 1 0
-3.7469475 20.275963 0.60007954 19 3204328056208 1 0
-1.775944 20.881422 0.36580244 26 3204328058512 1 0
-0.6385779 17.81835 -1.0383629 46 3204328060816 1 0
-3.7928522 20.541924 -1.3387592 13 3204328058512 1 0
-1.9366603 14.413835 0.84696925 10 3204328060816 1 0
-1.7930043 21.15855 0.8651111 13 3204328063120 1 0
-19.273998 143.61531 -6.749805 131 3204328063120 1 0
-1.4090232 16.657572 -0.8761039 49 3204328065424 1 0
-1.9353466 14.437468 1.7885544 6 3204328065424 1 0
-2.2630901 26.803148 2.1958644 8 3204328067728 1 0
-3.7162075 20.195906 -0.83661604 26 3204328067728 1 0
-0.6278107 17.822075 -0.62274665 45 3204328070032 1 0
-1.6199911 12.113046 3.2745786 21 3204328070032 1 0
-1.7361681 20.637676 3.7760732 21 3204328072336 1 0
-2.0708265 15.502064 -0.36392856 22 3204328072336 1 0
-0.3372018 4.075334 -1.9068536 4 3204328093072 1 0
-3.6661227 20.1135 -0.3568668 33 3204328093072 1 0
-1.3819841 16.731916 -0.4886046 51 3204328095376 1 0
-0.90469295 10.972725 -2.202005 2 3204328097680 1 0
-0.9449087 7.1563807 -2.020737 5 3204328095376 1 0
-1.7634561 53.019085 -0.61758274 29 3204328099984 1 0
-1.8543364 14.075591 -2.208756 15 3204328099984 1 0
-1.8959751 14.375509 0 30 3204328097680 1 0
-1.2381964 15.071212 -1.9248328 56 3204328102288 1 0
-3.5877085 19.748415 0.11665673 24 3204328102288 1 0
-1.7661123 21.535337 -0.12558383 12 3204328104592 1 0
-1.8809072 14.309423 -1.5546207 18 3204328104592 1 0
-0.5454937 16.618761 -1.552166 16 3204328106896 1 0
-1.8876213 14.376684 0.33740857 23 3204328106896 1 0
-1.7373134 53.164017 0.61925906 18 3204328109200 1 0
0 0 0 234 3204328109200 1 0
-1.2773747 15.659721 -1.2826296 22 3204328111504 1 0
-3.6623895 20.226397 0.5982177 22 3204328111504 1 0
-1.705309 20.943487 0.36677977 22 3204328113808 1 0
-2.7559383 15.232946 -0.99210936 47 3204328113808 1 0
-0.57687825 17.89237 -1.0425489 33 3204328116112 1 0
-1.8802087 14.385062 0.8448762 61 3204328116112 1 0
-1.7203673 21.204678 0.8667394 30 3204328118416 1 0
-18.720709 143.39029 -6.7360315 255 3204328118416 1 0
-1.3565085 16.7501 -0.88070947 49 3204328120720 1 0
-1.8811111 14.424616 1.7861171 22 3204328120720 1 0
-4.299728 53.188972 4.356254 42 3204328123024 1 0
-3.6852071 20.437174 -0.8460601 37 3204328123024 1 0
-0.5672095 17.916098 -0.62595737 42 3204328125328 1 0
-1.630159 12.528702 3.385353 20 3204328125328 1 0
-1.6558169 20.557426 3.7602887 31 3204328127632 1 0
-1.8631313 14.335522 -0.336385 22 3204328127632 1 0
-0.32268786 4.0728726 -1.9051632 3 3204328148368 1 0
-3.5916708 20.102552 -0.35644794 28 3204328148368 1 0
-1.3293664 16.808374 -0.49069914 55 3204328150672 1 0
-0.9194836 7.1558084 -2.0196586 6 3204328150672 1 0
-0.8643842 10.948432 -2.1965137 2 3204328152976 1 0
-1.8424282 14.354241 0 32 3204328152976 1 0
-1.5786974 52.9969 -0.6172568 21 3204328155280 1 0
-1.804494 14.074098 -2.2075262 16 3204328155280 1 0
-1.1913096 15.142655 -1.933419 53 3204328157584 1 0
-3.5270414 19.804033 0.116912454 21 3204328157584 1 0
-1.6857624 21.465544 -0.12514213 19 3204328159888 1 0
-1.8274297 14.284277 -1.5511936 28 3204328159888 1 0
-0.49112868 16.720066 -1.5614604 17 3204328162192 1 0
-1.5520948 53.089718 0.6183278 100 3204328164496 1 0
-1.8229945 14.28096 -1.0067254 234 3204328164496 1 0
-1.8350118 14.359305 0.33685026 27 3204328162192 1 0
-1.2254785 15.687861 -1.2845823 21 3204328166800 1 0
-3.6278853 20.435686 0.60403585 15 3204328166800 1 0
-3.925651 50.343483 0.8814163 19 3204328169104 1 0
-2.6974714 15.206923 -0.9898069 61 3204328169104 1 0
-0.5161802 17.910204 -1.0434792 24 3204328171408 1 0
-1.8325427 14.403289 0.8455739 63 3204328171408 1 0
-1.6663022 21.445518 0.87634635 8 3204328173712 1 0
-18.237589 143.50087 -6.738265 255 3204328173712 1 0
-1.3041269 16.814358 -0.8838496 56 3204328176016 1 0
-1.8275077 14.395487 1.7817298 24 3204328176016 1 0
-4.1270685 53.306618 4.3647156 42 3204328178320 1 0
-3.5399284 20.020588 -0.82831174 21 3204328178320 1 0
-0.50908935 18.009825 -0.62916815 47 3204328180624 1 0
-1.6411005 12.955792 3.4992335 21 3204328180624 1 0
-1.5760003 20.42951 3.7358947 24 3204328182928 1 0
-1.8146441 14.341741 -0.336385 40 3204328182928 1 0
-0.3094543 4.077535 -1.9068536 3 3204328203664 1 0
-3.526369 20.12223 -0.35658756 37 3204328203664 1 0
-1.2789341 16.884462 -0.49279365 57 3204328205968 1 0
-0.8952188 7.1550026 -2.0185802 5 3204328205968 1 0
-0.8276181 10.947339 -2.1957293 2 3204328208272 1 0
0 0 0 191 3204328208272 1 0
-1.4014711 52.98988 -0.6171171 21 3204328210576 1 0
-1.7555473 14.064355 -2.2050664 19 3204328210576 1 0
-1.1454152 15.209865 -1.9415002 42 3204328212880 1 0
-4.001348 53.23694 -0.31028646 29 3204328215184 1 0
-3.4662783 19.847244 0.117098436 26 3204328212880 1 0
-1.7775658 14.274536 -1.5494801 32 3204328215184 1 0
-0.435572 16.74551 -1.563691 25 3204328217488 1 0
-1.7872514 14.369358 0.33694333 21 3204328217488 1 0
-1.3709528 53.002678 0.6172568 45 3204328219792 1 0
-1.7753917 14.290977 -1.0070045 221 3204328219792 1 0
-1.1844189 15.850933 -1.2976006 16 3204328222096 1 0
-3.5472534 20.380848 0.6020577 17 3204328222096 1 0
-3.7726398 50.587795 0.88546526 19 3204328224400 1 0
-2.6412454 15.188428 -0.98801607 60 3204328224400 1 0
-0.45944133 18.067537 -1.0525489 33 3204328226704 1 0
-1.7685139 14.286564 0.83836466 111 3204328226704 1 0
-3.9487164 53.15732 2.171652 50 3204328229008 1 0
-1.7709445 14.323285 -0.6722817 229 3204328229008 1 0
-1.252505 16.894386 -0.88782716 51 3204328231312 1 0
-1.7809367 14.421325 1.7841672 19 3204328231312 1 0
-3.9511173 53.3999 4.371225 42 3204328233616 1 0
-2.6322105 15.188819 -0.6280319 59 3204328233616 1 0
-0.4498139 18.103374 -0.6323789 45 3204328235920 1 0
-1.6539729 13.425326 3.624502 15 3204328235920 1 0
-1.5057266 20.430864 3.7351773 22 3204328238224 1 0
-1.7655101 14.347872 -0.336385 22 3204328238224 1 0
-0.29548088 4.0822062 -1.9085441 3 3204328258960 1 0
-3.4919682 20.34333 -0.3602875 18 3204328258960 1 0
-1.2262027 16.976566 -0.4953536 53 3204328261264 1 0
-0.8701857 7.15809 -2.0185802 6 3204328261264 1 0
-0.7892405 10.950173 -2.1957293 2 3204328263568 1 0
-1.7423338 14.350617 0 178 3204328263568 1 0
-1.2151538 52.986477 -0.61702394 21 3204328265872 1 0
-1.7056601 14.06651 -2.2044516 16 3204328265872 1 0
-1.0972703 15.2890005 -1.9510967 53 3204328268176 1 0
-3.3835883 19.78441 0.11665673 27 3204328268176 1 0
-3.8178418 53.310566 -0.31063515 29 3204328270480 1 0
-1.7315061 14.316252 -1.5533355 23 3204328270480 1 0
-0.3762069 16.738981 -1.5629475 23 3204328272784 1 0
0 0 0 149 3204328272784 1 0
-0.5757278 25.791826 0.30033994 8 3204328275088 1 0
-1.1307058 15.890827 -1.3005297 28 3204328277392 1 0
-1.7305032 14.344713 -1.0103527 146 3204328275088 1 0
-3.450725 20.251413 0.5978687 24 3204328277392 1 0
-2.5818577 15.166244 -0.9859694 62 3204328279696 1 0
-0.3890343 17.793592 -1.0365025 24 3204328282000 1 0
-1.729982 14.395857 0.84441113 124 3204328282000 1 0
-3.5658119 50.2219 0.87883335 29 3204328279696 1 0
-3.7569125 53.143173 2.1705122 50 3204328284304 1 0
-1.7226466 14.35332 -0.67339844 216 3204328284304 1 0
-2.4909868 20.782059 2.5699806 9 3204328286608 1 0
-1.1976718 16.978453 -0.892014 52 3204328286608 1 0
-3.7585235 53.397816 4.369923 42 3204328288912 1 0
-2.5730605 15.170576 -0.62689215 71 3204328288912 1 0
-0.38664398 18.1928 -0.63545007 47 3204328291216 1 0
-2.624393 21.95179 5.9238505 10 3204328291216 1 0
-1.42887 20.389046 3.7265675 29 3204328293520 1 0
-1.904436 15.950361 -0.37379214 16 3204328293520 1 0
-0.2802684 4.079645 -1.9068536 3 3204328314256 1 0
-2.573797 15.331087 -0.27135003 11 3204328314256 1 0
-1.1690179 17.05274 -0.49744815 57 3204328316560 1 0
-0.84399617 7.1612253 -2.0185802 6 3204328316560 1 0
-0.7492601 10.952981 -2.1957293 2 3204328318864 1 0
-1.7030262 14.468114 0 117 3204328318864 1 0
-0.35466003 18.387333 -0.2141028 12 3204328321168 1 0
-1.6543993 14.072632 -2.2044516 14 3204328321168 1 0
-1.0462549 15.3601885 -1.9596828 49 3204328323472 1 0
-3.3083282 19.776857 0.11654049 21 3204328323472 1 0
-1.4636325 21.533953 -0.12544434 17 3204328325776 1 0
-1.7457803 14.88728 -1.614595 52 3204328325776 1 0
-0.31866112 16.903496 -1.5781903 20 3204328328080 1 0
-1.6927546 14.453272 0.33861828 156 3204328328080 1 0
-0.48220602 25.777742 0.3001537 11 3204328330384 1 0
-1.0757977 15.930601 -1.3034588 23 3204328332688 1 0
0 0 0 38 3204328330384 1 0
-3.383572 20.299223 0.59891593 28 3204328332688 1 0
-3.3801634 50.162586 0.8775768 19 3204328334992 1 0
-2.5206892 15.136063 -0.98341113 61 3204328334992 1 0
-0.33240336 18.194132 -1.0597581 41 3204328337296 1 0
-1.693507 14.53287 0.8520855 117 3204328337296 1 0
-3.5650222 53.136364 2.169698 50 3204328339600 1 0
0 0 0 54 3204328339600 1 0
-1.1414524 17.050383 -0.8955729 54 3204328341904 1 0
-2.3987374 20.637035 2.5509691 31 3204328341904 1 0
-3.555346 53.223934 4.3546267 42 3204328344208 1 0
-2.5142956 15.152067 -0.62575233 74 3204328344208 1 0
-0.32329842 18.277998 -0.6383816 47 3204328346512 1 0
-2.542149 21.92646 5.9145327 17 3204328346512 1 0
-1.3545275 20.366512 3.7215452 24 3204328348816 1 0
-1.8486228 15.964977 -0.37397823 82 3204328348816 1 0
-0.2655544 4.0733633 -1.9034727 3 3204328369552 1 0
-2.513782 15.300513 -0.2706519 13 3204328369552 1 0
-1.1144166 17.132524 -0.499659 55 3204328371856 1 0
-0.71076846 10.951616 -2.1949446 2 3204328374160 1 0
-0.8185562 7.1603007 -2.017502 6 3204328371856 1 0
-1.6679398 14.609093 0 105 3204328374160 1 0
-1.6034755 14.062613 -2.201992 14 3204328376464 1 0
-0.2909795 18.420454 -0.21447532 17 3204328376464 1 0
-0.9967247 15.427103 -1.967764 50 3204328378768 1 0
-3.2418585 19.804075 0.11663348 30 3204328378768 1 0
-3.4227655 53.096897 -0.3092403 39 3204328381072 1 0
-1.6938034 14.893283 -1.614595 78 3204328381072 1 0
-1.6594425 14.610081 0.34215426 112 3204328383376 1 0
-0.26308036 17.12751 -1.5990098 17 3204328383376 1 0
-0.39325637 25.847258 0.30094528 28 3204328385680 1 0
-1.7189416 15.153577 -1.066437 20 3204328385680 1 0
-1.0283341 16.061575 -1.3138735 22 3204328387984 1 0
-3.3229918 20.37405 0.6007777 15 3204328387984 1 0
-2.462703 15.113251 -0.9813645 59 3204328390288 1 0
-0.25956896 17.564318 -1.0230142 35 3204328392592 1 0
-1.6539762 14.637893 0.85789937 104 3204328392592 1 0
-3.3779984 53.12455 2.168721 50 3204328394896 1 0
-1.8101192 16.040688 -0.75194293 59 3204328394896 1 0
-1.0877454 17.145954 -0.90038776 52 3204328397200 1 0
-2.3195722 20.582159 2.5431695 13 3204328397200 1 0
-3.306515 51.7626 0.90536106 31 3204328390288 1 0
-3.368279 53.216125 4.352999 63 3204328399504 1 0
-2.454985 15.121301 -0.62412405 75 3204328399504 1 0
-0.26102647 18.386938 -0.64215076 45 3204328401808 1 0
-2.4703434 21.977436 5.925921 20 3204328401808 1 0
-1.2868909 20.4261 3.7315898 22 3204328404112 1 0
-1.8022515 16.054787 -0.37593234 71 3204328404112 1 0
-0.2515573 4.0778837 -1.9051632 3 3204328424296 1 0
-2.4533772 15.265759 -0.26988402 16 3204328424296 1 0
-0.7927088 7.1554575 -2.0153453 6 3204328426600 1 0
-0.6722955 10.950115 -2.1941602 2 3204328428904 1 0
-1.0597638 17.220116 -0.5021026 57 3204328426600 1 0
0 0 0 69 3204328428904 1 0
-0.22731812 18.473349 -0.21508065 20 3204328431208 1 0
-1.554378 14.068124 -2.201992 16 3204328431208 1 0
-0.9477082 15.5097 -1.9778655 53 3204328433512 1 0
-3.2270954 20.154938 0.11863278 24 3204328433512 1 0
-3.2364283 53.09255 -0.3091473 79 3204328435816 1 0
-1.6374497 14.859574 -1.6103113 58 3204328435816 1 0
-0.20428517 17.211954 -1.606817 18 3204328438120 1 0
0 0 0 19 3204328438120 1 0
-0.28465053 24.280685 0.28269207 17 3204328440424 1 0
-1.6669071 15.167418 -1.066995 19 3204328440424 1 0
-0.9888804 16.33965 -1.33633 17 3204328442728 1 0
-3.208394 20.113087 0.5927487 21 3204328442728 1 0
-3.0812206 51.035282 0.8924463 30 3204328445032 1 0
-2.4093049 15.117813 -0.98110867 53 3204328445032 1 0
-0.20010427 17.72883 -1.032549 60 3204328447336 1 0
0 0 0 6 3204328447336 1 0
-3.1915796 53.12006 2.1680698 49 3204328449640 1 0
-1.032429 17.225407 -0.9043653 49 3204328451944 1 0
-1.7619311 16.118404 -0.7552932 66 3204328449640 1 0
-1.5613785 14.302978 1.766618 40 3204328451944 1 0
-3.1817856 53.215622 4.352023 63 3204328454248 1 0
-2.4021866 15.129778 -0.62412405 68 3204328454248 1 0
-0.1977411 18.471682 -0.6450823 45 3204328456552 1 0
-2.4325025 22.343138 6.0222015 18 3204328456552 1 0
-1.2207245 20.516888 3.7473743 27 3204328458856 1 0
-1.7522501 16.116636 -0.37723508 75 3204328458856 1 0
-0.23753187 4.082356 -1.9068536 3 3204328479592 1 0
-2.399454 15.270279 -0.2698142 27 3204328479592 1 0
-1.0047647 17.30752 -0.5045462 48 3204328481896 1 0
-0.7682417 7.1619997 -2.0164237 5 3204328481896 1 0
-0.6346138 10.956292 -2.1949446 2 3204328484200 1 0
-0.16438277 18.558014 -0.21605851 27 3204328486504 1 0
-2.179915 20.34756 0 31 3204328484200 1 0
-1.4520494 13.570356 -2.1232836 11 3204328486504 1 0
-0.860204 14.918651 -1.9021045 28 3204328488808 1 0
-3.1597517 20.177752 0.11870252 22 3204328488808 1 0
-3.054713 53.099308 -0.30912405 59 3204328491112 1 0
-1.5828524 14.8294935 -1.6064557 78 3204328491112 1 0
-0.14621076 17.272287 -1.6123937 17 3204328493416 1 0
-2.1877491 20.522131 0.48024428 19 3204328493416 1 0
-0.21406545 25.685368 0.29903615 20 3204328495720 1 0
-1.6129627 15.149173 -1.0653208 19 3204328495720 1 0
-0.9544341 16.705095 -1.3659468 20 3204328498024 1 0
-3.1454403 20.155401 0.5936796 23 3204328498024 1 0
-2.875596 50.44641 0.8819748 29 3204328500328 1 0
-2.3683388 15.188929 -0.98520195 49 3204328500328 1 0
0 0 0 90 3204328502632 1 0
-2.2985902 21.669508 1.2690586 18 3204328502632 1 0
-1.7153925 16.191732 -0.7584573 64 3204328504936 1 0
-3.0132785 53.106457 2.1670928 49 3204328504936 1 0
-0.9793656 17.300522 -0.9081335 49 3204328507240 1 0
-3.015065 53.38505 4.3650413 42 3204328509544 1 0
-2.360813 15.192917 -0.6264036 63 3204328509544 1 0
-1.5511196 14.659462 1.8100035 27 3204328507240 1 0
-0.13776436 18.572168 -0.64857227 45 3204328511848 1 0
-2.374052 22.493181 6.060507 21 3204328511848 1 0
-1.1560062 20.563992 3.7552664 13 3204328514152 1 0
-0.22510403 4.0903215 -1.9102346 3 3204328534888 1 0
-1.7074643 16.197845 -0.37900308 78 3204328514152 1 0
-0.95461005 17.39445 -0.50698984 51 3204328537192 1 0
-2.350861 15.273788 -0.2697444 26 3204328534888 1 0
-0.7451829 7.160563 -2.0153453 5 3204328537192 1 0
-0.59949803 10.954342 -2.1941602 3 3204328539496 1 0
-2.1150925 20.354403 0 28 3204328539496 1 0
-0.105295084 18.63444 -0.21694322 27 3204328541800 1 0
-1.4052579 13.543492 -2.1183643 17 3204328541800 1 0
-0.85170364 15.650381 -1.9950379 31 3204328544104 1 0
-3.0812507 20.100866 0.11819108 29 3204328544104 1 0
-2.8907585 53.26872 -0.31005397 29 3204328546408 1 0
-1.532592 14.814781 -1.6043137 84 3204328546408 1 0
-0.090410426 17.412066 -1.6254059 18 3204328548712 1 0
-0.12894498 25.585941 0.29787204 8 3204328551016 1 0
-2.1214008 20.537136 0.48043036 28 3204328548712 1 0
-1.5683701 15.206003 -1.0689481 16 3204328551016 1 0
-0.93459135 17.36901 -1.4199728 63 3204328553320 1 0
-3.1497874 20.632118 0.6074104 13 3204328553320 1 0
-2.7335494 50.946945 0.8905614 20 3204328555624 1 0
-2.3260517 15.251996 -0.98878354 51 3204328555624 1 0
-0.08002187 17.466223 -1.0172004 22 3204328557928 1 0
-2.2212863 21.633411 1.2665005 9 3204328557928 1 0
-2.8326135 53.096386 2.1662786 49 3204328560232 1 0
-1.6671495 16.261038 -0.76143533 64 3204328560232 1 0
-0.9249356 17.387522 -0.9125297 49 3204328562536 1 0
-2.055938 20.08343 2.4788225 21 3204328562536 1 0
-2.832193 53.395065 4.3650413 42 3204328564840 1 0
-2.3189628 15.268087 -0.6291717 64 3204328564840 1 0
-0.07409413 18.660479 -0.6516434 45 3204328567144 1 0
-2.2690427 22.23217 5.9880376 25 3204328567144 1 0
-1.1860039 22.489485 4.106112 22 3204328569448 1 0
-1.6585639 16.27528 -0.38067803 74 3204328569448 1 0
-0.20936698 4.0766373 -1.9034727 4 3204328590184 1 0
-2.3019907 15.329763 -0.2705821 46 3204328590184 1 0
-0.8949887 17.473686 -0.5092007 53 3204328592488 1 0
-0.71865255 7.159403 -2.0142672 6 3204328592488 1 0
-0.5590628 10.944697 -2.1918068 3 3204328594792 1 0
-2.042265 20.373898 0 24 3204328594792 1 0
-0.038036063 18.74669 -0.21824703 28 3204328597096 1 0
-1.354232 13.528829 -2.1152897 43 3204328597096 1 0
-0.79524714 15.653351 -1.9950379 28 3204328599400 1 0
-3.004584 20.084158 0.11802834 29 3204328599400 1 0
-2.698767 53.266777 -0.30998424 29 3204328601704 1 0
-1.4762005 14.788532 -1.6008867 81 3204328601704 1 0
-0.028297383 17.527775 -1.6361874 21 3204328604008 1 0
-2.0609965 20.675909 0.4835011 22 3204328604008 1 0
-0.03765972 25.510244 0.29698732 35 3204328606312 1 0
-1.5058753 15.128112 -1.0630887 18 3204328606312 1 0
-0.825327 16.42457 -1.3425138 17 3204328608616 1 0
-3.0641708 20.56012 0.60496676 20 3204328608616 1 0
0 0 0 35 3204328610920 1 0
-2.282126 15.327243 -0.99313265 50 3204328610920 1 0
-0.01918502 18.069374 -1.0523163 26 3204328613224 1 0
-2.6454883 53.08603 2.1654644 49 3204328615528 1 0
-1.6176192 16.342329 -0.7649717 61 3204328615528 1 0
-2.392492 24.136618 1.4125457 32 3204328613224 1 0
-0.8683997 17.474424 -0.91692597 47 3204328617832 1 0
-1.2364599 24.95028 2.039319 11 3204328620136 1 0
-2.0002706 20.23667 2.496859 24 3204328617832 1 0
-2.2752578 15.339311 -0.631777 60 3204328620136 1 0
-0.009554217 18.768557 -0.65541255 45 3204328622440 1 0
-2.2007878 22.328327 6.011849 15 3204328622440 1 0
-1.1084752 22.493439 4.106112 16 3204328624744 1 0
-1.6091118 16.348555 -0.3822599 72 3204328624744 1 0
-0.19584721 4.0773096 -1.9034727 3 3204328645480 1 0
-2.262178 15.412496 -0.2719085 26 3204328645480 1 0
-0.69405913 7.154089 -2.0121105 5 3204328647784 1 0
-0.8406092 17.556446 -0.51152796 46 3204328647784 1 0
-0.5226343 10.950424 -2.1925914 2 3204328650088 1 0
-1.9733272 20.372654 0 26 3204328650088 1 0
0.025070822 18.838707 -0.219318 31 3204328652392 1 0
-1.3080099 13.525434 -2.11406 43 3204328652392 1 0
-2.948366 20.17334 0.118493296 24 3204328654696 1 0
-0.7042686 14.851349 -1.8925081 15 3204328654696 1 0
-2.5078516 53.055866 -0.3087056 88 3204328657000 1 0
-1.4234047 14.765739 -1.597888 75 3204328657000 1 0
0.03137793 17.539719 -1.6373028 23 3204328659304 1 0
0.04929197 25.386232 0.29554382 24 3204328661608 1 0
-1.999811 20.778336 0.48573437 19 3204328659304 1 0
-1.4633198 15.2284975 -1.0697852 16 3204328661608 1 0
-0.7734191 16.522882 -1.3503247 20 3204328663912 1 0
-2.9423347 20.218376 0.5946105 11 3204328663912 1 0
-2.4760377 53.07018 0.92735106 66 3204328666216 1 0
-2.2401903 15.410073 -0.99799347 50 3204328666216 1 0
-2.3093073 24.14873 1.4127783 18 3204328668520 1 0
0.043133374 17.973494 -1.0467349 20 3204328668520 1 0
-1.1273061 24.32169 0.991955 13 3204328670824 1 0
-1.5676373 16.41945 -0.76832193 57 3204328670824 1 0
-0.81163704 17.569126 -0.9217409 49 3204328673128 1 0
-1.9273589 20.219814 2.4939342 27 3204328673128 1 0
-1.1433122 24.831001 2.0292299 10 3204328675432 1 0
-2.2306373 15.41048 -0.63438225 60 3204328675432 1 0
0.05675903 18.852423 -0.6583441 42 3204328677736 1 0
-2.1192605 22.305164 6.0035667 15 3204328677736 1 0
-0.96694064 21.141014 3.858583 19 3204328680040 1 0
-1.557741 16.421818 -0.3838418 68 3204328680040 1 0
-0.18106247 4.0816216 -1.9051632 3 3204328700776 1 0
-2.2169988 15.499866 -0.27330467 24 3204328700776 1 0
-0.78062236 17.655268 -0.5143207 49 3204328703080 1 0
-0.66824335 7.160415 -2.0131888 6 3204328703080 1 0
-0.4824821 10.948341 -2.1918068 2 3204328705384 1 0
-1.8974564 20.36379 0 31 3204328705384 1 0
0.094244145 18.946482 -0.22057524 33 3204328707688 1 0
-1.2620182 13.565529 -2.119594 15 3204328707688 1 0
-0.6488747 14.822098 -1.8884676 13 3204328709992 1 0
-2.8733022 20.172047 0.11842355 29 3204328709992 1 0
-2.3144329 53.044636 -0.30858937 49 3204328712296 1 0
-1.3676096 14.747047 -1.5953176 73 3204328712296 1 0
0.09420915 17.412045 -1.6254059 10 3204328714600 1 0
-1.9308159 20.853134 0.48731625 22 3204328714600 1 0
0.140689 25.321894 0.2947988 22 3204328716904 1 0
-1.4156164 15.313153 -1.0753658 21 3204328716904 1 0
-0.71295565 16.50565 -1.3486975 19 3204328719208 1 0
-2.8823028 20.319906 0.5972868 9 3204328719208 1 0
-2.2839513 53.05477 0.9269322 66 3204328721512 1 0
-2.1947842 15.48918 -1.0025984 51 3204328721512 1 0
0.107534684 17.94527 -1.045107 26 3204328723816 1 0
-2.2327828 24.268211 1.4192898 21 3204328723816 1 0
-1.0401009 24.325575 0.991955 43 3204328726120 1 0
-1.5146084 16.488626 -0.7712999 57 3204328726120 1 0
-0.7520021 17.647745 -0.92571837 47 3204328728424 1 0
-1.8618909 20.301699 2.5031962 18 3204328728424 1 0
-1.0456773 24.62382 2.0119808 14 3204328730728 1 0
0.124699004 18.968027 -0.66239244 44 3204328733032 1 0
-1.9831347 21.693102 5.836887 14 3204328733032 1 0
-0.8950712 21.222952 3.8729324 30 3204328735336 1 0
-1.5066031 16.5069 -0.38570288 71 3204328735336 1 0
-2.1867661 15.497496 -0.63763887 64 3204328730728 1 0
-2.1689577 15.551081 -0.2740726 37 3204328756072 1 0
-0.7223715 17.73778 -0.5166479 51 3204328758376 1 0
-0.64260775 7.1550264 -2.011032 5 3204328758376 1 0
-0.16696186 4.0858507 -1.9068536 3 3204328756072 1 0
-0.44489878 10.961709 -2.1941602 2 3204328760680 1 0
-1.8252292 20.354326 0 14 3204328760680 1 0
0.16074249 19.03803 -0.22164622 34 3204328762984 1 0
-1.2160114 13.581635 -2.1214387 4 3204328762984 1 0
-0.59484625 14.756854 -1.8798813 4 3204328765288 1 0
-2.8337271 20.399776 0.119702175 17 3204328765288 1 0
-2.1305454 53.036327 -0.3084964 69 3204328767592 1 0
-1.3159537 14.743762 -1.5944608 56 3204328767592 1 0
0.1541224 17.39967 -1.6242906 5 3204328769896 1 0
-1.8571485 20.83975 0.486851 17 3204328769896 1 0
0.22714141 25.249268 0.29396063 24 3204328772200 1 0
-1.3816777 15.528584 -1.0901542 21 3204328772200 1 0
-0.66564023 16.743032 -1.3678995 23 3204328774504 1 0
-2.8125381 20.32968 0.5972868 8 3204328774504 1 0
-2.1017394 53.050297 0.92672276 66 3204328776808 1 0
0 0 0 156 3204328776808 1 0
0.16883215 17.940805 -1.0448744 20 3204328779112 1 0
-2.155811 24.34332 1.4232433 7 3204328779112 1 0
-0.9409461 23.91764 0.9751836 27 3204328781416 1 0
-1.4657528 16.57728 -0.77520853 64 3204328781416 1 0
-0.6953781 17.738014 -0.93032396 49 3204328783720 1 0
-1.8095438 20.49775 2.526595 22 3204328783720 1 0
-0.9594005 24.559505 2.0064478 32 3204328786024 1 0
-1.9815292 14.396214 -0.5920467 77 3204328786024 1 0
0.18993376 19.063433 -0.6657428 47 3204328788328 1 0
-1.9157056 21.768976 5.855522 7 3204328788328 1 0
-0.8205539 21.155079 3.860018 37 3204328790632 1 0
-1.4567254 16.579622 -0.38728476 72 3204328790632 1 0
-0.15313977 4.079137 -1.9034727 3 3204328811368 1 0
-2.120073 15.578002 -0.27442163 16 3204328811368 1 0
-0.6664261 17.823994 -0.5190915 47 3204328813672 1 0
-0.6187732 7.1571274 -2.011032 5 3204328813672 1 0
-0.40808114 10.959217 -2.1933758 2 3204328815976 1 0
-1.8692502 21.65949 0 21 3204328815976 1 0
0.22593203 19.141369 -0.2228569 33 3204328818280 1 0
-1.2310973 14.290523 -2.2315078 4 3204328818280 1 0
-0.554421 15.012555 -1.9122059 2 3204328820584 1 0
-1.9459916 14.364541 0.084249504 13 3204328820584 1 0
-1.9524184 53.08721 -0.3087521 19 3204328822888 1 0
-1.2707438 14.803611 -1.6004583 63 3204328822888 1 0
0.21314397 17.383114 -1.6228034 6 3204328825192 1 0
-1.7916745 20.909698 0.48833984 14 3204328825192 1 0
0.3148305 25.360327 0.29526442 24 3204328827496 1 0
-1.3258736 15.50141 -1.087922 20 3204328827496 1 0
-0.6075875 16.729282 -1.3665977 23 3204328829800 1 0
-1.937498 14.367814 0.4219291 17 3204328829800 1 0
-1.9223307 53.15315 0.9283982 44 3204328832104 1 0
-1.9337578 14.356632 -0.92840767 114 3204328832104 1 0
0.23329872 18.123787 -1.055572 28 3204328834408 1 0
-4.525892 53.201366 3.1095073 41 3204328834408 1 0
-0.8600918 23.984674 0.97778887 27 3204328836712 1 0
-1.4142051 16.65394 -0.7785588 57 3204328836712 1 0
-0.63673514 17.832148 -0.9351389 47 3204328839016 1 0
-1.737647 20.499985 2.5261078 29 3204328839016 1 0
-1.9273379 14.375341 -0.59090686 100 3204328841320 1 0
-0.87345034 24.566702 2.0067735 10 3204328841320 1 0
0.25848612 19.17057 -0.669512 44 3204328843624 1 0
-1.8446001 21.841034 5.8731217 40 3204328843624 1 0
-0.7434241 21.09099 3.8478208 30 3204328845928 1 0
-1.4041657 16.656393 -0.3889597 68 3204328845928 1 0
-0.13831069 4.083294 -1.9051632 3 3204328866664 1 0
-1.8981775 14.340718 -0.25250143 21 3204328866664 1 0
-0.59290665 7.1631813 -2.0121105 6 3204328868968 1 0
-0.3637261 10.831269 -2.1674883 2 3204328871272 1 0
-0.6041881 17.914225 -0.52165145 47 3204328868968 1 0
-1.7937899 21.71002 0 31 3204328871272 1 0
-1.1647284 14.121593 -2.2044516 27 3204328873576 1 0
0.29733756 19.2484 -0.22411413 31 3204328873576 1 0
-0.5007544 15.0422325 -1.9157414 2 3204328875880 1 0
-1.7679766 53.34181 -0.31019345 29 3204328878184 1 0
-1.8895675 14.339796 0.08406352 22 3204328875880 1 0
-1.2225536 14.875505 -1.6077409 59 3204328878184 1 0
0.2760964 17.382229 -1.6228034 6 3204328880488 1 0
-1.7214956 20.983805 0.48992172 33 3204328880488 1 0
0.40847498 25.483 0.29670793 22 3204328882792 1 0
-1.2721183 15.533939 -1.0898751 23 3204328882792 1 0
-0.5484139 16.767225 -1.3695269 23 3204328885096 1 0
-1.8820204 14.346959 0.42111456 28 3204328885096 1 0
-0.77535564 23.81175 0.41585594 5 3204328887400 1 0
-1.8742859 14.304131 -0.9245702 51 3204328887400 1 0
0.29919514 18.170744 -1.0583627 30 3204328889704 1 0
-4.332145 53.185444 3.107647 41 3204328889704 1 0
-0.7774483 24.091463 0.98202246 27 3204328892008 1 0
-1.3606408 16.73457 -0.78209513 59 3204328892008 1 0
-0.5754943 17.914162 -0.93932575 47 3204328894312 1 0
-1.6630039 20.490242 2.5241578 20 3204328894312 1 0
-0.7640629 23.892265 1.9514456 20 3204328896616 1 0
-1.8646235 14.294944 -0.5873246 102 3204328896616 1 0
0.32836357 19.26146 -0.6727227 44 3204328898920 1 0
-1.7667607 21.847467 5.8731217 12 3204328898920 1 0
-0.66841775 21.093502 3.8478208 28 3204328901224 1 0
-1.3507166 16.733028 -0.39063466 68 3204328901224 1 0
-0.12394641 4.080128 -1.9034727 3 3204328921960 1 0
-1.8486184 14.351223 -0.25257123 26 3204328921960 1 0
-0.544562 18.00814 -0.5243278 45 3204328924264 1 0
-0.56673354 7.1498437 -2.0077972 5 3204328924264 1 0
-0.32607326 10.832469 -2.1674883 2 3204328926568 1 0
-1.7186282 21.720112 0 12 3204328926568 1 0
0.36614788 19.355225 -0.22537138 28 3204328928872 1 0
0 0 0 4 3204328928872 1 0
-0.4474989 15.004213 -1.9106908 1 3204328931176 1 0
-1.8409357 14.354186 0.084110014 25 3204328931176 1 0
0 0 0 13 3204328933480 1 0
-1.176467 14.947041 -1.6150235 55 3204328933480 1 0
0.33547276 17.3533 -1.620201 6 3204328935784 1 0
-1.6485274 20.98164 0.48973563 19 3204328935784 1 0
0.498152 25.585417 0.2979186 22 3204328938088 1 0
-0.49074093 16.765024 -1.3692013 20 3204328940392 1 0
-1.834283 14.365233 0.42146367 25 3204328940392 1 0
-1.224606 15.613806 -1.0951767 21 3204328938088 1 0
0 0 0 237 3204328942696 1 0
-1.5448118 53.02542 0.9259549 88 3204328942696 1 0
0.36090276 18.149654 -1.0572 26 3204328945000 1 0
-4.1484723 53.176052 3.1062517 41 3204328945000 1 0
-0.69804287 24.189856 0.9859303 16 3204328947304 1 0
-1.3094512 16.814802 -0.7856315 61 3204328947304 1 0
-0.5173889 18.015839 -0.94455934 50 3204328949608 1 0
-0.6760839 23.655615 1.931918 10 3204328951912 1 0
-1.5957197 20.527449 2.5280576 29 3204328949608 1 0
-18.270918 143.88023 -5.908906 132 3204328951912 1 0
0.39584118 19.368147 -0.67649186 44 3204328954216 1 0
-1.7010676 21.961191 5.9021096 20 3204328954216 1 0
-0.5958601 21.052372 3.8399286 26 3204328956520 1 0
-1.2999822 16.813253 -0.39240265 70 3204328956520 1 0
-1.8010179 14.357274 -0.25257123 17 3204328977256 1 0
-0.11041553 4.080517 -1.9034727 4 3204328977256 1 0
-0.48673075 18.08979 -0.526655 45 3204328979560 1 0
-0.54320824 7.155533 -2.0088756 5 3204328979560 1 0
-0.28993946 10.8374195 -2.1682727 2 3204328981864 1 0
-1.6242036 21.438562 0 30 3204328981864 1 0
0.43349078 19.457853 -0.22658204 30 3204328984168 1 0
-1.0611197 14.034629 -2.1896937 1 3204328984168 1 0
0 0 0 110 3204328986472 1 0
0 0 0 182 3204328986472 1 0
