# .PCD v.7 - Point Cloud Data file format
VERSION .7
FIELDS x y z rgb timestamp_ns device_id active
SIZE 4 4 4 4 8 1 1
TYPE F F F F F U U
COUNT 1 1 1 1 1 1 1
WIDTH 969
HEIGHT 1
VIEWPOINT 0 0 0 1 0 0 0
POINTS 969               
DATA ascii
-9.091793 15.864463 -1.0648743 1 3202220342336 1 0
0 0 0 3 3202220342336 1 0
0 0 0 29 3202220344640 1 0
-10.295789 16.099075 -1.0015008 10 3202220346944 1 0
-17.733578 24.945885 -1.4257137 4 3202220344640 1 0
-13.741623 19.336342 2.9126773 25 3202220346944 1 0
-11.73581 18.356657 1.7786274 14 3202220349248 1 0
-16.16858 20.55275 -1.065391 3 3202220349248 1 0
-12.390616 21.649837 -0.8710914 20 3202220351552 1 0
-12.237782 17.230844 5.6629605 27 3202220351552 1 0
-12.400663 19.40903 4.1993837 23 3202220353856 1 0
-18.096943 25.488417 -0.72739184 8 3202220353856 1 0
-2.2205322 3.4855373 -1.9271393 4 3202220374592 1 0
-26.945555 34.36494 -0.7622513 44 3202220374592 1 0
-20.782097 32.631832 -1.12592 8 3202220376896 1 0
-4.268322 6.0302267 -2.0681822 5 3202220376896 1 0
-6.214174 9.760563 -2.314184 1 3202220379200 1 0
-23.245747 32.851406 0 5 3202220379200 1 0
-9.48855 13.413566 -2.55618 4 3202220381504 1 0
-10.469234 18.373144 -0.24618563 22 3202220381504 1 0
0 0 0 30 3202220383808 1 0
-26.919338 34.37267 0.25374815 15 3202220383808 1 0
-20.724321 32.582935 -0.22443286 5 3202220386112 1 0
-10.992173 15.548766 -2.0511227 56 3202220386112 1 0
-8.795135 15.450827 -1.6596093 61 3202220388416 1 0
-23.199574 32.826637 0.93536437 6 3202220388416 1 0
-10.448652 18.36185 0.2459528 24 3202220390720 1 0
0 0 0 1 3202220390720 1 0
-9.722208 15.300067 -1.4798571 32 3202220393024 1 0
-19.953835 25.509138 0.9425333 11 3202220393024 1 0
-20.728292 32.63108 0.67477983 6 3202220395328 1 0
-16.030066 20.499105 -1.6677568 2 3202220395328 1 0
-9.085696 15.982891 -1.0706882 3 3202220397632 1 0
0 0 0 3 3202220397632 1 0
0 0 0 72 3202220399936 1 0
-17.736237 25.134958 -1.4329724 4 3202220399936 1 0
-10.205283 16.080954 -0.99815136 7 3202220402240 1 0
-13.561904 19.225225 2.8887908 21 3202220402240 1 0
-11.673798 18.400877 1.7789528 8 3202220404544 1 0
-16.074598 20.580715 -1.0639255 3 3202220404544 1 0
-11.997234 17.017672 5.5791035 10 3202220406848 1 0
-12.362337 19.498728 4.2094283 34 3202220409152 1 0
-12.522192 22.057981 -0.8857492 10 3202220406848 1 0
-18.030897 25.58412 -0.7283224 8 3202220409152 1 0
-2.2083519 3.4932673 -1.9271393 3 3202220429888 1 0
-19.919464 25.587677 -0.56601644 14 3202220429888 1 0
-20.59544 32.589256 -1.1219637 7 3202220432192 1 0
-4.2472463 6.0450892 -2.0681822 4 3202220432192 1 0
-6.19054 9.798776 -2.3181064 1 3202220434496 1 0
-23.034372 32.79487 0 5 3202220434496 1 0
-10.422749 18.440916 -0.24660471 32 3202220436800 1 0
-9.453027 13.462779 -2.5592546 9 3202220436800 1 0
-9.649085 15.283022 -2.300607 4 3202220439104 1 0
-20.59765 32.63478 -0.22429337 5 3202220441408 1 0
-19.894993 25.58694 0.18837574 13 3202220439104 1 0
-10.887573 15.515422 -2.0416982 57 3202220441408 1 0
-8.766603 15.526518 -1.6644424 42 3202220443712 1 0
-10.307819 18.262367 0.2441368 15 3202220446016 1 0
0 0 0 1 3202220446016 1 0
-23.043509 32.84849 0.9336894 6 3202220443712 1 0
-9.634719 15.279953 -1.4746497 32 3202220448320 1 0
-19.921074 25.651266 0.9452096 11 3202220448320 1 0
-20.54815 32.598354 0.67261577 6 3202220450624 1 0
-15.872734 20.444578 -1.6588027 2 3202220450624 1 0
-9.086728 16.115381 -1.0774324 1 3202220452928 1 0
0 0 0 3 3202220452928 1 0
-12.847419 20.394775 0.98202246 6 3202220455232 1 0
-17.749252 25.340715 -1.441162 4 3202220455232 1 0
-13.474218 19.243177 2.8844037 24 3202220457536 1 0
-11.607371 18.43814 1.7786274 8 3202220459840 1 0
-10.11716 16.065777 -0.9950112 7 3202220457536 1 0
-16.049192 20.69671 -1.0670192 3 3202220459840 1 0
-12.5118065 22.21999 -0.89049554 10 3202220462144 1 0
-11.889024 16.989801 5.5563273 12 3202220462144 1 0
-12.317249 19.5784 4.217321 17 3202220464448 1 0
-18.026297 25.76814 -0.73176533 8 3202220464448 1 0
-2.1961446 3.5009546 -1.9271393 4 3202220485184 1 0
-19.825132 25.650724 -0.56587684 4 3202220485184 1 0
-20.419954 32.562717 -1.1185892 7 3202220487488 1 0
-4.223916 6.0567183 -2.0671039 4 3202220487488 1 0
-6.1667147 9.836941 -2.3220286 1 3202220489792 1 0
-13.403219 19.22498 0 2 3202220489792 1 0
-10.354403 18.470207 -0.24651158 26 3202220492096 1 0
-9.401455 13.489209 -2.558025 8 3202220492096 1 0
-9.561973 15.262809 -2.2925258 17 3202220494400 1 0
-19.808 25.659397 0.18839899 4 3202220494400 1 0
0 0 0 16 3202220496704 1 0
-10.7992525 15.504381 -2.0352724 60 3202220496704 1 0
-8.757111 15.636947 -1.6729932 52 3202220499008 1 0
-13.271868 19.060202 0.54044926 2 3202220499008 1 0
-10.333886 18.458778 0.24627876 13 3202220501312 1 0
-9.553834 15.269555 -1.4704188 32 3202220503616 1 0
0 0 0 1 3202220501312 1 0
-25.348955 32.876705 1.208188 5 3202220503616 1 0
-20.42151 32.64954 0.67219687 6 3202220505920 1 0
-15.825642 20.531477 -1.6613611 2 3202220505920 1 0
-9.038217 16.160944 -1.0783626 1 3202220508224 1 0
0 0 0 9 3202220508224 1 0
-36.057507 57.685406 2.7715144 29 3202220510528 1 0
-13.322496 19.162611 -1.0871532 2 3202220510528 1 0
-13.277812 19.104267 2.8566175 9 3202220512832 1 0
-11.604193 18.576601 1.7880657 8 3202220515136 1 0
-16.076813 20.882448 -1.0736952 3 3202220515136 1 0
-12.510188 22.399645 -0.8959399 10 3202220517440 1 0
-12.02361 17.310452 5.6474314 42 3202220517440 1 0
-12.282174 19.674685 4.2288003 21 3202220519744 1 0
-10.027149 16.046793 -0.9916617 7 3202220512832 1 0
-13.297084 19.14982 -0.54249644 2 3202220519744 1 0
-2.181995 3.5055215 -1.9254488 4 3202220540480 1 0
0 0 0 43 3202220540480 1 0
-11.318184 18.189024 -0.62346834 8 3202220542784 1 0
-4.2006 6.0682282 -2.0660255 4 3202220542784 1 0
-6.120053 9.838335 -2.317322 1 3202220545088 1 0
0 0 0 62 3202220545088 1 0
-9.808217 17.639091 -0.23496363 21 3202220547392 1 0
-9.341114 13.502237 -2.5543354 8 3202220547392 1 0
-9.500703 15.282337 -2.2905056 6 3202220549696 1 0
-25.162241 32.829624 0.240404 6 3202220549696 1 0
-11.048805 17.778013 -0.12165498 36 3202220552000 1 0
-10.707181 15.485982 -2.0279896 55 3202220552000 1 0
-8.734102 15.722745 -1.6789416 53 3202220554304 1 0
0 0 0 14 3202220554304 1 0
-10.346063 18.630587 0.24809477 33 3202220556608 1 0
0 0 0 1 3202220556608 1 0
-9.471923 15.254841 -1.4658624 32 3202220558912 1 0
-25.116863 32.807957 1.2024863 5 3202220558912 1 0
-19.63672 31.635334 0.6499276 6 3202220561216 1 0
-15.876531 20.744059 -1.6741525 2 3202220561216 1 0
-9.05073 16.313955 -1.0865021 2 3202220563520 1 0
-84.67397 136.49641 6.544102 29 3202220565824 1 0
0 0 0 100 3202220565824 1 0
-9.947215 16.04009 -0.9891496 7 3202220568128 1 0
-14.225089 20.616592 3.0754948 6 3202220568128 1 0
-11.55154 18.632845 1.789693 20 3202220570432 1 0
0 0 0 6 3202220563520 1 0
-16.124739 21.092508 -1.0816739 3 3202220570432 1 0
-9.967902 17.990593 -0.7182316 22 3202220572736 1 0
-11.945139 17.32247 5.638114 15 3202220572736 1 0
-12.174122 19.649202 4.214451 25 3202220575040 1 0
0 0 0 19 3202220575040 1 0
-25.031666 32.846863 -0.7208542 21 3202220595776 1 0
-2.1722636 3.515822 -1.9271393 4 3202220595776 1 0
-19.491867 31.55797 -1.0794915 14 3202220598080 1 0
-4.18041 6.0821548 -2.0660255 4 3202220598080 1 0
-6.08725 9.8586645 -2.317322 1 3202220600384 1 0
0 0 0 3 3202220600384 1 0
-9.733828 17.643715 -0.23459111 27 3202220602688 1 0
-9.293755 13.530085 -2.5537205 8 3202220602688 1 0
-9.387016 15.2127285 -2.2753534 3 3202220604992 1 0
-24.96022 32.792667 0.23952058 6 3202220604992 1 0
-10.987042 17.81155 -0.12163173 8 3202220607296 1 0
-10.614691 15.462771 -2.0202787 59 3202220607296 1 0
-8.711986 15.807809 -1.68489 28 3202220609600 1 0
0 0 0 1 3202220609600 1 0
-10.808102 15.754339 -1.335976 1 3202220611904 1 0
-10.263974 18.630285 0.24762912 24 3202220611904 1 0
-9.391113 15.239199 -1.461306 31 3202220614208 1 0
-24.945522 32.81295 1.1995772 5 3202220614208 1 0
-13.154707 21.353434 0.43777615 6 3202220616512 1 0
-15.912569 20.937466 -1.6854091 2 3202220616512 1 0
-12.500214 18.237886 1.287663 3 3202220618816 1 0
-19.532345 31.726622 1.5178931 15 3202220621120 1 0
-12.593257 18.37937 -1.0378302 18 3202220621120 1 0
-9.877912 16.05004 -0.9876842 5 3202220623424 1 0
-14.219905 20.759874 3.0896316 7 3202220623424 1 0
-9.0184965 16.386515 -1.0892926 2 3202220618816 1 0
-11.360488 18.465006 1.76984 5 3202220625728 1 0
-15.972962 21.04233 -1.0763005 3 3202220625728 1 0
-9.887099 17.989525 -0.7168357 8 3202220628032 1 0
-11.892409 17.372763 5.64122 31 3202220628032 1 0
-12.123237 19.717604 4.2201905 20 3202220630336 1 0
-12.561179 18.355446 -0.51755834 15 3202220630336 1 0
-2.159978 3.5233831 -1.9271393 4 3202220651072 1 0
-24.820335 32.806465 -0.7180618 20 3202220651072 1 0
-19.402483 31.659908 -1.0806552 7 3202220653376 1 0
-4.1613245 6.099892 -2.0671039 4 3202220653376 1 0
-6.0650945 9.8999195 -2.3220286 1 3202220655680 1 0
-12.499129 18.32762 0 24 3202220655680 1 0
-9.691379 17.712673 -0.23505676 28 3202220657984 1 0
-9.2464695 13.562443 -2.5537205 9 3202220657984 1 0
-9.296562 15.184488 -2.266262 3 3202220660288 1 0
-24.804604 32.825344 0.23912537 6 3202220660288 1 0
-10.805781 17.655329 -0.12030661 28 3202220662592 1 0
-10.5270605 15.450431 -2.0138528 59 3202220662592 1 0
-8.687316 15.894039 -1.6908385 28 3202220664896 1 0
-12.47608 18.316706 0.5156973 6 3202220664896 1 0
-10.085729 18.458912 0.24488182 24 3202220667200 1 0
-10.636259 15.620462 -1.3214667 1 3202220667200 1 0
-9.310824 15.22767 -1.457075 33 3202220669504 1 0
-24.785067 32.83919 1.1973664 5 3202220669504 1 0
-20.088398 32.864918 0.6723365 13 3202220671808 1 0
-16.096645 21.333841 -1.7127829 2 3202220671808 1 0
-8.949763 16.396864 -1.0878974 2 3202220674112 1 0
-12.537548 18.429985 1.298128 6 3202220674112 1 0
-89.52798 146.5649 6.997093 29 3202220676416 1 0
-12.517789 18.406696 -1.0368996 13 3202220676416 1 0
-9.8468075 16.12533 -0.9901963 5 3202220678720 1 0
-14.218781 20.91445 3.1052308 7 3202220678720 1 0
-11.310505 18.52837 1.7721182 8 3202220681024 1 0
-15.993222 21.222439 -1.0826508 3 3202220681024 1 0
-12.619418 23.15206 -0.92078835 32 3202220683328 1 0
-11.859922 17.455715 5.6546783 27 3202220683328 1 0
-12.195741 19.991598 4.269696 24 3202220685632 1 0
-12.472315 18.362793 -0.51653475 29 3202220685632 1 0
-2.145782 3.5278041 -1.9254488 3 3202220706368 1 0
-24.636015 32.800167 -0.71603733 13 3202220706368 1 0
-22.954124 37.750427 -1.2858016 18 3202220708672 1 0
-6.010127 9.887514 -2.314184 1 3202220710976 1 0
-4.142166 6.1175704 -2.0681822 4 3202220708672 1 0
-12.426109 18.357887 0 24 3202220710976 1 0
-10.04916 18.519812 -0.2453009 24 3202220713280 1 0
-9.187996 13.578269 -2.5506458 9 3202220713280 1 0
-9.262043 15.247369 -2.2708077 3 3202220715584 1 0
-24.603458 32.79654 0.23828846 6 3202220715584 1 0
-10.69426 17.610886 -0.11974867 20 3202220717888 1 0
-10.432963 15.427783 -2.006142 60 3202220717888 1 0
-8.658353 15.973286 -1.6960434 17 3202220720192 1 0
-12.38967 18.327015 0.51476675 19 3202220720192 1 0
-10.000273 18.455322 0.24436961 26 3202220722496 1 0
-10.523577 15.571537 -1.314212 1 3202220722496 1 0
-9.243139 15.236218 -1.4547968 12 3202220724800 1 0
-24.576782 32.800716 1.1928283 5 3202220724800 1 0
-10.974982 18.096891 0.36943254 4 3202220727104 1 0
0 0 0 18 3202220727104 1 0
0 0 0 26 3202220729408 1 0
0 0 0 9 3202220729408 1 0
-87.982155 145.17094 6.915841 29 3202220731712 1 0
-12.453462 18.45028 -1.0368996 5 3202220731712 1 0
-9.817368 16.204018 -0.9929178 7 3202220734016 1 0
-12.953189 19.196663 2.8434556 20 3202220734016 1 0
-11.220976 18.526817 1.7682127 8 3202220736320 1 0
-16.000448 21.386944 -1.088187 3 3202220736320 1 0
-9.922848 18.357029 -0.7287015 17 3202220738624 1 0
-11.658506 17.288786 5.5873857 8 3202220738624 1 0
-12.1645975 20.098011 4.2833285 12 3202220740928 1 0
-12.381317 18.366428 -0.5154181 6 3202220740928 1 0
-2.1334546 3.5352728 -1.9254488 3 3202220761664 1 0
-24.461603 32.805805 -0.7142921 20 3202220761664 1 0
0 0 0 16 3202220763968 1 0
-4.118638 6.1287947 -2.0671039 4 3202220763968 1 0
-5.991781 9.935303 -2.3204598 1 3202220766272 1 0
0 0 0 7 3202220766272 1 0
-10.018568 18.618176 -0.24613906 24 3202220768576 1 0
-9.140543 13.610259 -2.5506458 8 3202220768576 1 0
-9.1698475 15.215035 -2.2612114 3 3202220770880 1 0
-24.390873 32.750694 0.23733531 6 3202220770880 1 0
-10.624464 17.634403 -0.119655676 24 3202220773184 1 0
-10.34137 15.407969 -1.9988593 59 3202220773184 1 0
-8.649686 16.091112 -1.7053378 37 3202220775488 1 0
-12.323394 18.36683 0.5146737 14 3202220775488 1 0
-9.924432 18.468977 0.24409023 21 3202220777792 1 0
-11.467174 17.09609 -1.4394946 1 3202220777792 1 0
0 0 0 9 3202220780096 1 0
-24.428728 32.841393 1.1911992 5 3202220780096 1 0
0 0 0 17 3202220782400 1 0
-16.13311 21.695549 -1.7327377 8 3202220782400 1 0
-12.402722 23.10515 -1.5271958 33 3202220784704 1 0
-12.2752 18.318027 1.2841747 9 3202220784704 1 0
-87.88472 146.15878 6.948244 29 3202220787008 1 0
0 0 0 40 3202220787008 1 0
-9.764861 16.245035 -0.99333644 7 3202220789312 1 0
-12.925866 19.30114 2.85223 15 3202220789312 1 0
-11.127489 18.518032 1.7636564 17 3202220791616 1 0
-15.94476 21.468332 -1.0894897 3 3202220791616 1 0
-12.400821 23.133896 -0.9166004 29 3202220793920 1 0
-11.688344 17.464235 5.630867 15 3202220793920 1 0
-12.639324 21.047848 4.4763293 9 3202220796224 1 0
-12.334921 18.436123 -0.5161626 4 3202220796224 1 0
-2.1229634 3.5458088 -1.9271393 3 3202220816960 1 0
-25.360603 34.26038 -0.744031 14 3202220816960 1 0
-10.843982 18.117777 -0.61450845 31 3202220819264 1 0
-4.0993567 6.146339 -2.0681822 5 3202220819264 1 0
-5.961092 9.96289 -2.3220286 1 3202220821568 1 0
-12.333149 18.497438 0 2 3202220821568 1 0
-9.966699 18.677734 -0.24646501 19 3202220823872 1 0
-9.099555 13.651949 -2.5524905 8 3202220823872 1 0
0 0 0 30 3202220826176 1 0
-24.235977 32.780956 0.2369401 6 3202220826176 1 0
-10.546426 17.643915 -0.119469695 28 3202220828480 1 0
-10.254451 15.394325 -1.9924335 57 3202220828480 1 0
-8.62344 16.177439 -1.7112862 39 3202220830784 1 0
0 0 0 3 3202220830784 1 0
-10.181543 19.107113 0.25205272 22 3202220833088 1 0
-11.385315 17.102798 -1.4367043 1 3202220833088 1 0
0 0 0 94 3202220835392 1 0
-24.211813 32.78816 1.1861956 5 3202220835392 1 0
-10.854526 18.183372 0.36964196 17 3202220837696 1 0
-16.069134 21.76779 -1.7340168 11 3202220837696 1 0
-12.331376 23.165928 -1.5283586 47 3202220840000 1 0
-12.228874 18.387363 1.2860352 6 3202220840000 1 0
-82.80586 138.80713 6.5849724 29 3202220842304 1 0
-12.521241 18.832907 -1.0534647 71 3202220842304 1 0
-9.669223 16.213837 -0.9893589 7 3202220844608 1 0
-12.120006 18.235168 2.6884377 7 3202220844608 1 0
-11.111776 18.638947 1.7714673 8 3202220846912 1 0
-15.931392 21.607498 -1.0937232 3 3202220846912 1 0
-9.82072 18.475273 -0.73065585 25 3202220849216 1 0
-11.5824175 17.437342 5.6091266 38 3202220849216 1 0
-12.074344 20.266962 4.3012652 15 3202220851520 1 0
-17.86488 26.904083 -0.7514925 4 3202220851520 1 0
-24.066202 32.750183 -0.7094054 20 3202220872256 1 0
-10.8195915 18.22076 -0.6167193 31 3202220874560 1 0
-4.0736694 6.154157 -2.0660255 5 3202220874560 1 0
-5.9104066 9.956568 -2.315753 1 3202220876864 1 0
-21.663506 32.73723 0 5 3202220876864 1 0
-2.108722 3.550081 -1.9254488 3 3202220872256 1 0
-9.054325 13.686728 -2.5531056 8 3202220879168 1 0
-10.468876 17.646795 -2.611732 18 3202220881472 1 0
-24.030054 32.738895 0.23603344 6 3202220881472 1 0
-9.959842 18.821789 -0.2479085 42 3202220879168 1 0
-10.15954 15.366623 -1.984294 56 3202220883776 1 0
-8.606712 16.281008 -1.7190934 35 3202220886080 1 0
-21.60427 32.686954 0.911729 5 3202220886080 1 0
-10.093334 19.099586 0.25149396 30 3202220888384 1 0
0 0 0 1 3202220888384 1 0
-10.491537 17.690561 -0.11953944 31 3202220883776 1 0
-9.0595875 15.290488 -1.4508913 19 3202220890688 1 0
-24.021112 32.76466 1.1823556 5 3202220890688 1 0
-10.735111 18.124094 0.36768728 34 3202220892992 1 0
-15.942565 21.751871 -1.7283885 5 3202220892992 1 0
-12.268903 23.239723 -1.5304515 60 3202220895296 1 0
-12.438755 18.84229 1.3148721 13 3202220895296 1 0
-82.21388 138.88927 6.5755286 29 3202220897600 1 0
-12.483346 18.915522 -1.0556982 52 3202220897600 1 0
-9.601779 16.226025 -0.98810285 7 3202220899904 1 0
-12.055687 18.272999 2.6879501 7 3202220899904 1 0
-11.072771 18.71775 1.7753729 25 3202220902208 1 0
-15.914578 21.738874 -1.0976311 3 3202220902208 1 0
-12.289852 23.3106 -0.9202299 29 3202220904512 1 0
-11.491356 17.428108 5.5935974 15 3202220904512 1 0
-12.03578 20.358488 4.3120275 9 3202220906816 1 0
-17.877237 27.121265 -0.75586593 4 3202220906816 1 0
-2.098779 3.560177 -1.9271393 3 3202220927552 1 0
-23.907959 32.761967 -0.7079394 20 3202220927552 1 0
-10.895122 18.48733 -0.6245156 17 3202220929856 1 0
-4.0532393 6.167632 -2.0660255 4 3202220929856 1 0
-5.8992577 10.013287 -2.324382 1 3202220932160 1 0
-21.539452 32.785484 0 5 3202220932160 1 0
-9.750509 18.574938 -0.24422993 21 3202220934464 1 0
-9.000209 13.703464 -2.5506458 8 3202220934464 1 0
-10.4123125 17.684834 -2.612237 18 3202220936768 1 0
-23.881302 32.76345 0.23563823 6 3202220936768 1 0
-10.080156 15.357007 -1.9787251 24 3202220939072 1 0
-8.597066 16.394112 -1.7280161 34 3202220941376 1 0
-21.456268 32.69824 0.910054 5 3202220941376 1 0
-10.471365 17.790752 -0.11998115 22 3202220939072 1 0
-9.972374 19.023134 0.25005046 39 3202220943680 1 0
0 0 0 1 3202220943680 1 0
-9.010853 15.323883 -1.4512167 6 3202220945984 1 0
-23.799368 32.688984 1.1767703 5 3202220945984 1 0
-10.658736 18.132011 0.36712882 38 3202220948288 1 0
-11.51986 15.82739 -1.2545911 6 3202220948288 1 0
-9.214688 17.59552 -1.156734 48 3202220950592 1 0
-12.341181 18.829998 1.3111511 6 3202220950592 1 0
-81.65973 139.00261 6.5680385 29 3202220952896 1 0
-12.446829 18.99692 -1.0579317 38 3202220952896 1 0
-9.426547 16.05111 -0.97554225 50 3202220955200 1 0
-12.525818 19.12324 2.8068948 28 3202220955200 1 0
-15.896456 21.865881 -1.1013762 3 3202220957504 1 0
-12.2513895 23.425617 -0.9231615 21 3202220959808 1 0
-13.469225 20.575949 6.589533 15 3202220959808 1 0
-11.355794 19.342268 1.8310261 9 3202220957504 1 0
-12.595488 21.467417 4.538032 23 3202220962112 1 0
-17.824429 27.237284 -0.75744784 4 3202220962112 1 0
-2.0845087 3.5643523 -1.9254488 3 3202220983296 1 0
-23.720718 32.744816 -0.7057753 6 3202220983296 1 0
-10.862539 18.580633 -0.6263774 20 3202220985600 1 0
-4.0294914 6.178575 -2.0649474 5 3202220985600 1 0
-5.8600187 10.027216 -2.3228133 1 3202220987904 1 0
-21.334354 32.723713 0 5 3202220987904 1 0
-9.701418 18.641214 -0.24464901 27 3202220990208 1 0
-8.9560375 13.74181 -2.5518756 8 3202220990208 1 0
-10.297459 17.632586 -2.5991051 9 3202220992512 1 0
-23.664063 32.708645 0.23463859 6 3202220992512 1 0
-10.936264 18.732994 -0.12607203 40 3202220994816 1 0
0 0 0 4 3202220994816 1 0
-8.58979 16.52371 -1.7384259 26 3202220997120 1 0
-21.275864 32.677612 0.90735555 5 3202220997120 1 0
-9.809909 18.87783 0.24767569 30 3202220999424 1 0
-10.1738 15.6311655 -1.304167 1 3202220999424 1 0
-8.9414625 15.332178 -1.4489385 3 3202221001728 1 0
-23.660229 32.74545 1.1757231 5 3202221001728 1 0
-10.6332855 18.239597 0.36852503 23 3202221004032 1 0
-11.4227295 15.813995 -1.250242 13 3202221004032 1 0
-9.106496 17.543848 -1.1511526 62 3202221006336 1 0
-12.257394 18.851313 1.3095233 32 3202221006336 1 0
-80.950554 138.95445 6.5517554 29 3202221008640 1 0
-12.153104 18.697166 -1.0387608 34 3202221008640 1 0
-9.361623 16.075197 -0.9749142 52 3202221010944 1 0
-12.518375 19.265564 2.8210316 34 3202221010944 1 0
-11.158178 19.16686 1.8105222 12 3202221013248 1 0
-17.887573 24.79603 -1.2456428 4 3202221013248 1 0
-9.081724 17.522295 -0.6891953 26 3202221015552 1 0
-13.622476 20.978777 6.702378 9 3202221015552 1 0
-11.924128 20.496958 4.323507 9 3202221017856 1 0
-17.83433 27.474268 -0.7621935 4 3202221017856 1 0
-2.075068 3.5782404 -1.9288298 3 3202221038592 1 0
-25.304638 35.202164 -0.75673634 14 3202221038592 1 0
-10.44959 18.02528 -0.6063631 68 3202221040896 1 0
-4.0131407 6.2029757 -2.0681822 5 3202221040896 1 0
-5.8135405 10.031573 -2.3188908 1 3202221043200 1 0
-21.140892 32.687183 0 5 3202221043200 1 0
-9.598599 18.608898 -0.24376428 19 3202221045504 1 0
-8.908057 13.777668 -2.5524905 8 3202221045504 1 0
-10.195494 17.60467 -2.5895088 5 3202221047808 1 0
-23.540308 32.787975 0.23459208 6 3202221047808 1 0
-10.681832 18.450623 -0.12391 23 3202221050112 1 0
-9.982396 15.44915 -1.9812953 16 3202221050112 1 0
-9.01695 17.499985 -1.8376901 19 3202221052416 1 0
-21.124834 32.704063 0.9059597 5 3202221052416 1 0
-9.915606 19.250961 0.2520993 22 3202221054720 1 0
-10.063124 15.584032 -1.2971914 1 3202221054720 1 0
-8.910052 15.405744 -1.452844 1 3202221057024 1 0
-23.441772 32.690857 1.1707195 5 3202221057024 1 0
-10.821789 18.717474 0.37739083 31 3202221059328 1 0
-11.330844 15.806347 -1.2464045 33 3202221059328 1 0
-9.005045 17.501883 -1.146269 66 3202221061632 1 0
-12.17011 18.865026 1.3074303 32 3202221061632 1 0
-80.08595 138.6105 6.521958 29 3202221063936 1 0
-12.03835 18.666742 -1.0346661 15 3202221063936 1 0
-9.471868 16.399145 -0.99249905 10 3202221066240 1 0
-12.473029 19.346935 2.8263938 28 3202221066240 1 0
-10.916238 18.906208 1.7822074 25 3202221068544 1 0
-17.789614 24.846745 -1.2449914 4 3202221068544 1 0
-8.99548 17.50832 -0.6873805 57 3202221070848 1 0
-13.447188 20.871284 6.6526847 12 3202221070848 1 0
-11.866896 20.5665 4.329247 9 3202221073152 1 0
-17.82313 27.671993 -0.76591563 4 3202221073152 1 0
-2.0571418 3.5760348 -1.9237583 3 3202221093888 1 0
-25.314018 35.475845 -0.7607155 22 3202221093888 1 0
-10.430457 18.1379 -0.6089231 33 3202221096192 1 0
-3.9873018 6.2104635 -2.0660255 4 3202221096192 1 0
-5.782398 10.058606 -2.3204598 2 3202221098496 1 0
-20.989933 32.703552 0 5 3202221098496 1 0
-8.862044 13.812005 -2.5531056 7 3202221100800 1 0
-9.498982 18.574629 -0.24287955 26 3202221100800 1 0
-10.114214 17.605745 -2.584458 3 3202221103104 1 0
-23.325891 32.72988 0.23359244 6 3202221103104 1 0
-10.742859 18.706322 -0.1253746 100 3202221105408 1 0
-9.85542 15.370073 -1.9667302 4 3202221105408 1 0
-7.528097 14.736552 -1.5447304 23 3202221107712 1 0
-20.932858 32.656403 0.9026098 5 3202221107712 1 0
-9.795594 19.182156 0.25074893 35 3202221110016 1 0
0 0 0 1 3202221110016 1 0
0 0 0 57 3202221112320 1 0
-23.304333 32.739914 1.1695558 5 3202221112320 1 0
-10.728531 18.706564 0.3764135 25 3202221114624 1 0
0 0 0 13 3202221114624 1 0
-8.911236 17.469181 -1.1420829 58 3202221116928 1 0
-12.15801 18.99147 1.3132442 6 3202221116928 1 0
-80.67082 140.75475 6.6095595 29 3202221119232 1 0
-11.921426 18.62788 -1.030199 7 3202221119232 1 0
-9.418538 16.439041 -0.9929178 7 3202221121536 1 0
-12.416118 19.407078 2.8288312 20 3202221121536 1 0
-10.921507 19.068739 1.7939239 21 3202221123840 1 0
-17.760656 24.990133 -1.2490622 4 3202221123840 1 0
-8.89802 17.468372 -0.68458855 47 3202221126144 1 0
-13.3284645 20.846481 6.6299086 31 3202221126144 1 0
-11.664064 20.378973 4.281176 18 3202221128448 1 0
-24.273428 37.9772 -1.0487955 7 3202221128448 1 0
-2.0500367 3.59264 -1.9288298 3 3202221149184 1 0
-25.236263 35.629265 -0.76211166 14 3202221149184 1 0
-10.705984 18.768003 -0.62882096 27 3202221151488 1 0
-3.9697838 6.2308125 -2.0681822 5 3202221151488 1 0
0 0 0 61 3202221153792 1 0
-20.854637 32.74258 0 5 3202221153792 1 0
-9.544827 18.825077 -0.24571998 19 3202221156096 1 0
-8.85866 13.912677 -2.5660186 8 3202221156096 1 0
-10.045352 17.626862 -2.5824378 22 3202221158400 1 0
-23.191664 32.78104 0.23338321 6 3202221158400 1 0
-10.646498 18.68771 -0.12500264 34 3202221160704 1 0
-9.733945 15.296657 -1.9530218 2 3202221160704 1 0
-7.4502616 14.70912 -1.5391538 21 3202221163008 1 0
-20.749336 32.617023 0.8995391 5 3202221163008 1 0
-9.651863 19.062296 0.24874666 24 3202221165312 1 0
-9.824261 15.448009 -1.2801708 1 3202221165312 1 0
-8.860373 15.56754 -1.4622823 9 3202221167616 1 0
-23.085674 32.669506 1.1642032 5 3202221167616 1 0
-10.553637 18.54854 0.37250417 8 3202221169920 1 0
-11.7509985 16.634207 -1.3052455 1 3202221169920 1 0
-12.163696 19.144138 1.3209186 9 3202221172224 1 0
-8.81723 17.431833 -1.1376643 58 3202221172224 1 0
-35.30056 62.082394 2.9095936 87 3202221174528 1 0
-11.795695 18.57062 -1.0248015 7 3202221174528 1 0
-10.284378 18.092749 -1.0906813 8 3202221176832 1 0
-12.388304 19.509552 2.8376057 14 3202221176832 1 0
-10.87835 19.143848 1.797504 27 3202221179136 1 0
-17.78168 25.200523 -1.2565523 4 3202221179136 1 0
-8.845981 17.5127 -0.6851469 49 3202221181440 1 0
-13.216337 20.826284 6.6092033 18 3202221181440 1 0
-11.812723 20.80155 4.361533 15 3202221183744 1 0
-20.721611 32.66306 -0.9000974 5 3202221183744 1 0
-2.0398982 3.602573 -1.9305202 3 3202221204480 1 0
-25.184696 35.80762 -0.76413614 15 3202221204480 1 0
-10.718395 18.935703 -0.6332427 15 3202221206784 1 0
-3.9449365 6.23746 -2.0660255 5 3202221206784 1 0
-5.7195926 10.107974 -2.3228133 17 3202221209088 1 0
-20.6621 32.68 0 5 3202221209088 1 0
-8.926713 17.752653 -0.2313316 9 3202221211392 1 0
-8.86074 14.019012 -2.5801616 8 3202221211392 1 0
-9.521486 16.838312 -2.4622304 5 3202221213696 1 0
-22.97611 32.707874 0.23231381 6 3202221213696 1 0
-10.499148 18.573566 -0.12400299 34 3202221216000 1 0
-9.640132 15.261955 -1.944454 5 3202221216000 1 0
-7.372198 14.677125 -1.5332054 22 3202221218304 1 0
-20.579851 32.591877 0.8969336 5 3202221218304 1 0
-8.90741 17.739971 0.23109879 13 3202221220608 1 0
-9.706162 15.376398 -1.271521 1 3202221220608 1 0
-12.623215 17.99215 0.63964266 1 3202221222912 1 0
-10.455464 18.521431 0.3712476 34 3202221225216 1 0
0 0 0 19 3202221222912 1 0
-11.795537 16.817644 -1.316502 1 3202221225216 1 0
-8.734832 17.41521 -1.1346412 78 3202221227520 1 0
-12.113661 19.208895 1.3225465 35 3202221227520 1 0
-11.130302 19.730286 0.92291546 3 3202221229824 1 0
-10.167802 18.030224 -1.0848197 5 3202221232128 1 0
-11.692073 18.54635 -1.0212651 22 3202221229824 1 0
-12.546213 19.907633 2.8892784 100 3202221232128 1 0
-10.814952 19.184313 1.7978294 9 3202221234432 1 0
-17.78047 25.382141 -1.262577 4 3202221234432 1 0
-8.814714 17.600021 -0.6873805 55 3202221236736 1 0
-13.056538 20.730755 6.5646863 9 3202221236736 1 0
-11.546326 20.49561 4.289068 9 3202221239040 1 0
-20.592567 32.70677 -0.899353 5 3202221239040 1 0
-2.0237598 3.60335 -1.9271393 3 3202221259776 1 0
-13.310454 19.065903 -0.40587315 5 3202221259776 1 0
-10.008373 17.825903 -0.5949596 13 3202221262080 1 0
-3.925233 6.2544265 -2.0671039 5 3202221262080 1 0
-5.680582 10.120954 -2.3212442 18 3202221264384 1 0
-20.533495 32.72791 0 5 3202221264384 1 0
0 0 0 106 3202221266688 1 0
-8.824657 14.069755 -2.583851 7 3202221266688 1 0
-9.432084 16.815798 -2.4541492 14 3202221268992 1 0
0 0 0 14 3202221268992 1 0
-10.4642725 18.662056 -0.1243517 25 3202221271296 1 0
-9.5493355 15.234509 -1.936743 4 3202221271296 1 0
-20.461014 32.652454 0.8966545 5 3202221273600 1 0
-7.2984824 14.656103 -1.5283723 22 3202221273600 1 0
-9.38642 18.855425 0.24520777 14 3202221275904 1 0
0 0 0 1 3202221275904 1 0
0 0 0 34 3202221278208 1 0
0 0 0 113 3202221278208 1 0
-10.550246 18.839785 0.37690216 22 3202221280512 1 0
-11.790326 16.933294 -1.322386 4 3202221280512 1 0
-8.691259 17.477144 -1.1367341 68 3202221282816 1 0
-12.050054 19.25357 1.322779 19 3202221282816 1 0
0 0 0 46 3202221285120 1 0
-11.580006 18.508213 -1.0169842 25 3202221285120 1 0
-12.518883 22.37697 -1.343778 11 3202221287424 1 0
-11.853099 18.95052 2.7444975 22 3202221287424 1 0
-10.909309 19.506252 1.8245169 12 3202221289728 1 0
0 0 0 12 3202221289728 1 0
-8.781691 17.683496 -0.68947446 42 3202221292032 1 0
-12.951394 20.719187 6.5470867 30 3202221292032 1 0
-11.3886385 20.376526 4.2560644 18 3202221294336 1 0
-20.388605 32.627007 -0.89525867 5 3202221294336 1 0
-2.0135643 3.6132078 -1.9288298 4 3202221315072 1 0
-13.249434 19.113224 -0.40594298 15 3202221315072 1 0
-11.203996 20.112051 -0.6700132 29 3202221317376 1 0
-3.9043796 6.2674656 -2.0671039 5 3202221317376 1 0
-5.648602 10.143327 -2.3220286 20 3202221319680 1 0
-20.343548 32.66739 0 5 3202221319680 1 0
-9.207615 18.627123 -0.24190171 19 3202221321984 1 0
-8.777337 14.099324 -2.583851 8 3202221321984 1 0
-9.365641 16.830193 -2.451624 14 3202221324288 1 0
-13.248656 19.137058 0.1352781 4 3202221324288 1 0
-10.461247 18.80577 -0.12507239 34 3202221326592 1 0
-9.472444 15.226261 -1.9316024 4 3202221326592 1 0
-7.2256384 14.634434 -1.5235392 22 3202221328896 1 0
-13.112464 21.084505 0.5777634 2 3202221328896 1 0
-9.318378 18.880224 0.24511465 14 3202221331200 1 0
-8.750859 15.748053 -1.4707443 61 3202221333504 1 0
0 0 0 1 3202221331200 1 0
0 0 0 112 3202221333504 1 0
-10.388139 18.70123 0.3734117 38 3202221335808 1 0
-11.293842 16.340067 -1.2730108 2 3202221335808 1 0
-12.175051 19.603863 1.3439416 27 3202221338112 1 0
-8.653664 17.553686 -1.1397574 22 3202221338112 1 0
-10.906876 19.64922 0.91558814 9 3202221340416 1 0
-11.460803 18.460094 -1.012145 27 3202221340416 1 0
-9.988994 18.002092 -1.078958 5 3202221342720 1 0
-11.703134 18.856846 2.7249985 31 3202221342720 1 0
-10.906619 19.662907 1.8355825 21 3202221345024 1 0
-12.662162 18.343716 -0.90809804 15 3202221345024 1 0
-10.209407 20.741402 -0.80729514 25 3202221347328 1 0
-12.122871 19.546476 6.162999 8 3202221347328 1 0
-11.585539 20.901941 4.3572283 21 3202221349632 1 0
0 0 0 21 3202221349632 1 0
-1.9985546 3.6173904 -1.9271393 4 3202221370368 1 0
-10.846198 19.638401 -0.65290797 6 3202221372672 1 0
-3.8834524 6.284982 -2.0681822 5 3202221372672 1 0
-5.6115346 10.16388 -2.3220286 22 3202221374976 1 0
-19.589327 31.713696 0 15 3202221374976 1 0
-12.599086 18.318083 -0.38807172 11 3202221370368 1 0
-9.146726 18.674913 -0.24208796 22 3202221377280 1 0
-8.725909 14.131209 -2.583851 9 3202221377280 1 0
-9.312051 16.878033 -2.453644 7 3202221379584 1 0
-12.558424 18.281733 0.12890825 6 3202221379584 1 0
-10.385209 18.8296 -0.12497939 44 3202221381888 1 0
-9.4129505 15.253765 -1.9307456 2 3202221381888 1 0
-7.1533384 14.621153 -1.5194496 30 3202221384192 1 0
0 0 0 14 3202221384192 1 0
-9.220206 18.8527 0.24432306 21 3202221386496 1 0
-9.544612 15.477196 -1.271521 1 3202221386496 1 0
-8.713238 15.814432 -1.4739988 47 3202221388800 1 0
0 0 0 100 3202221388800 1 0
-10.278304 18.661432 0.37187588 40 3202221391104 1 0
-11.239465 16.3872 -1.2735225 1 3202221391104 1 0
-7.2075753 14.753749 -0.95627064 17 3202221393408 1 0
-11.966304 19.423088 1.3285929 10 3202221393408 1 0
-10.275559 18.669298 0.8682049 19 3202221395712 1 0
-11.337972 18.409206 -1.0071197 35 3202221395712 1 0
-9.882156 17.960722 -1.0743525 16 3202221398016 1 0
-11.750073 19.084541 2.7518098 19 3202221398016 1 0
-10.847868 19.722685 1.8375353 25 3202221400320 1 0
-10.077597 20.659084 -0.8026884 31 3202221402624 1 0
-12.5649605 18.34265 -0.9058184 24 3202221400320 1 0
-11.72514 19.056458 5.9952846 7 3202221402624 1 0
-11.268517 20.501595 4.2653913 9 3202221404928 1 0
0 0 0 3 3202221404928 1 0
-1.9859154 3.6243446 -1.9271393 3 3202221425664 1 0
-12.514772 18.332222 -0.38744342 22 3202221425664 1 0
-9.932564 18.133118 -0.6017086 22 3202221427968 1 0
-3.8595226 6.295188 -2.0671039 5 3202221427968 1 0
-5.57617 10.183325 -2.3220286 28 3202221430272 1 0
0 0 0 76 3202221430272 1 0
-9.165739 18.87924 -0.24432306 26 3202221432576 1 0
-8.6727085 14.154653 -2.582621 8 3202221432576 1 0
-9.190711 16.795296 -2.4369767 15 3202221434880 1 0
-12.486052 18.311876 0.12881525 21 3202221434880 1 0
-10.293229 18.816233 -0.12465393 44 3202221437184 1 0
-9.324898 15.228532 -1.923463 2 3202221437184 1 0
-7.0785656 14.595555 -1.5142448 32 3202221439488 1 0
-10.975522 17.929735 0.48917732 24 3202221439488 1 0
-9.291403 19.16503 0.24795507 35 3202221441792 1 0
0 0 0 98 3202221441792 1 0
-8.687582 15.896724 -1.4788806 45 3202221444096 1 0
-12.3470745 18.129572 0.6383627 110 3202221444096 1 0
-10.099277 18.48594 0.36768728 31 3202221446400 1 0
-10.639606 15.627089 -1.2116116 1 3202221446400 1 0
-7.1292577 14.720795 -0.9525497 1 3202221448704 1 0
-11.868603 19.41277 1.3251046 6 3202221448704 1 0
-10.207994 18.69722 0.8678792 79 3202221451008 1 0
-11.14801 18.239801 -0.99576604 68 3202221451008 1 0
-12.603453 23.092388 -1.3787384 24 3202221453312 1 0
-12.239809 20.032366 2.8824537 24 3202221453312 1 0
-10.811377 19.815407 1.8427426 9 3202221455616 1 0
-12.486862 18.362082 -0.9046786 9 3202221455616 1 0
-10.01449 20.707512 -0.8032468 31 3202221457920 1 0
-10.953735 17.938644 5.631902 6 3202221457920 1 0
0 0 0 43 3202221460224 1 0
-19.339502 31.681637 -0.86371386 5 3202221460224 1 0
-1.9756172 3.6340952 -1.9288298 3 3202221480960 1 0
-12.462888 18.386864 -0.38772267 4 3202221480960 1 0
-9.948478 18.306623 -0.6063631 5 3202221483264 1 0
-5.538329 10.195028 -2.3204598 25 3202221485568 1 0
-3.8385339 6.3080077 -2.0671039 4 3202221483264 1 0
-10.9138155 17.941256 0 28 3202221485568 1 0
-9.01899 18.736938 -0.24208796 27 3202221487872 1 0
-8.631264 14.193843 -2.584466 8 3202221487872 1 0
-9.088553 16.742517 -2.424855 5 3202221490176 1 0
-10.242759 18.875616 -0.124816656 38 3202221492480 1 0
0 0 0 29 3202221492480 1 0
-7.0064163 14.5729 -1.5094117 30 3202221494784 1 0
-10.829313 17.826859 0.48536214 21 3202221494784 1 0
-12.417464 18.343966 0.12874551 10 3202221490176 1 0
-8.86374 18.443228 0.23822312 11 3202221497088 1 0
-9.34712 15.392218 -1.2592438 57 3202221497088 1 0
-12.316122 18.21822 0.63999176 168 3202221499392 1 0
-8.672862 16.000053 -1.4857153 40 3202221499392 1 0
-10.041211 18.531193 0.36789674 38 3202221501696 1 0
-10.596852 15.680207 -1.2128907 1 3202221501696 1 0
-7.142197 14.878583 -0.9611543 1 3202221504000 1 0
-12.923889 21.304197 1.45115 37 3202221504000 1 0
-11.038958 18.203278 -0.9916713 52 3202221506304 1 0
-12.51136 23.115164 -1.3774824 64 3202221508608 1 0
-11.834331 19.521574 2.802995 20 3202221508608 1 0
-10.658377 19.6989 1.8284224 9 3202221510912 1 0
-10.135327 18.718533 0.8672279 38 3202221506304 1 0
-12.449253 18.44549 -0.90663254 4 3202221510912 1 0
-12.1634445 25.378542 -0.98276985 27 3202221513216 1 0
-10.7704115 17.77881 5.569786 6 3202221513216 1 0
-10.050312 18.588633 3.8528433 9 3202221515520 1 0
-22.939487 37.879463 -1.030464 15 3202221515520 1 0
-1.9588447 3.6349292 -1.9254488 3 3202221536256 1 0
-12.386486 18.419144 -0.38744342 4 3202221536256 1 0
-9.917477 18.409771 -0.608574 35 3202221538560 1 0
-3.8174245 6.3253045 -2.0681822 5 3202221538560 1 0
-5.501074 10.2151785 -2.3204598 17 3202221540864 1 0
-11.625187 19.268759 0 24 3202221540864 1 0
-8.9506645 18.769672 -0.24208796 21 3202221543168 1 0
-8.585617 14.235349 -2.5863106 8 3202221543168 1 0
-8.999411 16.723042 -2.4172788 3 3202221545472 1 0
0 0 0 3 3202221545472 1 0
-10.124926 18.821074 -0.12421222 40 3202221547776 1 0
-9.154159 15.1880045 -1.910183 75 3202221547776 1 0
-6.929616 14.54784 -1.5042068 27 3202221550080 1 0
-10.756427 17.85226 0.48498994 28 3202221550080 1 0
-8.643987 18.153742 0.2340789 13 3202221552384 1 0
-9.268781 15.388301 -1.2561746 60 3202221552384 1 0
-8.645289 16.087421 -1.4909226 32 3202221554688 1 0
-12.272602 18.29573 0.64115536 209 3202221554688 1 0
-10.004722 18.62359 0.36901367 29 3202221556992 1 0
0 0 0 4 3202221556992 1 0
-7.0835547 14.893327 -0.9604566 1 3202221559296 1 0
-11.801372 19.61234 1.3330115 30 3202221559296 1 0
-10.10218 18.818134 0.87015885 30 3202221561600 1 0
-10.930373 18.170835 -0.9877627 45 3202221561600 1 0
-11.49843 19.121479 2.7396228 16 3202221563904 1 0
-10.563471 19.69116 1.8241915 24 3202221566208 1 0
-12.400244 23.106985 -1.3743422 50 3202221563904 1 0
0 0 0 28 3202221566208 1 0
-12.254714 25.804493 -0.99756724 12 3202221568512 1 0
0 0 0 96 3202221568512 1 0
-9.993442 18.641596 3.8564305 28 3202221570816 1 0
0 0 0 42 3202221570816 1 0
-1.9478532 3.644942 -1.9271393 4 3202221591552 1 0
-18.207869 27.280912 -0.57250875 4 3202221591552 1 0
-9.787215 18.320847 -0.6045013 24 3202221593856 1 0
-3.793343 6.3352866 -2.0671039 5 3202221593856 1 0
-5.4764686 10.255078 -2.3251667 6 3202221596160 1 0
-10.559435 17.641201 0 9 3202221596160 1 0
-8.9141445 18.862278 -0.24287955 30 3202221598464 1 0
-8.533845 14.26184 -2.5856957 8 3202221598464 1 0
-8.970872 16.810364 -2.42536 3 3202221600768 1 0
-12.32857 18.495234 0.12918721 2 3202221600768 1 0
-10.044105 18.82807 -0.12402624 31 3202221603072 1 0
-9.082717 15.189146 -1.9063275 75 3202221603072 1 0
-6.8566904 14.52512 -1.4993737 32 3202221605376 1 0
-10.751495 17.985806 0.4875954 29 3202221605376 1 0
-8.5396 18.09699 0.23296136 13 3202221607680 1 0
-9.190446 15.379457 -1.2528262 61 3202221607680 1 0
-8.635954 16.20546 -1.4990591 34 3202221609984 1 0
-12.239683 18.385054 0.6427844 212 3202221609984 1 0
-9.915207 18.612513 0.36810616 36 3202221612288 1 0
0 0 0 4 3202221612288 1 0
-12.527038 20.983759 1.4232433 7 3202221614592 1 0
-10.013893 18.810947 0.8682049 30 3202221616896 1 0
-10.819782 18.129963 -0.9834818 49 3202221616896 1 0
-6.9515047 14.748194 -0.9495265 1 3202221614592 1 0
-12.330769 23.171288 -1.3755983 34 3202221619200 1 0
-11.356352 19.035347 2.7215862 21 3202221619200 1 0
-10.492799 19.724394 1.823866 18 3202221621504 1 0
-12.522236 18.839157 -0.92161286 40 3202221621504 1 0
-9.985634 21.217348 -0.8188818 16 3202221623808 1 0
-10.672432 17.900805 5.5842795 12 3202221623808 1 0
-9.93385 18.686789 3.858583 21 3202221626112 1 0
-10.775031 18.07887 -0.48973563 48 3202221626112 1 0
-1.9351181 3.651719 -1.9271393 3 3202221646296 1 0
-18.132406 27.374311 -0.57313704 4 3202221646296 1 0
-9.459302 17.856718 -0.58809423 36 3202221648600 1 0
-3.7692385 6.3451777 -2.0660255 4 3202221648600 1 0
0 0 0 12 3202221650904 1 0
-11.447494 19.277222 0 38 3202221650904 1 0
-9.219752 19.686537 -0.25307715 14 3202221653208 1 0
-8.48401 14.291541 -2.5856957 8 3202221653208 1 0
0 0 0 28 3202221655512 1 0
-21.588232 32.63276 0.22740856 5 3202221655512 1 0
-10.068098 19.032728 -0.12514213 31 3202221657816 1 0
-9.013409 15.193396 -1.9029003 72 3202221657816 1 0
-6.7924457 14.520105 -1.4963995 23 3202221660120 1 0
0 0 0 1 3202221660120 1 0
-8.578033 18.34408 0.23575522 13 3202221662424 1 0
-9.126532 15.394283 -1.2514311 34 3202221662424 1 0
-8.624038 16.3201 -1.50687 30 3202221664728 1 0
-12.215107 18.487713 0.644879 202 3202221664728 1 0
-9.863254 18.671764 0.36859483 34 3202221667032 1 0
0 0 0 4 3202221667032 1 0
-6.8982916 14.768751 -0.9492939 1 3202221669336 1 0
-12.400806 20.938026 1.4171968 36 3202221669336 1 0
-9.89966 18.753891 0.8639713 27 3202221671640 1 0
-10.729967 18.122925 -0.98106223 61 3202221671640 1 0
-12.283366 23.277779 -1.3793665 60 3202221673944 1 0
-11.295904 19.085123 2.7230487 31 3202221673944 1 0
-10.622912 20.138206 1.85869 9 3202221676248 1 0
-12.575241 19.062906 -0.9304056 47 3202221676248 1 0
-12.275336 26.320547 -1.0141793 12 3202221678552 1 0
-10.544971 17.828205 5.5501156 29 3202221678552 1 0
-9.986 18.944141 3.9045014 20 3202221680856 1 0
-10.817696 18.295368 -0.49457437 34 3202221680856 1 0
-1.9240457 3.661661 -1.9288298 4 3202221701592 1 0
-24.908718 37.89107 -0.7915015 23 3202221701592 1 0
-9.422943 17.939184 -0.5897233 26 3202221703896 1 0
-3.7470665 6.358296 -2.0660255 4 3202221703896 1 0
-5.401095 10.286116 -2.3235977 2 3202221706200 1 0
-10.90097 18.503714 0 32 3202221706200 1 0
-8.985973 19.363049 -0.24851385 14 3202221708504 1 0
-8.432065 14.317663 -2.5850809 9 3202221708504 1 0
-9.210967 17.554232 -2.5233443 26 3202221710808 1 0
-21.403942 32.600918 0.22666463 5 3202221710808 1 0
-10.018322 19.099638 -0.12535135 36 3202221713112 1 0
0 0 0 17 3202221713112 1 0
-6.7149205 14.485913 -1.4904511 25 3202221715416 1 0
-10.897395 18.522276 0.50006443 20 3202221715416 1 0
-8.539172 18.428347 0.23645368 17 3202221717720 1 0
0 0 0 1 3202221717720 1 0
-8.620677 16.452515 -1.5163083 27 3202221720024 1 0
-12.174615 18.567019 0.64615893 148 3202221720024 1 0
-9.781316 18.674194 0.36796653 34 3202221722328 1 0
0 0 0 4 3202221722328 1 0
-6.831601 14.760125 -0.94720095 1 3202221724632 1 0
-11.724815 19.955193 1.347895 33 3202221724632 1 0
-9.837844 18.795416 0.864297 30 3202221726936 1 0
-10.684854 18.191277 -0.9827373 71 3202221726936 1 0
-11.26741 19.189486 2.7323108 22 3202221729240 1 0
-9.198288 17.579754 -1.0398108 55 3202221729240 1 0
-10.713307 20.482508 1.8870049 16 3202221731544 1 0
-12.585241 19.22372 -0.9361046 52 3202221731544 1 0
-12.252143 26.512016 -1.019903 4 3202221733848 1 0
-10.443568 17.798258 5.52941 10 3202221733848 1 0
-10.840768 18.481337 -0.49857563 34 3202221736152 1 0
-9.965383 19.06607 3.9224384 15 3202221736152 1 0
-1.9112524 3.6683547 -1.9288298 4 3202221756888 1 0
-24.75445 37.94429 -0.79080343 23 3202221756888 1 0
-9.400899 18.049984 -0.59228325 42 3202221759192 1 0
-3.7287374 6.3779874 -2.0681822 4 3202221759192 1 0
-5.3561 10.287511 -2.3196752 2 3202221761496 1 0
-10.94934 18.735046 0 27 3202221761496 1 0
-8.928355 19.4161 -0.24879323 9 3202221763800 1 0
-8.378048 14.340184 -2.583851 9 3202221763800 1 0
-9.11484 17.519396 -2.5137477 28 3202221766104 1 0
-21.265993 32.63857 0.22640891 5 3202221766104 1 0
-9.896222 19.02803 -0.12465393 40 3202221768408 1 0
-8.887068 15.221605 -1.8986164 5 3202221768408 1 0
-6.642704 14.462215 -1.485618 25 3202221770712 1 0
0 0 0 1 3202221770712 1 0
-8.494821 18.501661 0.23701245 11 3202221773016 1 0
-9.057044 15.523107 -1.2567326 1 3202221773016 1 0
-9.068642 17.455395 -1.6058092 35 3202221775320 1 0
-12.144622 18.663023 0.64802074 116 3202221775320 1 0
0 0 0 4 3202221777624 1 0
-6.7151165 14.642323 -0.9381312 1 3202221779928 1 0
-9.837729 18.942476 0.37257397 36 3202221777624 1 0
-11.70737 20.0857 1.3539416 6 3202221779928 1 0
-9.7905855 18.865116 0.86592525 27 3202221782232 1 0
-10.615254 18.218105 -0.982179 35 3202221782232 1 0
-9.101916 17.544384 -1.0358332 52 3202221784536 1 0
-11.414173 19.595778 2.7844708 19 3202221784536 1 0
-10.733516 20.696735 1.9032778 22 3202221786840 1 0
-12.520239 19.270885 -0.93626744 32 3202221786840 1 0
-12.261047 26.776335 -1.0284184 12 3202221789144 1 0
-10.614623 18.235308 5.653643 9 3202221789144 1 0
-9.806426 18.922556 3.885847 22 3202221791448 1 0
-10.496629 18.038633 -0.4856413 24 3202221791448 1 0
-1.8917805 3.6621203 -1.9220679 4 3202221812184 1 0
-24.53056 37.889465 -0.7878714 23 3202221812184 1 0
-9.391301 18.185577 -0.59565777 26 3202221814488 1 0
-3.7065442 6.3909106 -2.0681822 4 3202221814488 1 0
-5.3276544 10.319931 -2.3228133 1 3202221816792 1 0
-10.563406 18.219168 0 38 3202221816792 1 0
-8.901179 19.534113 -0.24991077 29 3202221819096 1 0
-8.336496 14.382656 -2.5863106 9 3202221819096 1 0
0 0 0 15 3202221821400 1 0
-21.069126 32.58038 0.22550225 5 3202221821400 1 0
-9.799958 19.00131 -0.12425871 34 3202221823704 1 0
-8.829009 15.241568 -1.8973314 2 3202221823704 1 0
-6.5802445 14.455741 -1.4826437 28 3202221826008 1 0
-19.8876 34.342438 0.9234536 6 3202221826008 1 0
-8.2631 18.159008 0.2322629 21 3202221828312 1 0
-8.980396 15.51227 -1.2533844 1 3202221828312 1 0
-8.9987335 17.464632 -1.6038564 52 3202221830616 1 0
0 0 0 6 3202221830616 1 0
-9.882083 19.185192 0.37669274 27 3202221832920 1 0
-9.898364 15.32839 -1.1693996 1 3202221832920 1 0
0 0 0 23 3202221835224 1 0
-11.0823 19.160337 1.2890583 6 3202221835224 1 0
-9.731357 18.904728 0.86625093 22 3202221837528 1 0
-10.504515 18.166883 -0.97752583 24 3202221837528 1 0
-9.007132 17.503435 -1.0316464 52 3202221839832 1 0
-11.080898 19.169493 2.7186613 26 3202221839832 1 0
-10.676067 20.75333 1.9052305 52 3202221842136 1 0
-12.040606 18.66726 -0.90500426 6 3202221842136 1 0
-6.540057 14.407449 -0.55252886 6 3202221844440 1 0
-10.60101 18.350393 5.6784897 15 3202221844440 1 0
-9.733655 18.933546 3.8815422 20 3202221846744 1 0
-10.577535 18.31529 -0.492155 38 3202221846744 1 0
-1.8835737 3.6744976 -1.9254488 3 3202221867480 1 0
-20.970102 32.614185 -0.6768043 6 3202221867480 1 0
-3.6863086 6.4026036 -2.0681822 4 3202221869784 1 0
-9.3446665 18.236546 -0.596356 15 3202221869784 1 0
-5.2911797 10.329866 -2.3212442 1 3202221872088 1 0
-10.477386 18.204185 0 35 3202221872088 1 0
-8.731443 19.325636 -0.2468841 21 3202221874392 1 0
-8.278501 14.388762 -2.582621 10 3202221874392 1 0
-7.558844 14.768099 -2.1117098 12 3202221876696 1 0
-20.94653 32.62131 0.22531627 5 3202221876696 1 0
-9.707168 18.97253 -0.1238635 36 3202221879000 1 0
-8.823027 15.346039 -1.9067558 1 3202221879000 1 0
-6.506693 14.419114 -1.4766953 10 3202221881304 1 0
-11.160861 19.419134 0.52118737 6 3202221881304 1 0
-8.190077 18.156961 0.23189038 19 3202221883608 1 0
0 0 0 47 3202221885912 1 0
-8.935209 15.55215 -1.2542214 1 3202221883608 1 0
0 0 0 6 3202221885912 1 0
-9.747028 19.07917 0.37397015 31 3202221888216 1 0
-10.060416 15.694045 -1.1947268 1 3202221888216 1 0
-6.531497 14.497696 -0.9260383 14 3202221890520 1 0
0 0 0 3 3202221890520 1 0
-9.783672 19.165346 0.87667197 24 3202221892824 1 0
-10.397289 18.12259 -0.97324497 22 3202221892824 1 0
-8.913012 17.466385 -1.0276688 55 3202221895128 1 0
-11.331622 19.758131 2.7966578 28 3202221895128 1 0
-10.590428 20.761366 1.9026269 13 3202221897432 1 0
-11.905486 18.597313 -0.8996309 15 3202221897432 1 0
-6.4755974 14.397096 -0.55127245 4 3202221899736 1 0
-10.585723 18.47063 5.704372 13 3202221899736 1 0
-9.696511 19.023293 3.8930218 17 3202221902040 1 0
-10.404605 18.161032 -0.4870371 100 3202221902040 1 0
-1.8717352 3.6846087 -1.9271393 3 3202221922776 1 0
-20.826769 32.653736 -0.6760364 6 3202221922776 1 0
-9.323154 18.35973 -0.599265 2 3202221925080 1 0
-3.660954 6.4127 -2.0671039 5 3202221925080 1 0
-5.2569847 10.356109 -2.3228133 1 3202221927384 1 0
-10.537748 18.464655 0 36 3202221927384 1 0
0 0 0 28 3202221929688 1 0
-8.224064 14.415396 -2.5820062 9 3202221929688 1 0
-7.479965 14.745943 -2.1046388 31 3202221931992 1 0
-20.74182 32.562313 0.22438636 5 3202221931992 1 0
-9.625592 18.982658 -0.12370077 40 3202221934296 1 0
-8.810615 15.453963 -1.9161804 3 3202221934296 1 0
-6.438181 14.406223 -1.4729776 7 3202221936600 1 0
-19.834518 34.801834 0.9321075 6 3202221936600 1 0
-8.295697 18.569893 0.23677963 19 3202221938904 1 0
-8.963879 15.733425 -1.2662195 1 3202221938904 1 0
-7.422027 14.652847 -1.3408865 4 3202221941208 1 0
-20.729473 32.584755 1.1239419 4 3202221941208 1 0
-9.662025 19.082022 0.3733419 25 3202221943512 1 0
-9.791783 15.396692 -1.1693996 1 3202221943512 1 0
-6.4338117 14.41896 -0.91952676 6 3202221945816 1 0
-10.820435 19.01134 1.2739422 6 3202221945816 1 0
-9.763617 19.296587 0.8810684 49 3202221948120 1 0
-10.290754 18.086819 -0.9693364 20 3202221948120 1 0
-8.814404 17.426874 -1.023482 52 3202221950424 1 0
-11.266746 19.8089 2.79812 20 3202221950424 1 0
-10.509033 20.784817 1.901325 16 3202221952728 1 0
-11.783294 18.551989 -0.89539737 9 3202221952728 1 0
-6.406359 14.379911 -0.54973686 4 3202221955032 1 0
0 0 0 49 3202221955032 1 0
-10.397247 18.298746 -0.48973563 28 3202221957336 1 0
-9.65542 19.110338 3.903784 20 3202221957336 1 0
-1.855601 3.6846442 -1.9237583 2 3202221978072 1 0
-20.609993 32.564022 -0.67268556 6 3202221978072 1 0
0 0 0 46 3202221980376 1 0
-3.6366494 6.422088 -2.0660255 5 3202221980376 1 0
-5.2172766 10.367389 -2.3212442 1 3202221982680 1 0
-10.500817 18.550058 0 48 3202221982680 1 0
-23.245165 52.44334 -0.66782564 8 3202221984984 1 0
-8.1600685 14.419936 -2.5777018 9 3202221984984 1 0
-20.692144 32.73595 0.2250838 5 3202221987288 1 0
-7.4017067 14.718788 -2.0970626 25 3202221987288 1 0
-8.928695 17.761742 -0.11554085 24 3202221989592 1 0
-8.772278 15.512319 -1.9196075 2 3202221989592 1 0
-6.3685074 14.384908 -1.4685162 6 3202221991896 1 0
0 0 0 22 3202221991896 1 0
-9.6908455 21.897865 0.27878067 15 3202221994200 1 0
-8.903014 15.754197 -1.2653824 1 3202221994200 1 0
-7.390513 14.717856 -1.3444666 1 3202221996504 1 0
-13.156081 20.84038 0.7172562 2 3202221996504 1 0
-9.570239 19.065592 0.37236455 34 3202221998808 1 0
0 0 0 4 3202221998808 1 0
-6.3592243 14.386545 -0.9160384 6 3202222001112 1 0
0 0 0 15 3202222001112 1 0
-9.678281 19.294825 0.87944007 24 3202222003416 1 0
-10.192208 18.059994 -0.96598613 6 3202222003416 1 0
-8.730243 17.411116 -1.0207605 57 3202222005720 1 0
-10.815176 19.170368 2.7025745 13 3202222005720 1 0
-10.43463 20.81781 1.9009995 9 3202222008024 1 0
-12.683814 20.124674 -0.96915895 7 3202222008024 1 0
-6.346441 14.380243 -0.5488993 4 3202222010328 1 0
