# .PCD v.7 - Point Cloud Data file format
VERSION .7
FIELDS x y z rgb timestamp_ns device_id active
SIZE 4 4 4 4 8 1 1
TYPE F F F F F U U
COUNT 1 1 1 1 1 1 1
WIDTH 993
HEIGHT 1
VIEWPOINT 0 0 0 1 0 0 0
POINTS 993               
DATA ascii
10.890745 -33.21554 0.20316125 71 3199675938288 1 0
12.170373 -54.697433 -0.32567638 30 3199675940592 1 0
4.1832037 -15.245036 -1.7028431 3 3199675940592 1 0
3.266175 -19.03788 -1.8031149 2 3199675942896 1 0
13.394031 -48.843082 1.1785107 60 3199675942896 1 0
9.458976 -55.18745 0.6518541 19 3199675945200 1 0
6.49141 -23.686632 -1.7174044 7 3199675945200 1 0
4.676077 -21.063423 -1.7613782 4 3199675947504 1 0
10.865069 -33.209007 1.0168887 76 3199675947504 1 0
12.144116 -54.744656 0.9788008 37 3199675949808 1 0
8.130033 -24.862844 -1.676455 8 3199675949808 1 0
5.0318184 -29.442509 -1.7395195 8 3199675952112 1 0
13.357474 -48.832287 2.9483461 53 3199675952112 1 0
12.0941925 -54.602234 2.278468 64 3199675954416 1 0
6.3791265 -28.821987 -1.5470508 41 3199675956720 1 0
10.264085 -37.570694 4.782153 7 3199675956720 1 0
7.7293577 -28.274776 -1.3654093 43 3199675954416 1 0
0 0 0 8 3199675959024 1 0
9.036477 -27.69487 -1.1868615 41 3199675959024 1 0
0 0 0 9 3199675961328 1 0
6.5922465 -29.852802 5.5740666 24 3199675963632 1 0
0 0 0 108 3199675963632 1 0
0 0 0 4 3199675984368 1 0
4.8594046 -28.543661 -1.0111082 24 3199675961328 1 0
9.060439 -27.934925 -0.5126121 27 3199675984368 1 0
11.9783125 -54.651016 -1.6282554 50 3199675986672 1 0
1.5948691 -5.885315 -1.7069511 6 3199675986672 1 0
1.854747 -8.467578 -1.7336768 4 3199675988976 1 0
7.6557508 -28.265564 0 16 3199675988976 1 0
9.366769 -55.689945 -0.6574418 8 3199675991280 1 0
2.7637596 -10.209289 -1.6454986 35 3199675991280 1 0
2.3057327 -10.539689 -1.3732932 10 3199675993584 1 0
10.762068 -33.240643 0.20306827 66 3199675993584 1 0
11.969931 -54.749836 -0.3257229 30 3199675995888 1 0
4.126856 -15.260386 -1.7028431 3 3199675995888 1 0
3.2082386 -19.120424 -1.809807 2 3199675998192 1 0
14.657972 -54.230766 1.3072023 10 3199675998192 1 0
9.313138 -55.54889 0.6557189 9 3199676000496 1 0
6.4406223 -23.841053 -1.7268913 7 3199676000496 1 0
10.741526 -33.23657 1.0165396 72 3199676002800 1 0
11.938793 -54.744774 0.9780328 37 3199676005104 1 0
4.62217 -21.181423 -1.76984 4 3199676002800 1 0
8.0324335 -24.865183 -1.6746643 11 3199676005104 1 0
4.9279594 -29.464119 -1.739752 12 3199676007408 1 0
13.188252 -48.894802 2.9492762 35 3199676007408 1 0
11.901932 -54.644463 2.278468 64 3199676009712 1 0
7.62251 -28.274801 -1.3641064 43 3199676009712 1 0
6.2861266 -28.879208 -1.5489349 46 3199676012016 1 0
10.132875 -37.606297 4.782153 7 3199676012016 1 0
0 0 0 8 3199676014320 1 0
8.9491415 -27.752611 -1.1880013 33 3199676014320 1 0
4.747596 -28.477367 -1.0081767 28 3199676016624 1 0
0 0 0 9 3199676016624 1 0
6.4972916 -29.905828 5.579807 24 3199676018928 1 0
0 0 0 22 3199676018928 1 0
10.677227 -33.275623 -0.6099965 37 3199676039664 1 0
11.815047 -54.73154 -1.6295353 50 3199676041968 1 0
0 0 0 4 3199676039664 1 0
1.5762864 -5.8903193 -1.7069511 7 3199676041968 1 0
1.8311982 -8.488752 -1.7368147 5 3199676044272 1 0
7.5671244 -28.29356 0 12 3199676044272 1 0
2.7261236 -10.198949 -1.6424241 34 3199676046576 1 0
9.286964 -56.311462 -0.66442645 8 3199676046576 1 0
10.65443 -33.2711 0.20304501 71 3199676048880 1 0
11.797254 -54.80367 -0.3258159 30 3199676051184 1 0
2.2786813 -10.578045 -1.3773338 4 3199676048880 1 0
4.0818863 -15.288942 -1.7045566 3 3199676051184 1 0
3.1471312 -19.134613 -1.8101786 2 3199676053488 1 0
14.468359 -54.22372 1.3058996 21 3199676053488 1 0
6.36429 -23.865671 -1.7271703 7 3199676055792 1 0
14.152074 -86.12307 1.0160803 28 3199676055792 1 0
10.629534 -33.25996 1.0161905 63 3199676058096 1 0
4.553138 -21.196371 -1.76984 4 3199676058096 1 0
11.759578 -54.78355 0.9780328 50 3199676060400 1 0
7.9546638 -24.902744 -1.6754317 30 3199676060400 1 0
4.8349576 -29.503801 -1.7411474 12 3199676062704 1 0
14.406019 -54.11646 3.2613666 47 3199676062704 1 0
11.719779 -54.675644 2.2781422 100 3199676065008 1 0
7.5291166 -28.299814 -1.3641064 48 3199676065008 1 0
6.1961813 -28.927237 -1.5504004 46 3199676067312 1 0
10.001992 -37.61667 4.779228 7 3199676067312 1 0
0 0 0 8 3199676069616 1 0
4.6374903 -28.402348 -1.0049659 28 3199676071920 1 0
8.913711 -27.961233 -1.1956543 37 3199676069616 1 0
0 0 0 9 3199676071920 1 0
6.4000688 -29.942883 5.5826764 20 3199676074224 1 0
0 0 0 3 3199676074224 1 0
0 0 0 4 3199676094960 1 0
10.556174 -33.29744 -0.60971725 53 3199676094960 1 0
11.628941 -54.799995 -1.6303499 50 3199676097264 1 0
1.5566127 -5.899533 -1.7080295 7 3199676097264 1 0
1.7996814 -8.487472 -1.7352458 4 3199676099568 1 0
7.4664717 -28.316153 0 8 3199676099568 1 0
9.039481 -56.04383 -0.6608876 16 3199676101872 1 0
2.6880462 -10.200875 -1.6411942 31 3199676101872 1 0
2.242771 -10.593828 -1.3783439 2 3199676104176 1 0
10.535084 -33.304886 0.20302176 71 3199676104176 1 0
11.60272 -54.849274 -0.32583913 20 3199676106480 1 0
4.031429 -15.318774 -1.7062702 3 3199676106480 1 0
3.07612 -19.130022 -1.8086916 2 3199676108784 1 0
14.27019 -54.25967 1.3055274 21 3199676108784 1 0
13.842588 -86.173355 1.0160803 28 3199676111088 1 0
6.2805414 -23.8961 -1.7277284 7 3199676111088 1 0
4.479122 -21.224358 -1.7708164 4 3199676113392 1 0
10.504683 -33.282833 1.0157251 72 3199676113392 1 0
11.559449 -54.81795 0.97789323 12 3199676115696 1 0
7.8752327 -24.96565 -1.6777341 44 3199676115696 1 0
4.72891 -29.529072 -1.7416126 12 3199676118000 1 0
14.207126 -54.16076 3.2609015 47 3199676118000 1 0
11.52257 -54.729797 2.2786307 100 3199676120304 1 0
7.425754 -28.327112 -1.3641064 43 3199676120304 1 0
6.0958724 -28.977114 -1.5518658 46 3199676122608 1 0
9.8620405 -37.645393 4.778253 7 3199676122608 1 0
0 0 0 8 3199676124912 1 0
8.81796 -28.016718 -1.1966312 41 3199676124912 1 0
4.5205703 -28.34428 -1.0023135 32 3199676127216 1 0
0 0 0 9 3199676127216 1 0
6.299479 -30.01648 5.592004 20 3199676129520 1 0
14.167769 -54.18731 -1.3032942 11 3199676129520 1 0
0 0 0 4 3199676150256 1 0
10.424662 -33.326275 -0.60950786 53 3199676150256 1 0
11.417588 -54.83217 -1.6300008 50 3199676152560 1 0
1.5341206 -5.9054217 -1.7080295 7 3199676152560 1 0
1.7691711 -8.501897 -1.7368147 4 3199676154864 1 0
7.3583345 -28.340313 0 8 3199676154864 1 0
4.4708557 -28.39625 -0.33465785 2 3199676157168 1 0
2.6467707 -10.199413 -1.6393496 26 3199676157168 1 0
2.2049255 -10.609876 -1.3793541 4 3199676159472 1 0
10.4038515 -33.320972 0.20288229 71 3199676159472 1 0
11.3991995 -54.887848 -0.3258159 20 3199676161776 1 0
3.9758077 -15.337413 -1.7066985 3 3199676161776 1 0
3.0103092 -19.168709 -1.811294 2 3199676164080 1 0
14.072226 -54.31548 1.3056204 21 3199676164080 1 0
13.529162 -86.223114 1.0160803 28 3199676166384 1 0
6.1946115 -23.922642 -1.7280073 7 3199676166384 1 0
4.403346 -21.24428 -1.7711419 4 3199676168688 1 0
10.382183 -33.312874 1.0154923 68 3199676168688 1 0
11.368108 -54.882458 0.9783121 19 3199676170992 1 0
7.8060403 -25.058458 -1.6820832 55 3199676170992 1 0
0 0 0 61 3199676173296 1 0
14.013829 -54.20697 3.2606688 71 3199676173296 1 0
11.328245 -54.762188 2.278305 86 3199676175600 1 0
7.323005 -28.341467 -1.363548 43 3199676175600 1 0
6.000347 -29.025599 -1.5533311 41 3199676177904 1 0
9.729581 -37.675747 4.7777658 7 3199676177904 1 0
0 0 0 8 3199676180208 1 0
8.713805 -28.024176 -1.1956543 41 3199676180208 1 0
4.4121637 -28.288534 -0.9998008 32 3199676182512 1 0
0 0 0 9 3199676182512 1 0
6.208417 -30.0917 5.6020484 20 3199676184816 1 0
13.988259 -54.254574 -1.3037595 22 3199676184816 1 0
0 0 0 4 3199676205552 1 0
10.330551 -33.39325 -0.61013615 16 3199676205552 1 0
11.243667 -54.859936 -1.6297681 50 3199676207856 1 0
1.5155605 -5.910212 -1.7080295 7 3199676207856 1 0
1.7424529 -8.507413 -1.7368147 5 3199676210160 1 0
4.3736987 -28.358765 -0.33405253 2 3199676212464 1 0
2.6147153 -10.207678 -1.6393496 34 3199676212464 1 0
2.1723778 -10.620638 -1.3798592 4 3199676214768 1 0
0 0 0 58 3199676210160 1 0
10.303841 -33.36878 0.20297527 20 3199676214768 1 0
11.219499 -54.88812 -0.32560664 20 3199676217072 1 0
3.9315476 -15.365239 -1.7084122 3 3199676217072 1 0
2.9506798 -19.182007 -1.8116658 2 3199676219376 1 0
13.900528 -54.355545 1.3055274 21 3199676219376 1 0
12.860247 -83.67577 0.9855807 28 3199676221680 1 0
6.126343 -23.969046 -1.7299606 8 3199676221680 1 0
4.336583 -21.258009 -1.7711419 4 3199676223984 1 0
10.296319 -33.40646 1.0173541 17 3199676223984 1 0
11.1940365 -54.910065 0.9781725 19 3199676226288 1 0
7.7343297 -25.105747 -1.6836183 57 3199676226288 1 0
13.840502 -54.23912 3.2599711 47 3199676228592 1 0
11.156946 -54.801422 2.278468 100 3199676230896 1 0
7.231957 -28.35659 -1.3631757 43 3199676230896 1 0
5.9099274 -29.048222 -1.5535405 41 3199676233200 1 0
9.605288 -37.683044 4.774841 7 3199676233200 1 0
0 0 0 8 3199676235504 1 0
8.606927 -27.99029 -1.193049 28 3199676235504 1 0
4.3124056 -28.231123 -0.997288 40 3199676237808 1 0
0 0 0 9 3199676237808 1 0
4.3128195 -28.135136 -1.6576598 15 3199676228592 1 0
6.127945 -30.180471 5.614963 15 3199676240112 1 0
0 0 0 35 3199676240112 1 0
0 0 0 4 3199676261296 1 0
12.372404 -40.493587 -0.7390745 21 3199676261296 1 0
11.052082 -54.90701 -1.6300008 50 3199676263600 1 0
1.4947487 -5.9155097 -1.7080295 5 3199676263600 1 0
1.7137973 -8.521234 -1.7383837 4 3199676265904 1 0
0 0 0 3 3199676265904 1 0
0 0 0 16 3199676268208 1 0
2.5810776 -10.228465 -1.6411942 18 3199676268208 1 0
2.1363986 -10.640076 -1.3813744 8 3199676270512 1 0
12.63275 -41.44055 0.25179535 68 3199676270512 1 0
0 0 0 66 3199676272816 1 0
3.876624 -15.383289 -1.7088405 3 3199676272816 1 0
2.8821278 -19.20451 -1.8127811 2 3199676275120 1 0
13.706095 -54.425518 1.3059927 21 3199676275120 1 0
12.931732 -86.26216 1.0154749 28 3199676277424 1 0
6.037753 -23.991514 -1.7299606 8 3199676277424 1 0
4.2652254 -21.3131 -1.7743964 4 3199676279728 1 0
12.596451 -41.416485 1.2598529 60 3199676279728 1 0
10.98791 -54.951683 0.9781725 14 3199676282032 1 0
7.660964 -25.20334 -1.6882232 57 3199676282032 1 0
4.2158365 -28.214434 -1.6613806 15 3199676284336 1 0
13.630432 -54.271706 3.2588084 71 3199676284336 1 0
10.94882 -54.847458 2.2786307 86 3199676286640 1 0
5.7858453 -29.00802 -1.550191 32 3199676288944 1 0
9.461491 -37.7235 4.775328 7 3199676288944 1 0
0 0 0 8 3199676291248 1 0
7.126766 -28.395569 -1.3637341 43 3199676286640 1 0
8.488134 -27.988956 -1.1915835 33 3199676291248 1 0
0 0 0 9 3199676293552 1 0
4.2093897 -28.295168 -0.9989632 28 3199676293552 1 0
6.0232015 -30.273775 5.627877 15 3199676295856 1 0
13.606352 -54.35985 -1.3039455 22 3199676295856 1 0
0 0 0 4 3199676316592 1 0
12.498392 -41.475143 -0.75610805 59 3199676316592 1 0
10.841972 -54.948883 -1.6300008 33 3199676318896 1 0
1.4702512 -5.913708 -1.7058729 5 3199676318896 1 0
1.6805549 -8.523854 -1.7375993 4 3199676321200 1 0
13.525549 -54.436863 0 22 3199676321200 1 0
0 0 0 56 3199676323504 1 0
2.5412784 -10.234353 -1.6405793 8 3199676323504 1 0
2.100746 -10.671438 -1.3844048 9 3199676325808 1 0
12.473646 -41.480366 0.25174886 68 3199676325808 1 0
5.7345333 -29.152843 -0.17268358 7 3199676328112 1 0
3.8215196 -15.409364 -1.7101257 2 3199676328112 1 0
2.8083146 -19.203367 -1.8116658 2 3199676330416 1 0
13.504655 -54.48821 1.3062718 21 3199676330416 1 0
5.9518704 -24.029408 -1.7310766 8 3199676332720 1 0
12.349015 -84.52892 0.994521 28 3199676332720 1 0
12.443304 -41.466927 1.2599692 30 3199676335024 1 0
4.1866074 -21.332745 -1.7747219 4 3199676335024 1 0
10.784799 -54.99598 0.9782423 87 3199676337328 1 0
7.5823445 -25.281286 -1.6915491 52 3199676337328 1 0
4.3285503 -29.719547 -1.7490543 8 3199676339632 1 0
13.428886 -54.317814 3.258576 70 3199676339632 1 0
10.744618 -54.87561 2.2781422 100 3199676341936 1 0
7.0270224 -28.440996 -1.3646648 43 3199676341936 1 0
9.3212595 -37.750214 4.7743535 7 3199676344240 1 0
0 0 0 8 3199676346544 1 0
8.365273 -27.950838 -1.1886526 37 3199676346544 1 0
5.6641474 -28.950628 -1.5460042 32 3199676344240 1 0
4.1236935 -28.42897 -1.0031512 20 3199676348848 1 0
0 0 0 9 3199676348848 1 0
5.9293556 -30.376495 5.6429443 15 3199676351152 1 0
13.407482 -54.40101 -1.3037595 45 3199676351152 1 0
0 0 0 4 3199676371888 1 0
11.926967 -40.08486 -0.72999924 35 3199676371888 1 0
5.6554384 -29.19672 -0.8655016 14 3199676374192 1 0
1.4515184 -5.9262657 -1.7080295 5 3199676374192 1 0
1.6517844 -8.533471 -1.7383837 3 3199676376496 1 0
13.33513 -54.475586 0 22 3199676376496 1 0
12.004169 -83.84732 -0.98609287 14 3199676378800 1 0
2.0618448 -10.666898 -1.3828896 8 3199676381104 1 0
2.5041068 -10.2353735 -1.6393496 8 3199676378800 1 0
12.327776 -41.511433 0.25167912 68 3199676381104 1 0
5.637892 -29.187983 -0.17277656 27 3199676383408 1 0
3.7716615 -15.433925 -1.7114109 2 3199676383408 1 0
13.31344 -54.510548 1.3057135 21 3199676385712 1 0
2.746882 -19.240412 -1.8142682 2 3199676385712 1 0
12.451056 -87.29453 1.0265573 28 3199676388016 1 0
5.873243 -24.06107 -1.7319137 8 3199676388016 1 0
4.115355 -21.350666 -1.7750473 4 3199676390320 1 0
12.299903 -41.497177 1.2596201 60 3199676390320 1 0
10.598452 -55.02405 0.9781027 62 3199676392624 1 0
7.517773 -25.375511 -1.696154 41 3199676392624 1 0
13.246161 -54.358555 3.2583432 47 3199676394928 1 0
4.233044 -29.761536 -1.7506822 8 3199676394928 1 0
6.9379287 -28.487535 -1.3657815 43 3199676397232 1 0
10.561787 -54.91109 2.2781422 86 3199676397232 1 0
5.5537868 -28.89472 -1.5420266 32 3199676399536 1 0
9.196024 -37.78092 4.7743535 7 3199676399536 1 0
0 0 0 8 3199676401840 1 0
8.312611 -28.112446 -1.1943516 41 3199676401840 1 0
0 0 0 9 3199676404144 1 0
4.044806 -28.54528 -1.0067806 24 3199676404144 1 0
5.8521547 -30.511679 5.664469 15 3199676406448 1 0
13.226551 -54.432934 -1.3034803 56 3199676406448 1 0
0 0 0 4 3199676427184 1 0
11.7558365 -39.96866 -0.7272069 42 3199676427184 1 0
1.430998 -5.923329 -1.7058729 6 3199676429488 1 0
1.6254524 -8.542519 -1.7391682 3 3199676431792 1 0
10.479546 -55.031364 -1.6303499 50 3199676429488 1 0
13.162338 -54.517593 0 22 3199676431792 1 0
11.675516 -83.44544 -0.98092425 14 3199676434096 1 0
2.470565 -10.239456 -1.6387346 8 3199676434096 1 0
2.0284433 -10.67734 -1.3833947 9 3199676436400 1 0
12.19376 -41.54683 0.25165588 68 3199676436400 1 0
10.456251 -55.083405 -0.32586238 10 3199676438704 1 0
3.7248275 -15.457567 -1.712696 2 3199676438704 1 0
2.687494 -19.268904 -1.8161271 2 3199676441008 1 0
13.1383 -54.55714 1.3058066 21 3199676441008 1 0
12.150749 -87.21165 1.0251138 28 3199676443312 1 0
5.8241158 -24.200256 -1.7405635 8 3199676443312 1 0
4.048741 -21.37963 -1.7763492 4 3199676445616 1 0
12.160147 -41.521683 1.2591547 66 3199676445616 1 0
10.421304 -55.074158 0.97838193 50 3199676447920 1 0
7.4548764 -25.468935 -1.7007589 27 3199676447920 1 0
13.064613 -54.390152 3.2576456 47 3199676450224 1 0
4.145631 -29.85044 -1.7551007 12 3199676450224 1 0
10.38192 -54.953518 2.278468 64 3199676452528 1 0
6.8531637 -28.549139 -1.3676428 43 3199676452528 1 0
5.4446006 -28.842325 -1.5382584 27 3199676454832 1 0
9.066057 -37.7919 4.771916 7 3199676454832 1 0
0 0 0 8 3199676457136 1 0
8.164027 -27.951994 -1.186373 33 3199676457136 1 0
0 0 0 9 3199676459440 1 0
3.9640787 -28.665567 -1.0105498 28 3199676459440 1 0
5.7809253 -30.697454 5.69532 10 3199676461744 1 0
13.044526 -54.480953 -1.3035734 67 3199676461744 1 0
0 0 0 4 3199676482480 1 0
11.58837 -39.913433 -0.7254616 56 3199676482480 1 0
10.291058 -55.08726 -1.6309317 34 3199676484784 1 0
1.4112045 -5.9320354 -1.7069511 5 3199676484784 1 0
1.597063 -8.555852 -1.7407371 4 3199676487088 1 0
12.999711 -54.67995 0 22 3199676487088 1 0
11.148549 -81.7578 -0.9606222 14 3199676489392 1 0
2.4348075 -10.248017 -1.6387346 8 3199676489392 1 0
1.9911602 -10.684355 -1.3833947 10 3199676491696 1 0
12.040869 -41.562244 0.25149313 68 3199676491696 1 0
0 0 0 100 3199676494000 1 0
3.6736026 -15.482084 -1.7139812 2 3199676494000 1 0
2.620753 -19.282114 -1.8164989 2 3199676496304 1 0
12.949626 -54.61045 1.3059927 21 3199676496304 1 0
11.875845 -87.47152 1.0276748 28 3199676498608 1 0
5.7405257 -24.224321 -1.7408426 8 3199676498608 1 0
3.9755437 -21.40147 -1.7770001 4 3199676500912 1 0
10.228995 -55.1102 0.97838193 37 3199676503216 1 0
12.014025 -41.560036 1.2590383 60 3199676500912 1 0
7.3814397 -25.548492 -1.7043405 16 3199676503216 1 0
12.874677 -54.435425 3.2576456 47 3199676505520 1 0
10.190761 -54.99335 2.2786307 64 3199676507824 1 0
6.7626576 -28.611773 -1.369504 48 3199676507824 1 0
0 0 0 10 3199676505520 1 0
8.93317 -37.819454 4.7714286 7 3199676510128 1 0
5.3249803 -28.759033 -1.5328155 31 3199676510128 1 0
0 0 0 8 3199676512432 1 0
3.8773375 -28.778275 -1.0140398 28 3199676514736 1 0
8.095191 -28.080168 -1.1906066 37 3199676512432 1 0
5.716621 -30.949627 5.7383685 10 3199676517040 1 0
12.85152 -54.51448 -1.3032942 56 3199676517040 1 0
0 0 0 9 3199676514736 1 0
0 0 0 4 3199676537776 1 0
11.434653 -39.90366 -0.7245541 42 3199676537776 1 0
1.3939595 -5.951937 -1.7112644 6 3199676540080 1 0
9.942679 -54.273422 -1.6057975 32 3199676540080 1 0
1.5670632 -8.561398 -1.7407371 4 3199676542384 1 0
12.810702 -54.736866 0 22 3199676542384 1 0
3.9080706 -29.431656 -0.34564704 5 3199676544688 1 0
2.3969965 -10.248809 -1.6375048 11 3199676544688 1 0
1.9542549 -10.6952 -1.3838997 7 3199676546992 1 0
13.935198 -48.74226 0.29464078 33 3199676546992 1 0
0 0 0 112 3199676549296 1 0
3.6198788 -15.498817 -1.7144096 3 3199676549296 1 0
2.5546777 -19.307049 -1.817986 2 3199676551600 1 0
12.7529 -54.6403 1.3056204 10 3199676551600 1 0
12.294428 -93.02473 1.0923992 28 3199676553904 1 0
5.6601357 -24.267817 -1.7425168 8 3199676553904 1 0
3.9031396 -21.435055 -1.7786274 4 3199676556208 1 0
13.895383 -48.715572 1.4743083 32 3199676556208 1 0
10.03009 -55.130486 0.9781027 87 3199676558512 1 0
7.2982006 -25.601452 -1.7061313 8 3199676558512 1 0
3.881781 -29.475117 -1.73138 33 3199676560816 1 0
12.677001 -54.4654 3.2567153 70 3199676560816 1 0
9.996476 -55.041187 2.2791193 64 3199676563120 1 0
6.668599 -28.670763 -1.3711791 43 3199676563120 1 0
5.209924 -28.711086 -1.5292566 31 3199676565424 1 0
0 0 0 8 3199676567728 1 0
8.778923 -37.769962 4.7611914 7 3199676565424 1 0
0 0 0 89 3199676567728 1 0
0 0 0 9 3199676570032 1 0
3.788994 -28.906965 -1.0180881 20 3199676570032 1 0
5.654932 -31.244932 5.7893095 5 3199676572336 1 0
12.652489 -54.548702 -1.303015 56 3199676572336 1 0
0 0 0 4 3199676593072 1 0
9.5035515 -33.62964 -0.6099965 80 3199676593072 1 0
9.886411 -55.100388 -1.6291863 50 3199676595376 1 0
1.3704925 -5.949479 -1.7091078 6 3199676595376 1 0
12.608 -54.767494 0 22 3199676597680 1 0
1.536615 -8.570899 -1.7415216 3 3199676597680 1 0
3.8178444 -29.572554 -0.3471371 23 3199676599984 1 0
2.368726 -10.295941 -1.6436539 23 3199676599984 1 0
1.9184611 -10.717803 -1.38592 5 3199676602288 1 0
13.750608 -48.76141 0.29445478 88 3199676602288 1 0
0 0 0 38 3199676604592 1 0
2.4840574 -19.304216 -1.8168707 2 3199676606896 1 0
3.5677388 -15.5272255 -1.7161231 3 3199676604592 1 0
12.55732 -54.685577 1.3056204 10 3199676606896 1 0
10.744654 -83.59056 0.98115706 28 3199676609200 1 0
5.5754094 -24.29561 -1.7430748 8 3199676609200 1 0
3.827746 -21.452696 -1.7789528 4 3199676611504 1 0
13.722412 -48.76458 1.4743083 56 3199676611504 1 0
9.824652 -55.106533 0.97705555 50 3199676613808 1 0
7.2141566 -25.650143 -1.7076663 8 3199676613808 1 0
3.7780123 -29.488596 -1.73138 20 3199676616112 1 0
12.485218 -54.50968 3.2567153 47 3199676616112 1 0
6.5734105 -28.71733 -1.3722959 43 3199676618416 1 0
9.803485 -55.07589 2.2791193 64 3199676618416 1 0
5.0970817 -28.658306 -1.5254885 31 3199676620720 1 0
8.662964 -37.87004 4.769966 7 3199676620720 1 0
0 0 0 8 3199676623024 1 0
7.757393 -27.640238 -1.1696016 95 3199676623024 1 0
3.7035768 -29.034904 -1.0221364 20 3199676625328 1 0
0 0 0 9 3199676625328 1 0
0 0 0 29 3199676627632 1 0
12.463492 -54.588093 -1.302922 56 3199676627632 1 0
0 0 0 4 3199676648368 1 0
9.370482 -33.583927 -0.6086003 50 3199676648368 1 0
9.703929 -55.136875 -1.6293026 50 3199676650672 1 0
1.3507124 -5.954001 -1.7091078 6 3199676650672 1 0
1.5080596 -8.57597 -1.7415216 3 3199676652976 1 0
12.427286 -54.816986 0 22 3199676652976 1 0
6.696397 -53.269115 -0.625033 7 3199676655280 1 0
2.3291056 -10.280662 -1.6399645 40 3199676655280 1 0
1.8825971 -10.724161 -1.38592 3 3199676657584 1 0
13.584196 -48.795574 0.29438505 77 3199676657584 1 0
3.5182967 -15.550736 -1.7174083 2 3199676659888 1 0
0 0 0 28 3199676659888 1 0
2.4226513 -19.340115 -1.819473 2 3199676662192 1 0
12.377047 -54.74306 1.3059927 10 3199676662192 1 0
11.672776 -93.29423 1.0945878 28 3199676664496 1 0
5.4953327 -24.32203 -1.7436328 8 3199676664496 1 0
3.7711382 -21.555813 -1.7864383 4 3199676666800 1 0
13.553508 -48.795197 1.4738429 64 3199676666800 1 0
7.1348524 -25.701315 -1.7094572 5 3199676669104 1 0
9.629296 -55.088223 0.976148 37 3199676669104 1 0
3.7422824 -30.016363 -1.7616123 8 3199676671408 1 0
12.298665 -54.543888 3.2562504 70 3199676671408 1 0
9.617072 -55.1128 2.279282 64 3199676673712 1 0
6.4837503 -28.774572 -1.373971 43 3199676673712 1 0
4.9871674 -28.604656 -1.5217203 31 3199676676016 1 0
8.516584 -37.821842 4.7602167 7 3199676676016 1 0
0 0 0 8 3199676678320 1 0
0 0 0 28 3199676678320 1 0
3.6190836 -29.166409 -1.0263244 16 3199676680624 1 0
0 0 0 9 3199676680624 1 0
0 0 0 29 3199676682928 1 0
12.277321 -54.634365 -1.303015 56 3199676682928 1 0
0 0 0 4 3199676703664 1 0
9.255319 -33.62414 -0.6087399 80 3199676703664 1 0
9.531785 -55.28862 -1.6327935 17 3199676705968 1 0
1.331599 -5.9661984 -1.7112644 5 3199676705968 1 0
1.4787806 -8.585047 -1.742306 3 3199676708272 1 0
12.234993 -54.856125 0 22 3199676708272 1 0
6.149073 -50.334354 -0.5903426 53 3199676710576 1 0
2.288906 -10.269441 -1.6368899 39 3199676710576 1 0
1.8451513 -10.730667 -1.38592 4 3199676712880 1 0
13.416963 -48.854267 0.29445478 22 3199676712880 1 0
3.4657214 -15.570686 -1.718265 3 3199676715184 1 0
2.3565707 -19.360315 -1.8205885 2 3199676717488 1 0
9.536666 -55.5098 -0.32735023 20 3199676715184 1 0
12.181541 -54.766415 1.3055274 10 3199676717488 1 0
5.4155946 -24.364433 -1.745307 8 3199676719792 1 0
11.36877 -93.51308 1.0966831 28 3199676719792 1 0
3.697218 -21.576704 -1.7870892 4 3199676722096 1 0
14.699641 -53.64699 1.6188301 8 3199676722096 1 0
9.48756 -55.417152 0.98138374 25 3199676724400 1 0
7.050366 -25.745314 -1.7107363 5 3199676724400 1 0
3.642765 -30.07285 -1.7641704 8 3199676726704 1 0
12.108196 -54.586487 3.2562504 70 3199676726704 1 0
9.425306 -55.149975 2.279445 43 3199676729008 1 0
6.3875923 -28.816534 -1.3749017 43 3199676729008 1 0
4.872496 -28.535263 -1.5171148 31 3199676731312 1 0
8.379357 -37.828083 4.757292 7 3199676731312 1 0
0 0 0 8 3199676733616 1 0
7.717089 -28.244432 -1.1928861 49 3199676733616 1 0
3.5296905 -29.282053 -1.029954 12 3199676735920 1 0
0 0 0 9 3199676735920 1 0
12.085673 -54.67298 -1.302922 67 3199676738224 1 0
0 0 0 29 3199676738224 1 0
0 0 0 4 3199676758960 1 0
4.81778 -28.53996 -0.8423455 4 3199676761264 1 0
0 0 0 21 3199676758960 1 0
1.310765 -5.97081 -1.7112644 5 3199676761264 1 0
1.4481518 -8.586289 -1.7415216 3 3199676763568 1 0
12.046006 -54.91022 0 22 3199676763568 1 0
3.4941046 -29.455473 -0.3453211 2 3199676765872 1 0
2.2521987 -10.273507 -1.6362749 39 3199676765872 1 0
1.8076831 -10.737042 -1.38592 2 3199676768176 1 0
14.672846 -54.166924 0.3261646 26 3199676768176 1 0
4.784549 -28.443916 -0.16763884 7 3199676770480 1 0
2.2987921 -19.45148 -1.8283957 2 3199676772784 1 0
3.4139 -15.594344 -1.7195503 3 3199676770480 1 0
11.964658 -54.691406 1.3027358 10 3199676772784 1 0
16.106762 -136.45941 1.5996711 28 3199676775088 1 0
5.3330703 -24.394884 -1.746144 8 3199676775088 1 0
3.6225383 -21.59341 -1.7874148 4 3199676777392 1 0
14.518548 -53.721138 1.6195282 26 3199676777392 1 0
13.949685 -83.22618 1.4729831 29 3199676779696 1 0
6.9677415 -25.796743 -1.712527 5 3199676779696 1 0
3.5433655 -30.132973 -1.7669611 12 3199676782000 1 0
11.918431 -54.63232 3.2564828 70 3199676782000 1 0
14.49182 -86.61518 3.5778444 29 3199676784304 1 0
4.7590294 -28.469362 -1.5127184 31 3199676786608 1 0
6.2937737 -28.869886 -1.3763907 49 3199676784304 1 0
8.248107 -37.86098 4.757779 7 3199676786608 1 0
0 0 0 8 3199676788912 1 0
7.6174107 -28.26734 -1.1927233 70 3199676788912 1 0
3.440463 -29.405369 -1.0338627 12 3199676791216 1 0
0 0 0 9 3199676791216 1 0
0 0 0 29 3199676793520 1 0
11.895605 -54.718742 -1.303015 78 3199676793520 1 0
0 0 0 4 3199676814256 1 0
10.902008 -40.71527 -0.7357237 14 3199676814256 1 0
4.6940126 -28.410646 -0.8380401 4 3199676816560 1 0
1.2891022 -5.971584 -1.7101861 5 3199676816560 1 0
1.4194489 -8.599031 -1.7430905 5 3199676818864 1 0
11.849199 -54.928474 0 33 3199676818864 1 0
3.4072697 -29.606564 -0.34695083 2 3199676821168 1 0
2.2171566 -10.28517 -1.6368899 39 3199676821168 1 0
1.7721281 -10.755033 -1.3874352 6 3199676823472 1 0
14.486775 -54.229404 0.32623434 13 3199676823472 1 0
4.6865315 -28.468336 -0.16768533 10 3199676825776 1 0
2.2213538 -19.376295 -1.8205885 2 3199676828080 1 0
3.3611186 -15.613942 -1.720407 2 3199676825776 1 0
11.798064 -54.84621 1.3054343 10 3199676828080 1 0
15.613952 -136.37175 1.5979948 28 3199676830384 1 0
5.272203 -24.526484 -1.7542357 8 3199676830384 1 0
14.310345 -53.694218 1.617201 17 3199676832688 1 0
13.672681 -83.35725 1.4744492 29 3199676834992 1 0
3.548433 -21.613792 -1.7880657 4 3199676832688 1 0
6.887926 -25.859482 -1.7150854 8 3199676834992 1 0
3.4395175 -30.15706 -1.7676588 12 3199676837296 1 0
11.727656 -54.67359 3.2564828 70 3199676837296 1 0
6.1988225 -28.91903 -1.3776935 45 3199676839600 1 0
14.218449 -86.84273 3.5851717 29 3199676839600 1 0
4.6480165 -28.414843 -1.5089502 31 3199676841904 1 0
8.111739 -37.870132 4.755342 7 3199676841904 1 0
0 0 0 8 3199676844208 1 0
7.51664 -28.286032 -1.1923977 49 3199676844208 1 0
0 0 0 9 3199676846512 1 0
3.3499668 -29.524445 -1.0376319 12 3199676846512 1 0
0 0 0 29 3199676848816 1 0
0 0 0 4 3199676869552 1 0
14.322943 -54.248497 -0.97935927 10 3199676869552 1 0
9.046715 -55.96957 -1.6500151 17 3199676871856 1 0
11.703692 -54.756023 -1.302922 67 3199676848816 1 0
1.2690493 -5.9798155 -1.7112644 5 3199676871856 1 0
1.3894241 -8.603934 -1.7430905 3 3199676874160 1 0
11.634156 -54.85994 0 33 3199676874160 1 0
2.1820607 -10.296713 -1.6375048 33 3199676876464 1 0
1.7358382 -10.768988 -1.3884454 10 3199676878768 1 0
14.295353 -54.271908 0.32618785 13 3199676878768 1 0
3.30745 -29.650076 -0.34732336 2 3199676876464 1 0
4.5667796 -28.358152 -0.1669414 10 3199676881072 1 0
3.3074186 -15.62947 -1.7208353 2 3199676881072 1 0
2.1625004 -19.463097 -1.8280239 2 3199676883376 1 0
11.606544 -54.887062 1.3054343 21 3199676883376 1 0
9.125574 -82.24165 0.96332294 28 3199676885680 1 0
5.189032 -24.55645 -1.7550728 8 3199676885680 1 0
3.4742293 -21.633919 -1.7887166 4 3199676887984 1 0
14.120797 -53.73611 1.6169683 17 3199676887984 1 0
13.405703 -83.55452 1.4771019 29 3199676890288 1 0
6.8016734 -25.898811 -1.7161087 8 3199676890288 1 0
0 0 0 12 3199676892592 1 0
11.535914 -54.71029 3.2562504 70 3199676892592 1 0
21.228016 -132.55562 5.4692674 29 3199676894896 1 0
6.1044292 -28.97177 -1.3791825 45 3199676894896 1 0
4.5342875 -28.340174 -1.5041354 30 3199676897200 1 0
7.977863 -37.890446 4.754367 7 3199676897200 1 0
0 0 0 8 3199676899504 1 0
7.4208965 -28.323696 -1.1928861 78 3199676899504 1 0
3.260865 -29.663115 -1.042099 33 3199676901808 1 0
0 0 0 29 3199676904112 1 0
0 0 0 9 3199676901808 1 0
11.514132 -54.80437 -1.3031081 78 3199676904112 1 0
0 0 0 4 3199676924296 1 0
7.387619 -28.381811 -0.511914 7 3199676924296 1 0
8.772638 -55.5032 -1.6353534 17 3199676926600 1 0
1.3612176 -8.620355 -1.7454439 2 3199676928904 1 0
11.434426 -54.861057 0 33 3199676928904 1 0
1.2489547 -5.9879794 -1.7123427 6 3199676926600 1 0
3.212093 -29.736996 -0.34820807 5 3199676931208 1 0
1.6970012 -10.767142 -1.3874352 10 3199676933512 1 0
14.108838 -54.33309 0.3262576 13 3199676933512 1 0
4.4609194 -28.330458 -0.16668569 21 3199676935816 1 0
3.2552707 -15.652601 -1.7221205 3 3199676935816 1 0
2.0945482 -19.470528 -1.8280239 2 3199676938120 1 0
11.388031 -54.79804 1.3023636 21 3199676938120 1 0
14.652126 -136.38994 1.5969703 28 3199676940424 1 0
5.1081505 -24.597855 -1.756747 8 3199676940424 1 0
2.146911 -10.308136 -1.6381197 10 3199676931208 1 0
3.39931 -21.649853 -1.789042 6 3199676942728 1 0
13.934139 -53.788944 1.6170846 17 3199676942728 1 0
13.109623 -83.57315 1.4766132 29 3199676945032 1 0
6.740242 -26.034464 -1.7235278 8 3199676945032 1 0
0 0 0 24 3199676947336 1 0
11.343249 -54.7424 3.2557852 70 3199676947336 1 0
13.699616 -87.50057 3.6082933 29 3199676949640 1 0
6.0097427 -29.024202 -1.3806715 45 3199676949640 1 0
4.4223704 -28.272951 -1.4997392 30 3199676951944 1 0
7.8455515 -37.918064 4.754367 7 3199676951944 1 0
0 0 0 8 3199676954248 1 0
7.316986 -28.330078 -1.192072 57 3199676954248 1 0
3.1632228 -29.729969 -1.0440533 33 3199676956552 1 0
0 0 0 9 3199676956552 1 0
11.323567 -54.848145 -1.3032011 78 3199676958856 1 0
0.6027343 -3.8979266 -1.8392347 0 3199676979592 1 0
0 0 0 65 3199676979592 1 0
0 0 0 29 3199676958856 1 0
4.366945 -28.268574 -0.83245474 13 3199676981896 1 0
1.228045 -5.992303 -1.7123427 6 3199676981896 1 0
1.3317169 -8.62893 -1.7462283 4 3199676984200 1 0
11.243658 -54.904552 0 44 3199676984200 1 0
8.237461 -78.83745 -0.9228119 13 3199676986504 1 0
2.1101234 -10.311695 -1.6375048 8 3199676986504 1 0
1.6612188 -10.784765 -1.3889505 10 3199676988808 1 0
13.914135 -54.362633 0.32614136 13 3199676988808 1 0
4.3486166 -28.25888 -0.16617423 100 3199676991112 1 0
3.2030015 -15.675558 -1.7234057 2 3199676991112 1 0
2.0282195 -19.493565 -1.829511 2 3199676993416 1 0
11.189481 -54.802193 1.3015262 21 3199676993416 1 0
9.820158 -94.51678 1.1062754 28 3199676995720 1 0
5.02465 -24.627266 -1.7575841 8 3199676995720 1 0
3.3255312 -21.673409 -1.7900184 6 3199676998024 1 0
13.74234 -53.82176 1.6166191 17 3199676998024 1 0
12.891142 -84.09674 1.4850602 29 3199677000328 1 0
6.65722 -26.088776 -1.7255744 8 3199677000328 1 0
3.1379135 -30.330446 -1.7757982 8 3199677002632 1 0
11.15528 -54.797314 3.2567153 70 3199677002632 1 0
20.276707 -132.53467 5.4624286 29 3199677004936 1 0
5.9123755 -29.06458 -1.3816022 45 3199677004936 1 0
7.709982 -37.929653 4.752417 7 3199677007240 1 0
4.3170137 -28.24478 -1.4974364 35 3199677007240 1 0
0 0 0 8 3199677009544 1 0
3.061472 -29.760712 -1.0447513 28 3199677011848 1 0
7.219037 -28.35932 -1.1922349 45 3199677009544 1 0
0 0 0 9 3199677011848 1 0
0 0 0 29 3199677014152 1 0
11.1312475 -54.88342 -1.3031081 67 3199677014152 1 0
0.5902073 -3.9071758 -1.8426156 0 3199677034888 1 0
0 0 0 7 3199677034888 1 0
1.2070769 -5.9965615 -1.7123427 6 3199677037192 1 0
4.2620707 -28.24414 -0.8312911 13 3199677037192 1 0
1.3020473 -8.6374235 -1.7470129 4 3199677039496 1 0
5.8461947 -29.06589 0 61 3199677039496 1 0
2.0723333 -10.311294 -1.6362749 10 3199677041800 1 0
1.6226586 -10.786622 -1.3884454 9 3199677044104 1 0
7.803038 -77.30592 -0.9045587 13 3199677041800 1 0
13.723684 -54.41515 0.3261646 13 3199677044104 1 0
4.2483253 -28.270088 -0.16615099 54 3199677046408 1 0
3.1508234 -15.702354 -1.7251192 2 3199677046408 1 0
1.9609035 -19.516462 -1.8309982 2 3199677048712 1 0
10.995724 -54.841396 1.3015262 21 3199677048712 1 0
9.465398 -94.351974 1.1039472 28 3199677051016 1 0
3.2509577 -21.700846 -1.7913202 6 3199677053320 1 0
4.9373994 -24.644907 -1.7575841 8 3199677051016 1 0
13.5532 -53.877945 1.6168519 17 3199677053320 1 0
19.827686 -132.49219 2.338413 29 3199677055624 1 0
6.5692697 -26.131641 -1.7268536 8 3199677055624 1 0
3.0377505 -30.420904 -1.7804494 8 3199677057928 1 0
10.959946 -54.83672 3.2567153 70 3199677057928 1 0
19.801573 -132.59436 5.4619403 29 3199677060232 1 0
5.799168 -29.038486 -1.3793687 40 3199677060232 1 0
4.228895 -28.346964 -1.5020419 17 3199677062536 1 0
0 0 0 8 3199677064840 1 0
7.5726695 -37.94921 4.751442 7 3199677062536 1 0
7.1250935 -28.416033 -1.1935375 45 3199677064840 1 0
2.9557223 -29.783453 -1.0451701 28 3199677067144 1 0
0 0 0 9 3199677067144 1 0
0 0 0 29 3199677069448 1 0
10.934391 -54.92705 -1.3032011 45 3199677069448 1 0
0.5536928 -3.7586787 -1.7716157 0 3199677090184 1 0
8.032212 -54.580788 -1.6055647 32 3199677092488 1 0
1.1873728 -6.012274 -1.7155776 6 3199677092488 1 0
1.269936 -8.638239 -1.7462283 4 3199677094792 1 0
13.550753 -54.430035 -0.97908 10 3199677090184 1 0
10.853583 -54.999302 0 44 3199677094792 1 0
2.0347517 -10.318775 -1.6362749 10 3199677097096 1 0
7.7083397 -79.25664 -0.9270493 14 3199677097096 1 0
1.5840027 -10.796377 -1.3889505 8 3199677099400 1 0
13.498742 -54.355995 0.32551366 13 3199677099400 1 0
4.163112 -28.404047 -0.16684842 18 3199677101704 1 0
3.0930533 -15.709783 -1.7246909 3 3199677101704 1 0
10.794725 -54.869087 1.301247 21 3199677104008 1 0
1.8909785 -19.531364 -1.8317417 2 3199677104008 1 0
7.7803817 -80.48333 0.94134456 28 3199677106312 1 0
3.1743908 -21.724266 -1.7922966 6 3199677108616 1 0
13.357812 -53.9226 1.6167356 17 3199677108616 1 0
4.850603 -24.674335 -1.7584212 8 3199677106312 1 0
12.622934 -86.474236 1.5254102 29 3199677110920 1 0
6.4809155 -26.178368 -1.7283885 8 3199677110920 1 0
2.9288275 -30.435596 -1.780682 8 3199677113224 1 0
19.297838 -132.4707 5.4539614 29 3199677115528 1 0
10.761339 -54.8679 3.2562504 70 3199677113224 1 0
5.6781163 -28.972828 -1.375274 30 3199677115528 1 0
4.1441274 -28.476545 -1.5081129 13 3199677117832 1 0
7.4345527 -37.964375 4.7499795 7 3199677117832 1 0
0 0 0 8 3199677120136 1 0
7.0293336 -28.464573 -1.1945144 41 3199677120136 1 0
2.8518577 -29.817673 -1.0460078 28 3199677122440 1 0
0 0 0 9 3199677122440 1 0
0 0 0 29 3199677124744 1 0
10.740529 -54.97344 -1.3033872 45 3199677124744 1 0
0.54675895 -3.8036487 -1.7919015 0 3199677145480 1 0
13.368295 -54.508076 -0.97963846 10 3199677145480 1 0
7.8012905 -54.327496 -1.597303 31 3199677147784 1 0
1.1656457 -6.0126004 -1.7144994 5 3199677147784 1 0
1.2408891 -8.650384 -1.7477973 3 3199677150088 1 0
5.6574974 -29.205072 0 57 3199677150088 1 0
7.237903 -77.21626 -0.9028824 27 3199677152392 1 0
1.9987202 -10.325815 -1.6362749 9 3199677152392 1 0
13.334585 -54.507687 0.32614136 13 3199677154696 1 0
1.546869 -10.805768 -1.3894556 6 3199677154696 1 0
4.0758295 -28.501558 -0.16733661 18 3199677157000 1 0
3.0419705 -15.740007 -1.7268329 2 3199677157000 1 0
1.8235296 -19.545776 -1.8324852 2 3199677159304 1 0
10.58645 -54.820053 1.2991998 21 3199677159304 1 0
7.154028 -76.8023 0.89799315 25 3199677161608 1 0
4.769736 -24.718544 -1.7603744 8 3199677161608 1 0
3.1069794 -21.794416 -1.7971785 6 3199677163912 1 0
13.166662 -53.957245 1.6163864 17 3199677163912 1 0
11.849615 -83.20768 1.4670492 29 3199677166216 1 0
6.4197607 -26.324932 -1.7365751 8 3199677166216 1 0
2.8325226 -30.552992 -1.786961 8 3199677168520 1 0
10.570504 -54.90905 3.2564828 70 3199677168520 1 0
18.833063 -132.52144 5.45331 29 3199677170824 1 0
5.5610976 -28.910072 -1.3713653 35 3199677170824 1 0
4.0609827 -28.60553 -1.5141839 13 3199677173128 1 0
7.266017 -37.80295 4.7265806 14 3199677173128 1 0
0 0 0 8 3199677175432 1 0
6.9365435 -28.51612 -1.1956543 41 3199677175432 1 0
2.7488573 -29.839388 -1.0464265 28 3199677177736 1 0
0 0 0 9 3199677177736 1 0
5.594726 -29.176392 -0.69128746 28 3199677180040 1 0
0.5304587 -3.7839935 -1.7817585 0 3199677200776 1 0
13.176066 -54.546635 -0.97949886 10 3199677200776 1 0
7.572235 -54.07326 -1.5890414 30 3199677203080 1 0
0 0 0 29 3199677180040 1 0
1.1439309 -6.0128484 -1.713421 6 3199677203080 1 0
1.2101426 -8.650778 -1.7470129 4 3199677205384 1 0
0 0 0 7 3199677205384 1 0
6.97623 -77.3287 -0.9039068 13 3199677207688 1 0
1.9634017 -10.336612 -1.6368899 15 3199677207688 1 0
1.5091404 -10.811102 -1.3894556 3 3199677209992 1 0
13.119876 -54.452797 0.3255369 13 3199677209992 1 0
2.987009 -15.75053 -1.7268329 2 3199677212296 1 0
3.9928882 -28.63446 -0.16803405 33 3199677212296 1 0
1.7563593 -19.563923 -1.8336005 2 3199677214600 1 0
10.39056 -54.8331 1.2986416 21 3199677214600 1 0
6.8687553 -76.63558 0.8957581 51 3199677216904 1 0
3.030335 -21.80118 -1.7968531 4 3199677219208 1 0
4.704951 -24.84874 -1.7684661 8 3199677216904 1 0
12.978236 -54.002876 1.6163864 17 3199677219208 1 0
11.3830805 -81.98089 1.4447103 29 3199677221512 1 0
6.334356 -26.374352 -1.7383659 8 3199677221512 1 0
10.378771 -54.945614 3.2564828 70 3199677223816 1 0
2.730467 -30.614399 -1.7899842 8 3199677223816 1 0
18.349518 -132.43593 5.4471226 29 3199677226120 1 0
3.9726067 -28.702623 -1.5185801 13 3199677228424 1 0
5.449033 -28.870413 -1.3685734 35 3199677226120 1 0
7.13328 -37.82418 4.7260933 7 3199677228424 1 0
0 0 0 8 3199677230728 1 0
6.846272 -28.579027 -1.1972826 41 3199677230728 1 0
2.64574 -29.860746 -1.0468453 28 3199677233032 1 0
0 0 0 9 3199677233032 1 0
0 0 0 29 3199677235336 1 0
10.357962 -55.054943 -1.3035734 45 3199677235336 1 0
0.5123394 -3.7499034 -1.7648538 0 3199677256072 1 0
12.983732 -54.58451 -0.97935927 10 3199677256072 1 0
7.3517814 -53.86156 -1.5820596 30 3199677258376 1 0
1.1237293 -6.020575 -1.7144994 6 3199677258376 1 0
1.1801902 -8.654916 -1.7470129 3 3199677260680 1 0
10.279384 -55.11358 0 22 3199677260680 1 0
4.3990073 -50.71412 -0.59262425 20 3199677262984 1 0
1.4730929 -10.824081 -1.3904657 3 3199677265288 1 0
12.92735 -54.47416 0.32539743 13 3199677265288 1 0
3.909544 -28.754955 -0.16866173 30 3199677267592 1 0
1.9328288 -10.370518 -1.6411942 49 3199677262984 1 0
2.9375231 -15.784107 -1.7294031 3 3199677267592 1 0
1.6897656 -19.569788 -1.8336005 2 3199677269896 1 0
10.200226 -54.848488 1.2981763 21 3199677269896 1 0
6.602483 -76.5827 0.8948733 51 3199677272200 1 0
4.622174 -24.872387 -1.7690241 8 3199677272200 1 0
2.9572895 -21.815231 -1.7971785 6 3199677274504 1 0
12.795019 -54.042473 1.6162701 17 3199677274504 1 0
11.460211 -84.622505 1.4905751 29 3199677276808 1 0
6.251224 -26.418793 -1.739901 8 3199677276808 1 0
2.6304305 -30.651213 -1.791612 8 3199677279112 1 0
10.197093 -54.991806 3.2571805 70 3199677279112 1 0
5.3346457 -28.790182 -1.3639203 30 3199677281416 1 0
17.901894 -132.44878 5.4451685 29 3199677281416 1 0
3.891301 -28.818562 -1.524023 13 3199677283720 1 0
10.184637 -55.00496 6.868556 67 3199677283720 1 0
0 0 0 8 3199677286024 1 0
6.759225 -28.632593 -1.1985852 41 3199677286024 1 0
2.55063 -29.90513 -1.0481017 29 3199677288328 1 0
0 0 0 9 3199677288328 1 0
0 0 0 29 3199677290632 1 0
0.50151515 -3.7586813 -1.7682348 0 3199677311368 1 0
12.812186 -54.625034 -0.97935927 10 3199677311368 1 0
10.180646 -55.10427 -1.3039455 45 3199677290632 1 0
3.9363344 -29.534222 -0.86713064 14 3199677313672 1 0
1.1054169 -6.0278807 -1.7155776 6 3199677313672 1 0
1.1542952 -8.670278 -1.7493663 2 3199677315976 1 0
10.082956 -55.02786 0 11 3199677315976 1 0
6.4632173 -77.37326 -0.9039068 13 3199677318280 1 0
1.8933804 -10.341631 -1.63566 52 3199677318280 1 0
12.757535 -54.534718 0.32551366 13 3199677320584 1 0
1.4374058 -10.820873 -1.3894556 3 3199677320584 1 0
3.831828 -28.878397 -0.16931267 26 3199677322888 1 0
2.8882031 -15.801291 -1.7302599 3 3199677322888 1 0
10.016609 -54.84573 1.2973388 31 3199677325192 1 0
1.6278881 -19.591017 -1.8350877 2 3199677325192 1 0
6.3533983 -76.59575 0.8947802 51 3199677327496 1 0
4.542911 -24.8951 -1.7695823 8 3199677327496 1 0
2.88986 -21.852417 -1.7994567 6 3199677329800 1 0
11.2261715 -84.98468 1.4962995 29 3199677332104 1 0
12.617067 -54.076084 1.6160374 17 3199677329800 1 0
6.1692677 -26.458546 -1.7411801 8 3199677332104 1 0
2.5395153 -30.779085 -1.7985888 8 3199677334408 1 0
10.017708 -55.032883 3.2576456 47 3199677334408 1 0
17.444138 -132.35263 5.4388185 29 3199677336712 1 0
5.2266936 -28.736877 -1.3605701 35 3199677336712 1 0
3.8077056 -28.922396 -1.5288379 13 3199677339016 1 0
0 0 0 8 3199677341320 1 0
9.99082 -54.975933 6.8607564 22 3199677339016 1 0
6.6719694 -28.689983 -1.2000506 41 3199677341320 1 0
2.4522088 -29.933416 -1.0487996 34 3199677343624 1 0
0 0 0 9 3199677343624 1 0
0 0 0 29 3199677345928 1 0
9.8420925 -54.292187 -1.2839392 33 3199677345928 1 0
0.48745802 -3.753219 -1.7648538 0 3199677366664 1 0
12.6187315 -54.657734 -0.9791498 10 3199677366664 1 0
3.83866 -29.591425 -0.86841065 9 3199677368968 1 0
1.0856881 -6.0392923 -1.7177342 6 3199677368968 1 0
1.1238971 -8.674271 -1.7493663 3 3199677371272 1 0
0 0 0 31 3199677371272 1 0
6.151538 -76.89711 -0.8980863 13 3199677373576 1 0
1.8570441 -10.348217 -1.63566 53 3199677373576 1 0
1.4013449 -10.841606 -1.3914758 3 3199677375880 1 0
12.565508 -54.579285 0.32551366 13 3199677375880 1 0
3.7535086 -29.074215 -0.17038207 45 3199677378184 1 0
2.8338563 -15.819209 -1.7311167 2 3199677378184 1 0
1.5611638 -19.62841 -1.8380619 2 3199677380488 1 0
9.857228 -55.073673 1.3018984 31 3199677380488 1 0
6.088421 -76.69751 0.8957115 51 3199677382792 1 0
4.4568224 -24.922815 -1.7704194 5 3199677382792 1 0
2.8163602 -21.894169 -1.8020604 14 3199677385096 1 0
12.42687 -54.12831 1.6162701 17 3199677385096 1 0
10.9055395 -84.881256 1.4937863 29 3199677387400 1 0
6.1019177 -26.597038 -1.748855 9 3199677387400 1 0
2.431707 -30.811823 -1.7999841 8 3199677389704 1 0
9.822243 -55.072163 3.257878 70 3199677389704 1 0
16.96687 -132.3784 5.4373527 29 3199677392008 1 0
5.1107326 -28.680616 -1.3570337 35 3199677392008 1 0
3.717894 -29.042812 -1.5344902 13 3199677394312 1 0
0 0 0 1 3199677394312 1 0
0 0 0 8 3199677396616 1 0
6.575307 -28.740992 -1.2011905 41 3199677396616 1 0
2.3462188 -29.96196 -1.0494977 34 3199677398920 1 0
0 0 0 9 3199677398920 1 0
0 0 0 29 3199677401224 1 0
0 0 0 4 3199677401224 1 0
12.422743 -54.723114 -0.97949886 10 3199677421960 1 0
0.47460598 -3.7621737 -1.7682348 0 3199677421960 1 0
1.0622982 -6.0356283 -1.7155776 6 3199677424264 1 0
1.0943085 -8.693867 -1.7525041 3 3199677426568 1 0
9.692503 -55.114216 0 55 3199677426568 1 0
6.706394 -53.22041 -1.5611144 28 3199677424264 1 0
5.920209 -77.53705 -0.9053038 13 3199677428872 1 0
1.8195553 -10.354875 -1.63566 46 3199677428872 1 0
1.3632189 -10.854465 -1.392486 6 3199677431176 1 0
12.372974 -54.643757 0.3256299 13 3199677431176 1 0
3.6579983 -29.15895 -0.17080052 33 3199677433480 1 0
2.77907 -15.84104 -1.7324018 2 3199677433480 1 0
1.4906234 -19.629898 -1.8376901 2 3199677435784 1 0
9.674616 -55.191303 1.3038524 31 3199677435784 1 0
5.716832 -75.42252 0.8805781 24 3199677438088 1 0
4.372115 -24.962122 -1.7720934 5 3199677438088 1 0
2.738644 -21.904024 -1.8020604 16 3199677440392 1 0
12.23558 -54.175972 1.6163864 17 3199677440392 1 0
10.511803 -84.16921 1.4805924 29 3199677442696 1 0
6.0122724 -26.637907 -1.7501341 9 3199677442696 1 0
1.554231 -20.61847 -1.2041754 2 3199677445000 1 1
16.50473 -132.45291 5.438004 29 3199677447304 1 0
9.630404 -55.118195 3.258576 47 3199677445000 1 0
4.998488 -28.631441 -1.3538696 35 3199677447304 1 0
3.6312947 -29.174532 -1.5407705 13 3199677449608 1 0
0 0 0 8 3199677451912 1 0
6.479749 -28.783169 -1.2020046 41 3199677451912 1 0
2.2445774 -29.997807 -1.0504749 34 3199677454216 1 0
0 0 0 1 3199677449608 1 0
0 0 0 9 3199677454216 1 0
9.588837 -55.1048 -1.3015262 33 3199677456520 1 0
0 0 0 29 3199677456520 1 0
0.46522018 -3.7889142 -1.7800682 0 3199677477256 1 0
12.239462 -54.756203 -0.97935927 10 3199677477256 1 0
1.0428448 -6.042929 -1.7166559 7 3199677479560 1 0
6.1640987 -50.266018 -1.4738429 22 3199677479560 1 0
1.0637891 -8.685799 -1.7501507 3 3199677481864 1 0
9.533907 -55.296124 0 22 3199677481864 1 0
2.194061 -30.066008 -0.35095537 3 3199677484168 1 0
1.7860972 -10.36872 -1.6368899 46 3199677484168 1 0
1.3261038 -10.855064 -1.3919809 9 3199677486472 1 0
12.182429 -54.657867 0.32546717 13 3199677486472 1 0
2.727393 -15.862124 -1.733687 2 3199677488776 1 0
1.4243828 -19.642803 -1.8384336 2 3199677491080 1 0
3.57418 -29.294266 -0.1715212 31 3199677488776 1 0
9.474536 -55.15297 1.3021775 21 3199677491080 1 0
5.464494 -75.51742 0.8814628 24 3199677493384 1 0
4.288796 -24.988718 -1.7729305 8 3199677493384 1 0
2.666329 -21.937042 -1.8040131 19 3199677495688 1 0
12.050418 -54.221554 1.6165028 8 3199677495688 1 0
16.5727 -136.52486 2.4005437 29 3199677497992 1 0
5.9256077 -26.681854 -1.751669 9 3199677497992 1 0
1.4682446 -20.420595 -1.1923151 2 3199677500296 1 1
9.163796 -75.684 3.1059656 29 3199677502600 1 0
9.440225 -55.155136 3.2588084 71 3199677500296 1 0
4.884115 -28.561996 -1.3497748 38 3199677502600 1 0
3.5428617 -29.298067 -1.5466322 13 3199677504904 1 0
0 0 0 1 3199677504904 1 0
6.3840036 -28.829119 -1.2029816 41 3199677507208 1 0
0 0 0 8 3199677507208 1 0
2.1409688 -30.033432 -1.051452 34 3199677509512 1 0
0 0 0 9 3199677509512 1 0
0 0 0 29 3199677511816 1 0
0.44661525 -3.750996 -1.761473 0 3199677532552 1 0
9.420215 -55.292088 -1.3051552 22 3199677511816 1 0
12.036972 -54.792885 -0.9792196 10 3199677532552 1 0
5.982184 -50.308125 -1.4744246 33 3199677534856 1 0
1.0213305 -6.050509 -1.7177342 6 3199677534856 1 0
1.0333346 -8.701324 -1.7525041 3 3199677537160 1 0
9.385052 -55.650185 0 11 3199677537160 1 0
2.0844018 -30.081827 -0.3510485 15 3199677539464 1 0
1.7487385 -10.379094 -1.6375048 16 3199677539464 1 0
1.2858424 -10.855911 -1.3914758 10 3199677541768 1 0
11.983727 -54.709965 0.32551366 13 3199677541768 1 0
3.4757147 -29.38264 -0.1719629 19 3199677544072 1 0
1.3523787 -19.647892 -1.8384336 2 3199677546376 1 0
2.6712158 -15.8837805 -1.7349722 3 3199677544072 1 0
9.333948 -55.554085 1.3108314 21 3199677546376 1 0
4.199821 -25.02001 -1.7740467 8 3199677548680 1 0
5.597096 -81.4985 0.95102996 28 3199677548680 1 0
2.5863743 -21.950626 -1.8043386 21 3199677550984 1 0
11.850753 -54.26145 1.6163864 8 3199677550984 1 0
9.9241295 -84.33717 1.4822677 29 3199677553288 1 0
5.832881 -26.726793 -1.7532041 9 3199677553288 1 0
1.383062 -20.274448 -1.1834779 2 3199677555592 1 1
9.247237 -55.244503 3.2620642 23 3199677555592 1 0
8.93013 -76.0902 3.1212714 29 3199677557896 1 0
4.7668757 -28.504827 -1.3462385 34 3199677557896 1 0
3.44987 -29.433844 -1.5531218 13 3199677560200 1 0
0 0 0 1 3199677560200 1 0
0 0 0 8 3199677562504 1 0
6.284245 -28.87966 -1.2041214 41 3199677562504 1 0
2.034112 -30.08894 -1.0531272 17 3199677564808 1 0
0 0 0 29 3199677567112 1 0
9.399532 -56.418884 -1.3309308 11 3199677567112 1 0
0.43892768 -3.7993488 -1.783449 1 3199677588296 1 0
0 0 0 9 3199677564808 1 0
11.847324 -54.842384 -0.97935927 10 3199677588296 1 0
5.809563 -50.348476 -1.4750065 33 3199677590600 1 0
1.0002921 -6.054023 -1.7177342 5 3199677590600 1 0
1.0032083 -8.704849 -1.7525041 4 3199677592904 1 0
9.284224 -56.238804 0 11 3199677592904 1 0
1.9880532 -30.200584 -0.3523523 3 3199677595208 1 0
1.7110215 -10.373362 -1.63566 8 3199677595208 1 0
1.2485722 -10.860261 -1.3914758 11 3199677597512 1 0
11.793339 -54.739048 0.32544392 13 3199677597512 1 0
3.3884993 -29.50959 -0.17263709 15 3199677599816 1 0
2.6182027 -15.900666 -1.735829 3 3199677599816 1 0
1.2860215 -19.660328 -1.8391773 2 3199677602120 1 0
14.249226 -86.61194 2.0425036 28 3199677602120 1 0
4.8782535 -74.735886 0.8719171 47 3199677604424 1 0
4.1163025 -25.041973 -1.7746047 8 3199677604424 1 0
2.513198 -21.96715 -1.8049895 23 3199677606728 1 0
11.667591 -54.30113 1.6163864 8 3199677606728 1 0
15.585069 -136.39154 2.3962154 29 3199677609032 1 0
5.7690315 -26.86723 -1.7611349 9 3199677609032 1 0
1.3012758 -20.06378 -1.1709199 2 3199677611336 1 1
21.75049 -132.66504 7.829233 28 3199677611336 1 0
8.609206 -75.527855 3.09701 29 3199677613640 1 0
3.3648968 -29.556252 -1.5589834 13 3199677615944 1 0
4.6609287 -28.453512 -1.3430743 34 3199677613640 1 0
0 0 0 1 3199677615944 1 0
6.1955576 -28.931515 -1.205424 42 3199677618248 1 0
1.9372499 -30.127378 -1.054244 17 3199677620552 1 0
0 0 0 9 3199677620552 1 0
0 0 0 29 3199677622856 1 0
9.186504 -56.27569 -1.3268365 23 3199677622856 1 0
0.42309338 -3.7719624 -1.7699252 1 3199677643592 1 0
0 0 0 8 3199677618248 1 0
11.664564 -54.87746 -0.9792894 10 3199677643592 1 0
5.642648 -50.37148 -1.4751228 22 3199677645896 1 0
0.9795513 -6.053511 -1.7166559 6 3199677645896 1 0
9.068771 -56.095673 0 22 3199677648200 1 0
0.9750819 -8.715939 -1.754073 4 3199677648200 1 0
4.6473804 -74.38592 -0.8676798 38 3199677650504 1 0
1.678277 -10.39072 -1.6375048 10 3199677650504 1 0
1.2131153 -10.872264 -1.392486 10 3199677652808 1 0
11.60933 -54.77428 0.32542068 26 3199677652808 1 0
