# .PCD v.7 - Point Cloud Data file format
VERSION .7
FIELDS x y z rgb timestamp_ns device_id active
SIZE 4 4 4 4 8 1 1
TYPE F F F F F U U
COUNT 1 1 1 1 1 1 1
WIDTH 952
HEIGHT 1
VIEWPOINT 0 0 0 1 0 0 0
POINTS 952               
DATA ascii
-9.434519 29.877008 0.5468886 27 3202624499328 1 0
-6.0922275 14.265776 -0.994156 7 3202624499328 1 0
-3.9329774 14.973871 -0.9016199 6 3202624501632 1 0
-10.835378 29.265665 1.8174258 33 3202624501632 1 0
-9.51564 30.164455 1.2886297 26 3202624503936 1 0
-5.192121 14.029856 -0.6968501 4 3202624503936 1 0
-4.356661 13.817563 -0.75929004 11 3202624506240 1 0
-7.619769 20.598911 2.696725 13 3202624506240 1 0
-6.0850854 14.272035 -0.63210267 4 3202624508544 1 0
-8.308888 26.365797 2.256725 26 3202624508544 1 0
-3.9396663 15.034931 -0.542757 6 3202624510848 1 0
-7.1604447 19.374516 5.5345864 29 3202624510848 1 0
-6.2120814 19.732222 3.7717683 26 3202624513152 1 0
0 0 0 1 3202624513152 1 0
0 0 0 50 3202624533888 1 0
-4.322684 13.8007345 -0.42088184 9 3202624536192 1 0
-2.538081 6.901399 -2.0584774 5 3202624536192 1 0
-3.4159293 10.9113655 -2.2867277 2 3202624538496 1 0
-1.2326126 3.9332716 -1.9220679 4 3202624533888 1 0
-11.23954 30.575619 0 27 3202624538496 1 0
-5.179994 14.097791 -2.3366573 6 3202624540800 1 0
-14.598568 56.145187 -0.6753691 61 3202624540800 1 0
-8.337558 19.67387 0.124188974 22 3202624543104 1 0
-4.3147187 13.796408 -1.8399806 18 3202624543104 1 0
0 0 0 100 3202624545408 1 0
-3.8811305 14.953373 -1.4421202 5 3202624547712 1 0
-5.1573205 14.048705 -1.6120248 19 3202624545408 1 0
-10.450045 28.479055 0.70589674 40 3202624547712 1 0
-5.141564 14.018387 -1.044115 10 3202624550016 1 0
-4.3032904 13.788016 -1.1791339 3 3202624552320 1 0
-6.533767 25.188622 0.30294755 25 3202624550016 1 0
-9.1188545 21.552364 0.6810676 14 3202624552320 1 0
-9.488572 30.417545 0.55617326 42 3202624554624 1 0
-6.0283995 14.253866 -0.99185354 8 3202624554624 1 0
-3.9057088 15.084153 -0.90743387 4 3202624556928 1 0
-10.738648 29.318308 1.818356 16 3202624556928 1 0
-5.132127 14.017878 -0.69536114 4 3202624559232 1 0
-9.340134 29.97236 1.2790228 15 3202624559232 1 0
-7.6269536 20.84163 2.7249985 15 3202624561536 1 0
-4.2965236 13.794548 -0.7571966 7 3202624561536 1 0
0 0 0 17 3202624563840 1 0
-6.015019 14.245323 -0.62998587 4 3202624563840 1 0
-3.9071562 15.126001 -0.5455489 6 3202624566144 1 0
-7.074197 19.348589 5.5200925 6 3202624566144 1 0
-6.168874 19.836454 3.7875528 30 3202624568448 1 0
-18.64166 51.00969 -1.2637469 10 3202624568448 1 0
-1.2231635 3.9514027 -1.9288298 3 3202624589184 1 0
-10.681402 25.410053 -0.48112795 31 3202624589184 1 0
-4.291029 13.869215 -0.42251092 4 3202624591488 1 0
-2.516609 6.9174566 -2.0606341 5 3202624591488 1 0
-3.3847735 10.945706 -2.2914345 2 3202624593792 1 0
-11.10267 30.531965 0 54 3202624593792 1 0
-14.538537 56.72661 -0.6817484 8 3202624596096 1 0
-5.1280518 14.108356 -2.3354275 12 3202624596096 1 0
-4.279417 13.853087 -1.8455364 21 3202624598400 1 0
-9.477735 22.583408 0.14234538 8 3202624598400 1 0
-8.0195055 25.973688 -0.15799107 27 3202624600704 1 0
-5.0987477 14.040455 -1.6090261 18 3202624600704 1 0
-3.8456903 15.032423 -1.4484403 3 3202624603008 1 0
-10.347841 28.507841 0.70571065 48 3202624603008 1 0
-5.4292955 21.235443 0.25517255 6 3202624605312 1 0
-5.07899 13.998739 -1.0413246 9 3202624605312 1 0
-4.2809734 13.886769 -1.186294 12 3202624607616 1 0
-9.286151 22.16303 0.6993364 25 3202624607616 1 0
-9.513057 30.874733 0.56392217 43 3202624609920 1 0
-5.9570184 14.223275 -0.9882719 7 3202624609920 1 0
-3.8658683 15.147994 -0.9104571 1 3202624612224 1 0
-10.519257 29.032736 1.7983562 10 3202624612224 1 0
-9.350676 30.379126 1.29498 10 3202624614528 1 0
-5.069558 13.998137 -0.69349986 4 3202624614528 1 0
-4.267138 13.870549 -0.7605461 9 3202624616832 1 0
-7.5149665 20.759867 2.7108617 23 3202624616832 1 0
-8.133993 26.453646 2.2593286 26 3202624619136 1 0
-5.948297 14.225673 -0.62819475 4 3202624619136 1 0
-6.5833344 25.858875 -0.9318166 10 3202624621440 1 0
-7.0854588 19.591167 5.582209 25 3202624621440 1 0
-6.118081 19.918053 3.7990324 21 3202624623744 1 0
0 0 0 35 3202624623744 1 0
-1.2051234 3.9417808 -1.9220679 3 3202624644480 1 0
-10.594177 25.450874 -0.48119774 31 3202624644480 1 0
-4.269464 13.972056 -0.42518726 4 3202624646784 1 0
-2.4898386 6.91895 -2.0584774 6 3202624646784 1 0
-3.372896 11.043735 -2.3094773 2 3202624649088 1 0
-11.014979 30.62323 0 18 3202624649088 1 0
-5.377296 21.289927 -0.25563818 5 3202624651392 1 0
-5.0747614 14.115013 -2.3335826 13 3202624651392 1 0
-4.24493 13.913485 -1.8515972 12 3202624653696 1 0
-9.06882 21.822216 0.13734715 37 3202624653696 1 0
0 0 0 19 3202624656000 1 0
-4.0648317 16.12321 -1.552166 12 3202624658304 1 0
0 0 0 3 3202624658304 1 0
-6.3714404 25.287922 0.30359945 31 3202624660608 1 0
-5.0349174 14.016996 -1.6043137 20 3202624656000 1 0
-5.016616 13.978826 -1.0385344 9 3202624660608 1 0
-4.2487297 13.955023 -1.1908504 10 3202624662912 1 0
-7.91492 26.010262 0.47456583 17 3202624665216 1 0
-9.175021 22.114063 0.69677645 31 3202624662912 1 0
-5.892041 14.207109 -0.9857136 6 3202624665216 1 0
-3.9863293 15.850727 -0.951852 3 3202624667520 1 0
0 0 0 33 3202624667520 1 0
-9.193431 30.243328 1.2878156 37 3202624669824 1 0
-5.009885 13.985656 -0.6920109 4 3202624669824 1 0
-4.247725 13.980909 -0.76577973 5 3202624672128 1 0
-7.4799285 20.89063 2.7245111 23 3202624672128 1 0
-8.056662 26.53147 2.2635596 8 3202624674432 1 0
-5.8833146 14.209422 -0.62656647 4 3202624674432 1 0
-8.245905 32.868786 -1.1833721 11 3202624676736 1 0
-7.004016 19.579401 5.5718565 17 3202624676736 1 0
-11.895207 33.267757 -0.82211936 71 3202624679040 1 0
-6.007394 19.803722 3.7732034 14 3202624679040 1 0
-1.1924045 3.949434 -1.9237583 3 3202624699776 1 0
-10.520513 25.524677 -0.48189583 35 3202624699776 1 0
-4.249441 14.082601 -0.4280963 19 3202624702080 1 0
-2.4656215 6.927617 -2.0584774 6 3202624702080 1 0
-3.3001888 10.942831 -2.285943 2 3202624704384 1 0
-10.790935 30.333778 0 18 3202624704384 1 0
0 0 0 16 3202624706688 1 0
-5.0145583 14.102959 -2.3286633 11 3202624706688 1 0
-4.2188225 14.004326 -1.8616987 16 3202624708992 1 0
-9.023917 21.93168 0.13783534 35 3202624708992 1 0
-4.9194803 16.339186 -0.09917449 24 3202624711296 1 0
-4.9694734 13.9896965 -1.5991732 20 3202624711296 1 0
0 0 0 101 3202624713600 1 0
-10.792233 30.396217 0.75056195 56 3202624713600 1 0
-5.220095 21.032417 0.25228554 5 3202624715904 1 0
-4.9564013 13.96642 -1.0363022 9 3202624715904 1 0
-4.219836 14.038737 -1.1967087 12 3202624718208 1 0
-9.102561 22.161278 0.6972419 23 3202624718208 1 0
-4.9088335 16.339973 0.29780787 25 3202624720512 1 0
-5.8232894 14.18366 -0.98264366 6 3202624720512 1 0
0 0 0 10 3202624722816 1 0
0 0 0 24 3202624722816 1 0
-8.018205 26.719713 1.1365473 8 3202624725120 1 0
-4.947909 13.969558 -0.69033575 4 3202624725120 1 0
-4.218331 14.064889 -0.7695479 6 3202624727424 1 0
-7.406461 20.921001 2.7249985 18 3202624727424 1 0
-7.896241 26.342508 2.2450085 8 3202624729728 1 0
-5.8171763 14.193442 -0.6249382 4 3202624729728 1 0
-7.325254 29.649904 -1.0665287 4 3202624732032 1 0
-6.9297676 19.59351 5.5687504 17 3202624732032 1 0
-6.1087646 20.401995 3.8829772 20 3202624734336 1 0
0 0 0 1 3202624734336 1 0
-1.1789562 3.9572523 -1.9254488 5 3202624755072 1 0
-10.440484 25.596394 -0.48252413 21 3202624755072 1 0
-4.209413 14.13634 -0.42925993 12 3202624757376 1 0
-2.4377582 6.9293046 -2.056321 5 3202624757376 1 0
-3.2626157 10.962277 -2.287512 2 3202624759680 1 0
-10.6553545 30.301119 0 54 3202624759680 1 0
0 0 0 28 3202624761984 1 0
-4.9385486 14.050179 -2.3169801 4 3202624761984 1 0
-4.1886363 14.087914 -1.87079 30 3202624764288 1 0
-6.9412713 17.044487 0.10696246 16 3202624764288 1 0
-4.869866 16.387426 -0.09936047 7 3202624766592 1 0
-5.372079 21.96633 -2.1109457 5 3202624768896 1 0
-4.908642 13.97744 -1.595746 22 3202624766592 1 0
-10.105927 28.789522 0.70999104 48 3202624768896 1 0
0 0 0 43 3202624771200 1 0
-4.8920703 13.942575 -1.0332329 7 3202624771200 1 0
-6.9335513 17.052505 0.53573126 18 3202624773504 1 0
-4.1915364 14.126243 -1.2028924 12 3202624773504 1 0
-7.733711 26.07723 0.47477525 17 3202624775808 1 0
-5.7595963 14.17087 -0.98034114 5 3202624775808 1 0
0 0 0 24 3202624778112 1 0
-10.263189 29.289314 1.8074259 10 3202624778112 1 0
-7.93585 26.785975 1.1381756 34 3202624780416 1 0
-4.885704 13.949104 -0.6884745 4 3202624780416 1 0
-4.1884904 14.14464 -0.77310675 6 3202624782720 1 0
-7.3360114 20.954222 2.7259734 13 3202624782720 1 0
-7.7774696 26.27805 2.2371976 8 3202624785024 1 0
-5.7557807 14.183951 -0.62363553 4 3202624785024 1 0
-7.571414 31.108343 -1.1180403 4 3202624787328 1 0
-6.855523 19.599144 5.5635743 8 3202624787328 1 0
-5.3821683 15.393817 -0.37946835 4 3202624789632 1 0
-1.1648034 3.9576623 -1.9237583 4 3202624810368 1 0
-6.036171 20.415382 3.8815422 20 3202624789632 1 0
-6.8947077 17.065 -0.3212639 19 3202624810368 1 0
-4.1906176 14.246146 -0.43216896 12 3202624812672 1 0
-2.415982 6.9410057 -2.0573993 5 3202624812672 1 0
-3.2227669 10.961794 -2.2851586 2 3202624814976 1 0
-10.542543 30.302439 0 54 3202624814976 1 0
-5.0582995 20.948494 -0.25088862 21 3202624817280 1 0
-4.8734474 14.01432 -2.3083713 2 3202624817280 1 0
-4.166085 14.185605 -1.8819016 22 3202624819584 1 0
-8.871226 21.993885 0.13783534 7 3202624819584 1 0
-9.864124 33.60563 -0.20355646 14 3202624821888 1 0
-4.8513136 13.963764 -1.5923189 29 3202624821888 1 0
0 0 0 85 3202624824192 1 0
-10.024886 28.868645 0.7111077 32 3202624824192 1 0
-4.956203 20.578133 0.24641845 22 3202624826496 1 0
-4.832013 13.921272 -1.0304426 10 3202624826496 1 0
-4.167391 14.220649 -1.2097269 11 3202624828800 1 0
0 0 0 6 3202624828800 1 0
-8.880948 30.321356 0.551496 46 3202624831104 1 0
-5.695248 14.149531 -0.977527 6 3202624831104 1 0
-3.8061254 15.833363 -0.9483637 14 3202624833408 1 0
-10.140334 29.256012 1.8032398 16 3202624833408 1 0
-7.632723 26.087791 1.1074009 12 3202624835712 1 0
-4.826531 13.931637 -0.6867994 4 3202624835712 1 0
-4.1627493 14.235492 -0.7772936 6 3202624838016 1 0
-9.099005 26.276358 3.4142916 12 3202624838016 1 0
-8.930328 30.555838 2.5987813 5 3202624840320 1 0
-5.686508 14.151581 -0.62135595 4 3202624840320 1 0
0 0 0 100 3202624842624 1 0
-6.7922845 19.633415 5.56668 25 3202624842624 1 0
-5.939741 20.34528 3.8643227 17 3202624844928 1 0
-5.3085 15.351692 -0.3779795 5 3202624844928 1 0
-1.1519928 3.9651854 -1.9254488 3 3202624865664 1 0
0 0 0 7 3202624865664 1 0
-4.1598177 14.325963 -0.43414712 12 3202624867968 1 0
-2.3904853 6.9457545 -2.056321 6 3202624867968 1 0
-3.1844835 10.972977 -2.2851586 2 3202624870272 1 0
-10.45492 30.39201 0 45 3202624870272 1 0
-4.9721913 20.911545 -0.25023672 22 3202624872576 1 0
-4.8155026 14.005083 -2.3040671 2 3202624872576 1 0
-4.158525 14.344882 -1.9010944 17 3202624874880 1 0
-8.789949 22.013575 0.1377656 40 3202624874880 1 0
-9.756777 33.67443 -0.20376569 9 3202624877184 1 0
-4.788329 13.9392395 -1.5876067 39 3202624877184 1 0
-3.8963354 16.418648 -1.575216 12 3202624879488 1 0
-9.817568 28.593323 0.7034774 16 3202624879488 1 0
-4.775618 13.915409 -1.0287684 10 3202624881792 1 0
-4.889879 20.618658 0.24669783 24 3202624881792 1 0
-4.1376667 14.304044 -1.2155852 11 3202624884096 1 0
-11.097994 27.840868 0.87225056 10 3202624884096 1 0
-8.716183 30.148542 0.54779613 55 3202624886400 1 0
-5.632524 14.135951 -0.97522455 6 3202624886400 1 0
-6.7097425 28.347374 -1.6964966 12 3202624888704 1 0
-7.5393953 26.106596 1.1070752 24 3202624891008 1 0
-10.035561 29.283674 1.8027748 16 3202624888704 1 0
-4.7688074 13.921939 -0.6854965 4 3202624891008 1 0
-4.141834 14.34972 -0.78273654 18 3202624893312 1 0
-10.091076 34.980446 2.9720814 15 3202624895616 1 0
-8.814326 25.74454 3.3411698 32 3202624893312 1 0
-5.6237803 14.137921 -0.61989045 4 3202624895616 1 0
0 0 0 21 3202624897920 1 0
-6.7212086 19.649694 5.5646095 10 3202624897920 1 0
-5.862149 20.343203 3.860018 20 3202624900224 1 0
-5.223832 15.279316 -0.37574625 5 3202624900224 1 0
-1.1361463 3.9622128 -1.9220679 3 3202624920960 1 0
-4.1417294 14.451859 -0.43752164 5 3202624923264 1 0
-10.944884 27.643623 -0.51896477 20 3202624920960 1 0
-2.3687072 6.96135 -2.0584774 6 3202624923264 1 0
-3.1483212 10.991568 -2.2867277 2 3202624925568 1 0
-10.456958 30.746424 0 72 3202624925568 1 0
-4.900078 20.932669 -0.2502833 29 3202624927872 1 0
-4.7831235 14.070455 -2.3120608 1 3202624927872 1 0
-4.1335316 14.447054 -1.912711 17 3202624930176 1 0
-8.592488 21.73909 0.1358593 32 3202624930176 1 0
0 0 0 100 3202624932480 1 0
-3.675002 15.730185 -1.5079246 21 3202624934784 1 0
-4.7306905 13.929508 -1.584608 42 3202624932480 1 0
-10.022341 29.524864 0.7255308 21 3202624934784 1 0
-4.8315177 20.694027 0.2473963 28 3202624937088 1 0
-4.712912 13.890429 -1.0256991 9 3202624937088 1 0
-4.1117887 14.402739 -1.2227453 11 3202624939392 1 0
-10.974327 27.812492 0.87015605 38 3202624939392 1 0
-8.695387 30.474918 0.55317146 23 3202624941696 1 0
-5.5714293 14.125819 -0.9731779 6 3202624941696 1 0
-3.673747 15.766211 -0.94278234 15 3202624944000 1 0
-9.975566 29.443335 1.8104491 16 3202624944000 1 0
-7.4515066 26.144285 1.1075637 8 3202624946304 1 0
-4.7086473 13.90444 -0.6838214 4 3202624946304 1 0
-4.109228 14.425557 -0.7860861 16 3202624948608 1 0
-8.746046 25.83908 3.349457 20 3202624948608 1 0
-10.382644 36.468685 3.09543 8 3202624950912 1 0
-5.5612173 14.123997 -0.618425 4 3202624950912 1 0
-4.896524 21.069319 -0.7553647 8 3202624953216 1 0
-7.0944324 20.97969 5.934203 10 3202624953216 1 0
-5.822318 20.473307 3.8808248 15 3202624955520 1 0
-5.1333323 15.187594 -0.3730477 5 3202624955520 1 0
-1.1223086 3.9661546 -1.9220679 3 3202624976256 1 0
-10.817678 27.603462 -0.51749873 40 3202624976256 1 0
-4.1109495 14.535453 -0.43961614 17 3202624978560 1 0
-2.3419874 6.962257 -2.056321 6 3202624978560 1 0
-3.1090274 10.998671 -2.285943 2 3202624980864 1 0
-9.878345 29.37976 0 17 3202624980864 1 0
-4.7726507 20.711786 -0.24744287 27 3202624983168 1 0
-5.011293 14.9112 -2.447341 10 3202624983168 1 0
-4.2279887 14.972977 -1.9803908 19 3202624985472 1 0
-10.838862 27.702576 0.17289281 12 3202624985472 1 0
-7.08687 25.11067 -0.15164445 15 3202624987776 1 0
-4.6698866 13.908065 -1.580324 37 3202624987776 1 0
-3.8957071 16.938215 -1.6224316 7 3202624990080 1 0
0 0 0 38 3202624990080 1 0
-4.7432833 20.63646 0.24651158 26 3202624992384 1 0
-4.083953 14.493513 -1.2292545 11 3202624994688 1 0
-10.875888 27.842548 0.86992335 31 3202624994688 1 0
-4.6587596 13.887643 -1.024304 9 3202624992384 1 0
-8.620226 30.608463 0.55505633 23 3202624996992 1 0
-5.50559 14.100199 -0.970108 6 3202624996992 1 0
-6.6173205 28.84454 -1.7234732 8 3202624999296 1 0
-10.364493 30.938816 1.9002157 24 3202624999296 1 0
-7.527897 26.758188 1.1324766 33 3202625001600 1 0
-4.6485095 13.882529 -0.68196017 4 3202625001600 1 0
-4.0817337 14.516367 -0.79027295 16 3202625003904 1 0
-8.597571 25.68798 3.3260581 24 3202625003904 1 0
-9.938383 35.363834 2.998769 24 3202625006208 1 0
-5.4987025 14.105564 -0.61679673 4 3202625006208 1 0
-4.809936 21.019547 -0.75299156 37 3202625008512 1 0
-5.7753887 20.572441 3.8958917 15 3202625010816 1 0
-5.023634 15.030403 -0.3687673 5 3202625010816 1 0
-6.520931 19.50126 5.50974 23 3202625008512 1 0
-1.1091502 3.9698546 -1.9220679 3 3202625031552 1 0
-10.714507 27.609356 -0.5169403 40 3202625031552 1 0
-4.0777807 14.602919 -0.44124523 3 3202625033856 1 0
-2.318887 6.969985 -2.056321 6 3202625033856 1 0
-3.0714831 11.005142 -2.2851586 2 3202625036160 1 0
-4.7375793 20.875721 -0.24921231 24 3202625038464 1 0
-9.772028 29.385788 0 48 3202625036160 1 0
-4.945611 14.878977 -2.4393473 6 3202625038464 1 0
-4.4212756 15.85838 -2.0955474 81 3202625040768 1 0
-8.426166 21.74834 0.13555707 23 3202625040768 1 0
-6.9767194 25.037704 -0.15106326 40 3202625043072 1 0
-4.6112065 13.885731 -1.5760401 42 3202625043072 1 0
-3.5579753 15.708068 -1.5034633 18 3202625045376 1 0
0 0 0 77 3202625045376 1 0
-4.672175 20.640373 0.24637188 30 3202625047680 1 0
-4.5988593 13.861356 -1.0212348 9 3202625047680 1 0
-4.0604444 14.595317 -1.23674 10 3202625049984 1 0
-10.80802 27.941854 0.8719015 31 3202625049984 1 0
-8.569033 30.817982 0.5583374 9 3202625052288 1 0
-5.441527 14.0737 -0.967038 7 3202625052288 1 0
0 0 0 11 3202625054592 1 0
-10.290725 31.0602 1.9055645 18 3202625054592 1 0
-9.384739 33.787792 1.4286627 13 3202625056896 1 0
-4.054943 14.606802 -0.7944598 14 3202625059200 1 0
-4.592399 13.867523 -0.6804712 4 3202625056896 1 0
-8.506102 25.697506 3.3236208 16 3202625059200 1 0
-8.119906 29.265385 2.4793382 10 3202625061504 1 0
-5.4389434 14.090164 -0.61533123 4 3202625061504 1 0
-6.4174066 19.405392 5.476611 12 3202625063808 1 0
-4.698903 20.85209 -0.74643046 23 3202625063808 1 0
-5.620951 20.280521 3.8370588 19 3202625066112 1 0
-1.0945926 3.9738932 -1.9220679 4 3202625086296 1 0
-4.946152 14.963449 -0.36672014 7 3202625066112 1 0
-10.634741 27.704447 -0.51798743 40 3202625086296 1 0
-4.052884 14.7218485 -0.444387 10 3202625088600 1 0
-2.2933252 6.9784374 -2.056321 6 3202625088600 1 0
-9.747893 29.676022 0 39 3202625090904 1 0
-3.0332077 11.023889 -2.2867277 2 3202625090904 1 0
-4.7037077 21.084229 -0.25149396 24 3202625093208 1 0
-4.8910437 14.897003 -2.4393473 7 3202625093208 1 0
-4.3557606 15.847695 -2.092012 81 3202625095512 1 0
-8.383613 21.87619 0.13616152 42 3202625095512 1 0
-6.8796067 25.043821 -0.15094702 28 3202625097816 1 0
-4.5503654 13.872308 -1.5726131 42 3202625097816 1 0
-3.7375457 16.786175 -1.60533 12 3202625100120 1 0
-9.899538 30.193958 0.7393956 17 3202625100120 1 0
-4.6077867 20.708113 0.24697722 22 3202625102424 1 0
-4.539325 13.851575 -1.0192816 10 3202625102424 1 0
-4.028012 14.686996 -1.2432492 10 3202625104728 1 0
-10.7141075 28.003687 0.87259966 14 3202625104728 1 0
0 0 0 56 3202625107032 1 0
-5.375649 14.056265 -0.9644797 7 3202625107032 1 0
0 0 0 24 3202625109336 1 0
-8.178463 24.991262 1.5313818 8 3202625109336 1 0
-9.24606 33.767994 1.4263831 13 3202625111640 1 0
-4.530361 13.850083 -0.67879605 4 3202625111640 1 0
-8.557444 26.173796 3.381143 8 3202625113944 1 0
-7.1932387 26.299313 2.2258065 12 3202625116248 1 0
-5.368731 14.061464 -0.6132145 4 3202625116248 1 0
-4.0245757 14.706328 -0.79906535 10 3202625113944 1 0
0 0 0 10 3202625118552 1 0
-7.0804353 21.676498 6.1102 5 3202625118552 1 0
-5.5061336 20.152943 3.8090773 28 3202625120856 1 0
-4.8639708 14.897844 -0.364673 7 3202625120856 1 0
-1.0814086 3.9775012 -1.9220679 3 3202625141592 1 0
-10.545652 27.747038 -0.518127 36 3202625141592 1 0
-4.0207105 14.796971 -0.4462488 9 3202625143896 1 0
-2.2701204 6.9860206 -2.056321 6 3202625143896 1 0
-2.9944181 11.02636 -2.2851586 2 3202625146200 1 0
-9.6366415 29.67028 0 39 3202625146200 1 0
-4.5106297 20.54116 -0.24483526 17 3202625148504 1 0
-4.8376303 14.901968 -2.4375024 6 3202625148504 1 0
-4.289218 15.812393 -2.085446 61 3202625150808 1 0
-6.8008423 25.086048 -0.15106326 9 3202625153112 1 0
-4.494018 13.857221 -1.569186 43 3202625153112 1 0
-8.272076 21.803137 0.13553382 28 3202625150808 1 0
-3.6376493 16.600227 -1.5863694 11 3202625155416 1 0
-9.553888 29.473845 0.7209712 12 3202625155416 1 0
-4.5448804 20.754768 0.24734974 30 3202625157720 1 0
-4.4791327 13.825025 -1.0162123 10 3202625157720 1 0
-3.99926 14.777471 -1.2497584 10 3202625160024 1 0
-10.836222 28.611767 0.8904031 50 3202625160024 1 0
-7.137229 26.387646 0.4771488 28 3202625162328 1 0
-5.3167796 14.044497 -0.96243304 7 3202625162328 1 0
-3.4159513 15.6320095 -0.9318522 1 3202625164632 1 0
-8.292841 25.634333 1.5690559 12 3202625164632 1 0
-9.119861 33.756756 1.424592 13 3202625166936 1 0
-4.4722347 13.831172 -0.6771209 4 3202625166936 1 0
-3.9963677 14.800925 -0.8034616 8 3202625169240 1 0
-7.100383 26.312145 2.2248302 12 3202625171544 1 0
-8.470756 26.210323 3.382118 8 3202625169240 1 0
-5.309438 14.049785 -0.61191183 4 3202625171544 1 0
-4.5944967 21.084051 -0.75354993 2 3202625173848 1 0
-6.8721623 21.285091 5.9932137 35 3202625173848 1 0
-5.396108 20.019703 3.780378 23 3202625176152 1 0
-4.8067737 14.89539 -0.3642077 8 3202625176152 1 0
-1.0684569 3.9847531 -1.9237583 3 3202625196888 1 0
0 0 0 14 3202625196888 1 0
-3.9938736 14.9036045 -0.4490415 5 3202625199192 1 0
-2.244543 6.990235 -2.0552425 6 3202625199192 1 0
-2.950837 11.017801 -2.2812364 2 3202625201496 1 0
-9.592909 29.890362 0 39 3202625201496 1 0
-4.4397445 20.56069 -0.24488182 17 3202625203800 1 0
-4.785583 14.918764 -2.4375024 6 3202625203800 1 0
-4.223742 15.788937 -2.0803952 76 3202625206104 1 0
-8.162179 21.742004 0.13497588 35 3202625206104 1 0
-11.414978 42.695652 -0.25686333 7 3202625208408 1 0
-4.434697 13.8387375 -1.5653305 41 3202625208408 1 0
-3.3649175 15.616133 -1.4911946 6 3202625210712 1 0
-9.403376 29.358488 0.7173422 53 3202625210712 1 0
-4.505241 20.923 0.24916574 26 3202625213016 1 0
-4.422331 13.813973 -1.0142591 10 3202625213016 1 0
-3.9733534 14.887638 -1.2578948 10 3202625215320 1 0
-10.74891 28.683113 0.89145035 29 3202625215320 1 0
-6.9986925 26.238506 0.47400737 49 3202625217624 1 0
-5.25232 14.021851 -0.9596189 7 3202625217624 1 0
0 0 0 85 3202625219928 1 0
-8.131576 25.43871 1.555335 29 3202625219928 1 0
-7.730234 29.01499 1.2233351 47 3202625222232 1 0
-4.4166317 13.823862 -0.6760042 6 3202625222232 1 0
-3.96729 14.899706 -0.80806714 6 3202625224536 1 0
-6.449265 20.196047 2.6031291 4 3202625224536 1 0
-7.0136194 26.356033 2.2264574 4 3202625226840 1 0
-5.247765 14.034541 -0.6104464 4 3202625226840 1 0
0 0 0 13 3202625229144 1 0
-5.2584662 19.783611 3.7323072 27 3202625231448 1 0
-6.7802076 21.253736 5.9776845 17 3202625229144 1 0
-4.741387 14.870168 -0.36318415 7 3202625231448 1 0
-1.054541 3.9884584 -1.9237583 3 3202625252184 1 0
-18.96554 50.969566 -0.94927126 9 3202625252184 1 0
-3.9622552 14.994767 -0.45136872 5 3202625254488 1 0
-2.220129 6.998027 -2.0552425 6 3202625254488 1 0
-2.9133613 11.031827 -2.2820208 2 3202625256792 1 0
-9.351892 29.492807 0 21 3202625256792 1 0
-4.3505054 20.4939 -0.24390398 17 3202625259096 1 0
-4.7322836 14.93161 -2.4368875 7 3202625259096 1 0
-4.1605062 15.77289 -2.0763547 76 3202625261400 1 0
-8.212975 22.11158 0.13709141 20 3202625261400 1 0
-11.257715 42.704296 -0.25667736 7 3202625263704 1 0
-4.3791614 13.831385 -1.5627601 47 3202625263704 1 0
-3.6141067 17.061596 -1.6280082 20 3202625266008 1 0
-9.752066 30.817036 0.75214386 26 3202625266008 1 0
-4.4346633 20.950338 0.24930544 22 3202625268312 1 0
-4.366864 13.8064995 -1.0125849 11 3202625268312 1 0
-3.939624 14.970816 -1.2637529 3 3202625270616 1 0
-10.558372 28.47678 0.8838868 14 3202625270616 1 0
-6.8612847 26.088722 0.47086594 28 3202625272920 1 0
-5.1880836 13.998925 -0.9568048 6 3202625272920 1 0
0 0 0 12 3202625275224 1 0
-7.989815 25.299393 1.5451026 16 3202625275224 1 0
-7.6278906 29.037931 1.2231723 23 3202625277528 1 0
-4.356323 13.801091 -0.6741429 13 3202625277528 1 0
-3.937571 14.998463 -0.81267273 4 3202625279832 1 0
-6.384701 20.237368 2.6055665 4 3202625279832 1 0
-7.4426427 28.366306 2.3940682 14 3202625282136 1 0
-5.18349 14.01154 -0.6086553 4 3202625282136 1 0
-4.374692 20.77138 -0.7412653 34 3202625284440 1 0
-6.707138 21.280958 5.9787197 15 3202625284440 1 0
-5.205338 19.862751 3.7437868 27 3202625286744 1 0
-4.678638 14.852301 -0.36234668 8 3202625286744 1 0
-1.0387833 3.9850993 -1.9203774 3 3202625307480 1 0
-18.736385 50.89659 -0.94668835 9 3202625307480 1 0
-3.9359868 15.109134 -0.45439413 5 3202625309784 1 0
-2.1956367 7.00575 -2.0552425 6 3202625309784 1 0
-2.867757 11.0154 -2.2765296 2 3202625312088 1 0
-8.143664 25.99839 0 7 3202625312088 1 0
-4.1567883 19.925653 -0.2369659 27 3202625314392 1 0
-4.6798077 14.94814 -2.4368875 7 3202625314392 1 0
-4.0939803 15.7451935 -2.0707989 81 3202625316696 1 0
-5.4946637 21.145393 -0.1269787 4 3202625319000 1 0
-4.31848 13.808786 -1.5584762 49 3202625319000 1 0
-10.485818 28.538038 0.17670542 21 3202625316696 1 0
-3.2389016 15.561403 -1.4837592 7 3202625321304 1 0
-9.48084 30.332224 0.7394887 13 3202625321304 1 0
-4.3425217 20.87976 0.24828102 20 3202625323608 1 0
-4.307232 13.7876 -1.0100738 5 3202625323608 1 0
-3.9134946 15.088897 -1.2725403 3 3202625325912 1 0
-10.484779 28.589148 0.886214 43 3202625325912 1 0
-6.569778 25.346409 0.45704362 16 3202625328216 1 0
-5.128652 13.991051 -0.955014 7 3202625328216 1 0
-3.241194 15.62024 -0.92906153 10 3202625330520 1 0
-7.9186373 25.388697 1.5488235 16 3202625330520 1 0
-7.4540443 28.794142 1.2117743 32 3202625332824 1 0
-4.303449 13.805115 -0.6735845 9 3202625332824 1 0
0 0 0 22 3202625335128 1 0
-3.9088948 15.109135 -0.8179063 6 3202625335128 1 0
-6.9816356 27.003273 2.2769034 13 3202625337432 1 0
-5.1236095 14.003761 -0.60751545 4 3202625337432 1 0
-4.31462 20.857426 -0.74377805 37 3202625339736 1 0
-6.643274 21.345497 5.990108 12 3202625339736 1 0
-5.136755 19.892792 3.7459393 27 3202625342040 1 0
-4.6037636 14.800314 -0.36067173 8 3202625342040 1 0
-1.0259733 3.9959025 -1.9237583 3 3202625362776 1 0
-18.588015 51.070152 -0.948643 9 3202625362776 1 0
-6.669415 25.990564 -0.7809063 37 3202625365080 1 0
-2.1711853 7.017399 -2.056321 6 3202625365080 1 0
-2.8257365 11.018156 -2.2749605 1 3202625367384 1 0
-8.032533 25.974329 0 45 3202625367384 1 0
-4.094231 19.987598 -0.23752466 21 3202625369688 1 0
-4.6256413 14.96499 -2.4368875 8 3202625369688 1 0
-4.0273137 15.721419 -2.0657482 84 3202625371992 1 0
-10.385545 28.583193 0.17675193 34 3202625371992 1 0
-10.9534 42.783363 -0.25667736 7 3202625374296 1 0
-4.260631 13.797612 -1.5554775 24 3202625374296 1 0
-3.2956645 16.123074 -1.5361795 3 3202625376600 1 0
-10.377054 33.621494 0.81876945 10 3202625376600 1 0
-4.1688337 20.40917 0.24250704 8 3202625378904 1 0
-4.274542 13.856241 -1.0139802 12 3202625378904 1 0
-4.8076267 18.810768 -1.5849799 8 3202625381208 1 0
-10.430973 28.75773 0.8902867 29 3202625381208 1 0
-6.4712477 25.334597 0.45641533 26 3202625383512 1 0
-5.066926 13.975314 -0.9527115 7 3202625383512 1 0
-6.6810393 32.777348 -1.9481223 4 3202625385816 1 0
-8.031423 26.072811 1.5888232 13 3202625385816 1 0
-7.3669024 28.87431 1.214054 18 3202625388120 1 0
-4.2726693 13.877396 -0.6763764 7 3202625388120 1 0
-6.2473316 20.300964 2.6080039 26 3202625390424 1 0
-7.2254186 28.352478 2.3885355 14 3202625392728 1 0
-5.0585775 13.97639 -0.6055615 6 3202625392728 1 0
-6.554533 25.705086 -1.3902524 8 3202625390424 1 0
-4.113403 20.237606 -0.7211632 30 3202625395032 1 0
-6.614761 21.51609 6.031519 7 3202625395032 1 0
-5.1157193 20.097242 3.7810955 19 3202625397336 1 0
-4.5268784 14.731999 -0.35862458 7 3202625397336 1 0
-1.010937 3.992254 -1.9203774 4 3202625418072 1 0
-18.367054 50.98853 -0.94599026 9 3202625418072 1 0
-6.5800586 26.000957 -0.7805572 8 3202625420376 1 0
-2.1467254 7.020892 -2.0552425 6 3202625420376 1 0
-2.7870996 11.019901 -2.2733917 2 3202625422680 1 0
-7.9436383 25.993288 0 28 3202625422680 1 0
-4.214614 20.930435 -0.24856041 26 3202625424984 1 0
-4.571045 14.965226 -2.434428 7 3202625424984 1 0
-3.9659536 15.700179 -2.0612025 66 3202625427288 1 0
-10.274982 28.576372 0.1764962 42 3202625427288 1 0
0 0 0 16 3202625429592 1 0
-4.232921 13.87268 -1.5623318 22 3202625429592 1 0
-10.287366 33.732666 0.82063055 15 3202625431896 1 0
-4.0764737 20.305447 0.24111012 5 3202625434200 1 0
-4.241824 13.916358 -1.0173284 13 3202625434200 1 0
-3.99208 15.842416 -1.3337264 16 3202625436504 1 0
-3.1183128 15.521025 -1.4778107 12 3202625431896 1 0
-10.339279 28.807816 0.89075214 10 3202625436504 1 0
-5.0075073 13.958552 -0.95040905 7 3202625438808 1 0
0 0 0 12 3202625441112 1 0
-7.7767653 25.553585 1.5555676 34 3202625441112 1 0
-7.299021 29.019318 1.2191017 13 3202625443416 1 0
-4.2452826 13.956813 -0.6795405 4 3202625443416 1 0
-6.387493 25.36409 0.45655495 39 3202625438808 1 0
0 0 0 68 3202625445720 1 0
-6.245182 20.542423 2.6362777 27 3202625445720 1 0
-6.272924 24.970484 2.101807 11 3202625448024 1 0
-4.998753 13.959697 -0.60409606 4 3202625448024 1 0
-4.0418596 20.239788 -0.72074443 33 3202625450328 1 0
-6.5366907 21.523785 6.027378 5 3202625450328 1 0
-5.077497 20.236784 3.8040547 21 3202625452632 1 0
-4.2475777 13.993594 -0.34029323 8 3202625452632 1 0
-0.9969953 3.9957585 -1.9203774 3 3202625473368 1 0
-5.223911 20.949366 -0.62835556 9 3202625475672 1 0
-2.1222048 7.0283427 -2.0552425 5 3202625475672 1 0
-2.7457705 11.018146 -2.2710383 2 3202625477976 1 0
0 0 0 7 3202625477976 1 0
0 0 0 29 3202625473368 1 0
-4.10739 20.772375 -0.24651158 24 3202625480280 1 0
-4.516496 14.973523 -2.433198 8 3202625480280 1 0
-3.9005835 15.671572 -2.0556467 81 3202625482584 1 0
-10.76622 30.274065 0.18674842 9 3202625482584 1 0
-5.282393 21.236515 -0.12718792 9 3202625484888 1 0
-4.202829 13.948297 -1.569186 20 3202625484888 1 0
-3.4241006 17.35656 -1.6514302 6 3202625487192 1 0
-3.9877775 20.229296 0.24003914 63 3202625489496 1 0
-9.31623 30.934875 0.7517716 8 3202625487192 1 0
-4.213923 13.999857 -1.0223509 12 3202625489496 1 0
-6.29804 25.36691 -2.133702 13 3202625491800 1 0
-10.780351 30.369755 0.93787885 46 3202625491800 1 0
-6.2738757 25.285309 0.4547399 26 3202625494104 1 0
-4.9454045 13.938327 -0.94785076 6 3202625494104 1 0
0 0 0 36 3202625496408 1 0
-7.708206 25.649412 1.5597537 17 3202625496408 1 0
-7.1553802 28.873928 1.2119372 13 3202625498712 1 0
-4.2218256 14.055736 -0.6836353 8 3202625498712 1 0
0 0 0 17 3202625501016 1 0
-6.1243515 20.400589 2.6153162 25 3202625501016 1 0
-4.9379864 13.943154 -0.60263056 4 3202625503320 1 0
-6.9903073 28.242998 2.3751917 9 3202625503320 1 0
-3.9650316 20.22239 -0.7196276 19 3202625505624 1 0
-6.479276 21.605686 6.0439425 5 3202625505624 1 0
-4.9001174 19.82271 3.72298 20 3202625507928 1 0
-0.9830414 3.9992144 -1.9203774 4 3202625528664 1 0
-10.643437 30.20685 -0.5590355 23 3202625528664 1 0
-4.2193713 14.077286 -0.34196815 12 3202625507928 1 0
-5.2079825 21.200445 -0.6353373 9 3202625530968 1 0
-2.0954573 7.028325 -2.053086 4 3202625530968 1 0
-2.6848495 10.936242 -2.2522109 1 3202625533272 1 0
-4.875368 16.36105 0 13 3202625533272 1 0
-4.023423 20.72769 -0.24581312 32 3202625535576 1 0
-4.4642015 14.989198 -2.433198 7 3202625535576 1 0
-3.8382964 15.654262 -2.0516062 82 3202625537880 1 0
-10.648534 30.277502 0.18653919 37 3202625537880 1 0
-5.0682917 20.683731 -0.12377051 21 3202625540184 1 0
-4.1790643 14.046743 -1.5786105 22 3202625540184 1 0
-3.5300786 18.228615 -1.7332209 11 3202625542488 1 0
-7.7515655 26.06857 0.63285047 9 3202625542488 1 0
-3.8875046 20.089945 0.23822312 11 3202625544792 1 0
-4.1889 14.094804 -1.0282104 13 3202625544792 1 0
-3.856757 15.769212 -1.3252646 13 3202625547096 1 0
-10.665004 30.380793 0.9370643 46 3202625547096 1 0
-4.8848257 13.921604 -0.94554824 6 3202625549400 1 0
-5.0954556 20.847046 0.37459844 23 3202625549400 1 0
-4.0556164 21.007856 -1.2460355 7 3202625551704 1 0
-8.018471 27.02371 1.6416134 9 3202625551704 1 0
-6.45648 26.448763 1.109192 12 3202625554008 1 0
-4.192049 14.1355095 -0.6867994 4 3202625554008 1 0
-6.036179 20.364746 2.6080039 21 3202625556312 1 0
-6.302392 25.833857 -1.3936019 28 3202625556312 1 0
-6.913398 28.356312 2.3826773 14 3202625558616 1 0
-4.876075 13.9225855 -0.6010023 4 3202625558616 1 0
-3.895929 20.243958 -0.7199068 30 3202625560920 1 0
-4.8504443 19.919985 3.7380471 27 3202625563224 1 0
-4.1872277 14.1494465 -0.34336394 13 3202625563224 1 0
-3.7799861 12.766474 3.5675616 2 3202625560920 1 0
-0.9699286 4.006145 -1.9220679 3 3202625583960 1 0
-10.530035 30.221157 -0.55861664 37 3202625583960 1 0
-5.1217237 21.167974 -0.6338245 9 3202625586264 1 0
-2.0719988 7.039292 -2.0541642 5 3202625586264 1 0
-2.642971 10.930297 -2.249073 2 3202625588568 1 0
-9.889334 33.615513 0 14 3202625588568 1 0
-3.792375 19.908642 -0.23594147 46 3202625590872 1 0
-4.409622 14.997106 -2.4319682 7 3202625590872 1 0
-3.7743146 15.628993 -2.0465553 81 3202625593176 1 0
-10.550665 30.337156 0.18667866 13 3202625593176 1 0
-5.0223365 20.81017 -0.12442145 27 3202625595480 1 0
-4.154663 14.145194 -1.588035 23 3202625595480 1 0
-7.6593957 26.091633 0.6327574 22 3202625597784 1 0
-2.9444559 15.494138 -1.472234 10 3202625597784 1 0
-4.1621423 14.185917 -1.033791 12 3202625600088 1 0
-3.8098924 20.064096 0.23775749 14 3202625600088 1 0
-3.8072903 15.805834 -1.3272173 4 3202625602392 1 0
-9.999019 28.804968 0.8873777 25 3202625602392 1 0
-4.921565 20.444767 0.36705902 36 3202625604696 1 0
-2.9380133 15.509427 -0.9192942 14 3202625607000 1 0
-4.8231153 13.900858 -0.94298995 6 3202625604696 1 0
-7.8612285 26.836931 1.6285902 36 3202625607000 1 0
-6.3884077 26.572174 1.1134255 12 3202625609304 1 0
-4.166258 14.230585 -0.690708 4 3202625609304 1 0
-3.8017738 15.82336 -0.85286677 11 3202625611608 1 0
-5.9784355 20.431417 2.6138537 27 3202625611608 1 0
-6.6300755 27.612713 2.3182366 9 3202625613912 1 0
-3.9520812 20.929148 -0.74377805 25 3202625616216 1 0
-3.7386518 12.790716 3.5706675 2 3202625616216 1 0
-4.780881 19.936794 3.7380471 22 3202625618520 1 0
-4.8195987 13.916862 -0.6000253 5 3202625613912 1 0
-4.163603 14.252261 -0.34550416 13 3202625618520 1 0
-0.9567794 4.0130324 -1.9237583 4 3202625639256 1 0
-10.441415 30.306887 -0.5595242 37 3202625639256 1 0
-4.9887977 20.936728 -0.6263774 28 3202625641560 1 0
-2.0453672 7.039054 -2.0520077 4 3202625641560 1 0
-2.6069367 10.947012 -2.250642 1 3202625643864 1 0
-9.76845 33.63418 0 19 3202625643864 1 0
-3.8141196 20.405188 -0.24166888 21 3202625646168 1 0
-4.3512893 14.989442 -2.4282787 9 3202625646168 1 0
-3.7114642 15.603253 -2.0415046 79 3202625648472 1 0
-10.516721 30.577446 0.18793404 46 3202625648472 1 0
-4.128446 14.235703 -1.5966028 22 3202625650776 1 0
-3.2947924 17.665243 -1.6774546 5 3202625653080 1 0
-4.946554 20.807756 -0.12430521 44 3202625650776 1 0
-8.76848 30.250267 0.73288196 21 3202625653080 1 0
-3.7228227 19.974659 0.23654681 26 3202625655384 1 0
-4.1351423 14.27276 -1.0390924 13 3202625655384 1 0
-4.3845005 18.47571 -1.550156 7 3202625657688 1 0
-9.942017 28.955774 0.8909849 61 3202625657688 1 0
-4.854694 20.46897 0.36719865 38 3202625659992 1 0
-4.76861 13.894331 -0.941455 6 3202625659992 1 0
-3.9265177 21.113607 -1.2506866 16 3202625662296 1 0
-7.7913847 26.932127 1.6327763 9 3202625662296 1 0
-4.938184 20.845293 0.8727641 5 3202625664600 1 0
-4.143255 14.328828 -0.69480276 9 3202625664600 1 0
-6.6748977 28.192844 -1.5183707 45 3202625666904 1 0
-5.870966 20.313822 2.5963044 21 3202625666904 1 0
-6.5434637 27.65385 2.3198638 13 3202625669208 1 0
-4.7567844 13.883546 -0.59790856 4 3202625669208 1 0
-3.7637353 20.297413 -0.720884 24 3202625671512 1 0
-5.74477 19.896706 5.5490804 4 3202625671512 1 0
-4.138007 14.33881 -0.34727216 12 3202625673816 1 0
-4.69389 19.860422 3.7208276 33 3202625673816 1 0
-0.94416744 4.016019 -1.9237583 3 3202625694552 1 0
-10.375841 30.426603 -0.56112975 4 3202625694552 1 0
-2.02537 7.0528493 -2.0541642 5 3202625696856 1 0
-6.1164804 26.03176 -0.77822995 12 3202625696856 1 0
-2.5680494 10.936055 -2.2467196 2 3202625699160 1 0
-3.7499962 20.41707 -0.24166888 16 3202625701464 1 0
-7.188564 25.044754 0 9 3202625699160 1 0
-4.301997 14.99544 -2.427049 10 3202625701464 1 0
-3.6515536 15.568479 -2.0354438 81 3202625703768 1 0
-10.450255 30.697424 0.18846874 13 3202625703768 1 0
-4.9240656 21.006227 -0.12539785 23 3202625706072 1 0
-4.106713 14.328888 -1.6055989 22 3202625706072 1 0
0 0 0 16 3202625708376 1 0
-8.663491 30.243067 0.7320445 8 3202625708376 1 0
-3.644922 19.903637 0.23556896 21 3202625710680 1 0
-4.11225 14.362404 -1.044673 13 3202625710680 1 0
-3.687871 15.760432 -1.321359 9 3202625712984 1 0
-9.769949 28.748367 0.88365406 36 3202625712984 1 0
-4.830436 20.65547 0.37027025 55 3202625715288 1 0
-4.7108126 13.867666 -0.93864083 6 3202625715288 1 0
-2.8201191 15.433882 -0.91371286 13 3202625717592 1 0
-7.475128 26.146357 1.583707 12 3202625717592 1 0
-4.883581 20.907406 0.87471807 19 3202625719896 1 0
-4.119078 14.414769 -0.6983391 16 3202625719896 1 0
-3.6759024 15.746444 -0.8474238 6 3202625722200 1 0
-5.789674 20.271086 2.5885048 21 3202625722200 1 0
0 0 0 25 3202625724504 1 0
-4.7028766 13.868141 -0.5966059 5 3202625724504 1 0
-3.697801 20.297338 -0.7204652 22 3202625726808 1 0
0 0 0 28 3202625726808 1 0
-4.627008 19.855907 3.7172403 24 3202625729112 1 0
-4.1148744 14.428651 -0.3491332 18 3202625729112 1 0
-0.9276911 4.008694 -1.9186869 4 3202625750296 1 0
-12.189843 36.15875 -0.66605365 18 3202625750296 1 0
-4.790067 20.712322 -0.61869746 23 3202625752600 1 0
-1.9985353 7.0524936 -2.0520077 5 3202625752600 1 0
-2.5268917 10.933562 -2.2443662 2 3202625754904 1 0
-7.104728 25.085295 0 9 3202625754904 1 0
-4.2489724 15.01055 -2.427049 9 3202625757208 1 0
-3.5882494 15.546542 -2.030898 84 3202625759512 1 0
-9.818255 29.179972 0.1789372 61 3202625759512 1 0
-3.6593885 20.327848 -0.24045822 28 3202625757208 1 0
-4.8401914 20.984665 -0.12516537 25 3202625761816 1 0
-4.076187 14.416142 -1.6137383 22 3202625761816 1 0
-2.7367806 15.240911 -1.4454662 23 3202625764120 1 0
-8.783601 31.081993 0.75158554 13 3202625764120 1 0
-3.5606813 19.84574 0.2347308 24 3202625766424 1 0
-4.0844874 14.461565 -1.0508115 14 3202625766424 1 0
-3.9306011 17.075151 -1.4303875 3 3202625768728 1 0
-9.6687355 28.791002 0.8838868 21 3202625768728 1 0
-4.761876 20.700111 0.37075892 31 3202625771032 1 0
-2.7323248 15.267149 -0.90324783 39 3202625773336 1 0
-7.3821754 26.18105 1.584172 8 3202625773336 1 0
-4.8027487 20.905619 0.8739039 8 3202625775640 1 0
-4.0891876 14.510474 -0.70224774 16 3202625775640 1 0
-4.6503973 13.854362 -0.9365942 6 3202625771032 1 0
-6.83143 29.755985 -1.6000148 5 3202625777944 1 0
-5.732559 20.353313 2.5963044 23 3202625777944 1 0
-6.0997057 26.58651 2.2267828 8 3202625780248 1 0
-4.642926 13.858826 -0.5954661 6 3202625780248 1 0
-3.559616 19.956669 -0.7079014 19 3202625782552 1 0
-5.4286475 19.29579 5.3710127 8 3202625782552 1 0
-4.5709114 19.949648 3.7315898 18 3202625784856 1 0
-4.0840645 14.524655 -0.3510873 23 3202625784856 1 0
-0.9144975 4.015443 -1.9203774 3 3202625805592 1 0
-12.095161 36.295933 -0.6677989 18 3202625805592 1 0
-4.7541175 20.88876 -0.62346834 23 3202625807896 1 0
-1.9718308 7.0520077 -2.049851 6 3202625807896 1 0
-2.4930606 10.961439 -2.2482886 1 3202625810200 1 0
-6.996666 25.036747 0 53 3202625810200 1 0
-3.61134 20.470482 -0.24199484 19 3202625812504 1 0
-4.19655 15.0252905 -2.427049 8 3202625812504 1 0
-3.5286868 15.535756 -2.0278678 81 3202625814808 1 0
-9.765571 29.362091 0.17984386 43 3202625814808 1 0
-4.750089 20.927319 -0.124723665 25 3202625817112 1 0
-4.046146 14.503067 -1.6218777 16 3202625817112 1 0
-2.6773515 15.21507 -1.4421202 69 3202625819416 1 0
-8.561202 30.704155 0.741722 52 3202625819416 1 0
-3.5031593 19.925014 0.23552239 17 3202625821720 1 0
-4.0554056 14.55261 -1.0563921 13 3202625821720 1 0
0 0 0 23 3202625824024 1 0
-9.627379 29.002928 0.8893558 36 3202625824024 1 0
-4.7204947 20.853132 0.37320226 27 3202625826328 1 0
-2.676257 15.26086 -0.9023176 95 3202625828632 1 0
-7.5551004 27.1569 1.6416134 9 3202625828632 1 0
-4.589438 13.832623 -0.9340359 7 3202625826328 1 0
-5.5792837 24.680233 1.0308712 10 3202625830936 1 0
-4.0609894 14.605502 -0.7061563 11 3202625830936 1 0
0 0 0 76 3202625833240 1 0
-5.7103753 20.549162 2.6187284 27 3202625833240 1 0
-5.9980845 26.56875 2.2235284 8 3202625835544 1 0
-4.5844707 13.844595 -0.5941635 3 3202625835544 1 0
-3.4968147 20.008352 -0.70929736 33 3202625837848 1 0
-5.372627 19.355574 5.382401 10 3202625837848 1 0
-4.7037635 20.863754 3.8994792 17 3202625840152 1 0
-4.056857 14.623598 -0.35313445 13 3202625840152 1 0
-0.90126806 4.022148 -1.9220679 3 3202625860888 1 0
-12.212363 37.07867 -0.68141174 6 3202625860888 1 0
-4.678552 20.893522 -0.62311924 25 3202625863192 1 0
-1.948227 7.0625606 -2.0509293 6 3202625863192 1 0
-2.4470742 10.935626 -2.2412283 1 3202625865496 1 0
-6.8911557 24.995462 0 25 3202625865496 1 0
-3.560978 20.605143 -0.24343833 19 3202625867800 1 0
-4.1419764 15.032227 -2.4258192 8 3202625867800 1 0
-3.4675124 15.516999 -2.023827 82 3202625870104 1 0
-9.70299 29.517597 0.18058778 52 3202625870104 1 0
-4.6848564 20.978907 -0.1249329 38 3202625872408 1 0
-4.0197687 14.605294 -1.6317307 20 3202625872408 1 0
-2.6188123 15.192924 -1.4391459 67 3202625874712 1 0
-8.461396 30.760841 0.74237335 13 3202625874712 1 0
-3.4322288 19.92924 0.23542927 17 3202625877016 1 0
-4.0289106 14.65517 -1.0628096 12 3202625877016 1 0
-5.6462727 25.336123 -2.1190562 9 3202625879320 1 0
-9.542285 29.085745 0.8908685 21 3202625879320 1 0
-4.6320267 20.799215 0.37194568 29 3202625881624 1 0
-2.6121538 15.20714 -0.8985967 78 3202625883928 1 0
-4.5311747 13.818213 -0.93198925 7 3202625881624 1 0
-8.032012 29.266415 1.7674263 10 3202625883928 1 0
-5.165995 23.228743 0.96948457 9 3202625886232 1 0
-4.0321774 14.700509 -0.71006495 9 3202625886232 1 0
0 0 0 8 3202625888536 1 0
-5.5367966 20.197563 2.571443 19 3202625888536 1 0
-5.876782 26.461092 2.212788 12 3202625890840 1 0
-4.523685 13.822529 -0.5925352 3 3202625890840 1 0
-2.6074774 15.2330265 -0.53968585 70 3202625893144 1 0
-4.635167 20.899256 3.9030664 22 3202625895448 1 0
-5.291765 19.325766 5.3689423 16 3202625893144 1 0
-4.0290084 14.722526 -0.35518163 13 3202625895448 1 0
-0.88644236 4.0217295 -1.9203774 3 3202625916184 1 0
-9.82127 30.172995 -0.55386955 4 3202625916184 1 0
-4.8111444 21.842953 -0.6509298 25 3202625918488 1 0
-1.9235622 7.0693183 -2.0509293 6 3202625918488 1 0
-2.411416 10.955593 -2.2435818 2 3202625920792 1 0
-3.4102807 20.152096 -0.23794374 21 3202625923096 1 0
-4.0822225 15.019895 -2.4215147 8 3202625923096 1 0
-3.4031048 15.482503 -2.0177662 84 3202625925400 1 0
-6.802814 25.015505 0 28 3202625920792 1 0
-4.591861 20.905275 -0.1243982 19 3202625927704 1 0
-9.612253 29.58933 0.18082026 17 3202625925400 1 0
-3.9916852 14.703674 -1.6411551 12 3202625927704 1 0
-2.5604608 15.170555 -1.4361718 68 3202625930008 1 0
-3.3413594 19.814888 0.2339392 17 3202625932312 1 0
-9.178058 33.827526 0.8156057 5 3202625930008 1 0
-3.9965272 14.738465 -1.0678321 12 3202625932312 1 0
-3.426356 15.631653 -1.306388 17 3202625934616 1 0
-9.510986 29.33567 0.8975012 18 3202625934616 1 0
-4.5354347 20.705868 0.369991 29 3202625936920 1 0
-4.473068 13.803567 -0.9299426 7 3202625936920 1 0
-2.554419 15.188601 -0.89696884 79 3202625939224 1 0
-7.912066 29.228746 1.7634728 15 3202625939224 1 0
-5.0874424 23.258347 0.9699731 9 3202625941528 1 0
-4.0037947 14.799348 -0.71415967 8 3202625941528 1 0
-5.455898 20.178442 2.5665684 23 3202625943832 1 0
-6.63973 30.376127 -1.6295323 36 3202625943832 1 0
-5.989415 27.420116 2.2912235 13 3202625946136 1 0
-2.5456994 15.190782 -0.53787106 68 3202625948440 1 0
-4.465569 13.807814 -0.59123254 5 3202625946136 1 0
-5.2212515 19.33293 5.3658366 22 3202625948440 1 0
-4.0036445 14.833018 -0.35750794 12 3202625950744 1 0
-0.87316644 4.0283422 -1.9220679 3 3202625971480 1 0
-8.330876 25.901041 -0.47491488 6 3202625971480 1 0
-4.744867 21.90654 -0.6523261 6 3202625973784 1 0
-1.8978242 7.0722833 -2.049851 5 3202625973784 1 0
-2.3671918 10.937143 -2.2380905 2 3202625976088 1 0
-4.567219 20.938377 3.9073713 20 3202625950744 1 0
-6.7554965 25.189873 0 9 3202625976088 1 0
-3.330327 20.108706 -0.23729184 39 3202625978392 1 0
-4.0243244 15.015052 -2.4184403 9 3202625978392 1 0
-3.339369 15.451722 -2.0122104 72 3202625980696 1 0
-9.550832 29.756279 0.18163392 21 3202625980696 1 0
-4.486858 20.776678 -0.12353804 27 3202625983000 1 0
-3.9655101 14.8137045 -1.6518649 15 3202625983000 1 0
-2.5022852 15.152004 -1.4335693 69 3202625985304 1 0
0 0 0 21 3202625985304 1 0
-3.284185 19.905525 0.2348705 14 3202625987608 1 0
-3.9669793 14.837334 -1.0739707 12 3202625987608 1 0
-5.459383 25.33627 -2.1158018 6 3202625989912 1 0
-9.408038 29.373047 0.8976175 22 3202625989912 1 0
-4.4634576 20.729685 0.37013063 27 3202625992216 1 0
-4.416651 13.7965765 -0.92840767 6 3202625992216 1 0
-2.4950943 15.166084 -0.89510834 76 3202625994520 1 0
-7.8047743 29.24518 1.7627751 10 3202625994520 1 0
-3.9725494 14.894625 -0.7180683 4 3202625996824 1 0
-4.635567 21.561016 0.8984911 20 3202625996824 1 0
-6.540233 30.442648 -1.6318351 63 3202625999128 1 0
-5.364238 20.124945 2.5573063 23 3202625999128 1 0
-8.227415 38.32443 3.199902 9 3202626001432 1 0
-4.4014425 13.7780485 -0.5892786 11 3202626001432 1 0
-2.4846451 15.160379 -0.53647506 70 3202626003736 1 0
-4.5000644 20.993158 3.914546 15 3202626006040 1 0
-5.221343 19.612919 5.438306 14 3202626003736 1 0
-3.9718149 14.928489 -0.35946205 21 3202626006040 1 0
-0.8561311 4.020878 -1.9169965 4 3202626026776 1 0
0 0 0 72 3202626026776 1 0
0 0 0 100 3202626029080 1 0
-1.8719932 7.0791645 -2.049851 5 3202626029080 1 0
-2.3282235 10.949514 -2.238875 2 3202626031384 1 0
-6.6751018 25.25681 0 6 3202626031384 1 0
-3.221684 19.89953 -0.23468424 24 3202626033688 1 0
-3.9598262 14.991314 -2.412291 9 3202626033688 1 0
-3.2778435 15.436497 -2.0086749 78 3202626035992 1 0
-9.55222 30.1337 0.18372622 13 3202626035992 1 0
-4.2743607 20.143137 -0.11967893 37 3202626038296 1 0
-3.9305296 14.897072 -1.6595758 16 3202626038296 1 0
-2.4448822 15.141201 -1.4317105 69 3202626040600 1 0
-7.186498 27.252762 0.65583444 14 3202626040600 1 0
-3.2266111 20.000025 0.23584835 13 3202626042904 1 0
-3.9415398 14.955555 -1.0815043 11 3202626042904 1 0
-3.2988036 15.577573 -1.2998788 13 3202626045208 1 0
-9.822355 31.045435 0.94765323 12 3202626045208 1 0
-4.2088284 19.888441 0.35484233 18 3202626047512 1 0
-4.355826 13.774039 -0.9258493 6 3202626047512 1 0
-2.436623 15.143232 -0.8932479 81 3202626049816 1 0
-7.621521 28.967386 1.7444032 10 3202626049816 1 0
-4.3955135 20.798979 0.8660881 11 3202626052120 1 0
-3.9467366 15.008929 -0.72290754 4 3202626052120 1 0
0 0 0 17 3202626054424 1 0
-5.303038 20.178104 2.5616937 23 3202626054424 1 0
-5.6318197 26.685465 2.2264574 12 3202626056728 1 0
-4.349913 13.781832 -0.5887901 8 3202626056728 1 0
-2.4264557 15.133366 -0.53521866 70 3202626059032 1 0
-5.1524396 19.627138 5.4372706 24 3202626059032 1 0
-4.413878 20.943087 3.902349 25 3202626061336 1 0
-3.9385998 15.011715 -0.361137 6 3202626061336 1 0
-0.84427905 4.0307913 -1.9203774 4 3202626082072 1 0
-8.129486 25.893702 -0.47372812 20 3202626082072 1 0
-4.419142 21.113348 -0.6277737 20 3202626084376 1 0
-1.8465112 7.0778923 -2.0476944 5 3202626084376 1 0
-2.2933474 10.964887 -2.240444 2 3202626086680 1 0
-5.4778194 21.009626 0 4 3202626086680 1 0
-3.1502342 19.878569 -0.23431171 22 3202626088984 1 0
-3.2196972 15.416302 -2.0046344 75 3202626091288 1 0
-9.243273 29.501333 0.17968112 8 3202626091288 1 0
-4.182292 20.039886 -0.118981495 31 3202626093592 1 0
-3.904606 15.002536 -1.6698571 15 3202626093592 1 0
-2.3877811 15.109991 -1.4279927 69 3202626095896 1 0
-3.901791 14.97385 -2.4073718 7 3202626088984 1 0
-7.0747623 27.199348 0.6539734 31 3202626095896 1 0
-3.184202 20.168806 0.23771092 30 3202626098200 1 0
-3.9112399 15.0459795 -1.0870849 11 3202626098200 1 0
-5.270843 25.31101 -2.1105945 13 3202626100504 1 0
-21.964703 70.246956 2.1419942 32 3202626100504 1 0
-4.157031 19.976954 0.35616872 65 3202626102808 1 0
-4.318749 13.819171 -0.92789596 9 3202626102808 1 0
-2.379702 15.1159 -0.8911549 74 3202626105112 1 0
-7.528326 29.012375 1.745566 15 3202626105112 1 0
-4.7801857 23.005123 0.9572724 6 3202626107416 1 0
-3.9147992 15.095734 -0.7264439 4 3202626107416 1 0
-3.2418454 15.613106 -0.8357006 14 3202626109720 1 0
-5.302066 20.457375 2.594842 16 3202626109720 1 0
-4.7000585 22.652582 1.8886322 9 3202626112024 1 0
-4.314782 13.834742 -0.5904184 10 3202626112024 1 0
-2.3728588 15.129723 -0.5347999 63 3202626114328 1 0
-5.0930715 19.674557 5.445553 12 3202626114328 1 0
-4.3341346 20.91955 3.8951743 15 3202626116632 1 0
-3.9142013 15.129646 -0.3636494 5 3202626116632 1 0
-10.429679 33.630505 -0.61460394 10 3202626137368 1 0
-4.25601 20.693932 -0.61485755 28 3202626139672 1 0
-1.8208343 7.080564 -2.046616 6 3202626139672 1 0
-0.8280114 4.0230618 -1.915306 4 3202626137368 1 0
-2.2511108 10.953615 -2.2365215 2 3202626141976 1 0
0 0 0 61 3202626141976 1 0
-3.0936832 19.972448 -0.23528957 28 3202626144280 1 0
-3.8455658 14.972066 -2.4049122 8 3202626144280 1 0
-3.1602812 15.400238 -2.0010989 71 3202626146584 1 0
0 0 0 14 3202626146584 1 0
