# .PCD v.7 - Point Cloud Data file format
VERSION .7
FIELDS x y z rgb timestamp_ns device_id active
SIZE 4 4 4 4 8 1 1
TYPE F F F F F U U
COUNT 1 1 1 1 1 1 1
WIDTH 1021
HEIGHT 1
VIEWPOINT 0 0 0 1 0 0 0
POINTS 1021               
DATA ascii
0 0 0 6 3199066362384 1 0
29.659039 -24.931026 0.90158623 11 3199066360080 1 0
16.617361 -13.972477 -1.5181799 4 3199066362384 1 0
9.847257 -9.139966 -1.096793 5 3199066364688 1 0
44.601482 -33.936237 1.6310481 18 3199066364688 1 0
0 0 0 65 3199066366992 1 0
18.293087 -13.922988 -1.4733258 4 3199066366992 1 0
17.748497 -18.17698 -1.4795218 3 3199066369296 1 0
0 0 0 72 3199066371600 1 0
29.577955 -24.89225 2.2513754 26 3199066369296 1 0
22.781927 -19.178501 -1.3871858 4 3199066371600 1 0
0 0 0 112 3199066373904 1 0
44.85167 -37.768612 7.1995535 53 3199066373904 1 0
30.026993 -27.910944 3.3466835 10 3199066376208 1 0
26.086088 -19.878271 -1.3361758 5 3199066376208 1 0
25.01408 -25.647802 -1.2510772 18 3199066378512 1 0
0 0 0 9 3199066378512 1 0
30.08842 -27.984362 7.4918785 8 3199066380816 1 0
29.748688 -25.072914 -0.90530837 29 3199066380816 1 0
0 0 0 4 3199066401552 1 0
32.095818 -24.539104 -0.7052168 6 3199066401552 1 0
27.065432 -25.246284 -1.0771643 22 3199066403856 1 0
0 0 0 1 3199066403856 1 0
6.0482454 -5.6433706 -1.6544454 49 3199066406160 1 0
29.606619 -25.034298 0 16 3199066406160 1 0
28.390623 -29.220217 -0.4743043 63 3199066408464 1 0
7.894446 -6.677231 -1.6086041 6 3199066408464 1 0
9.353871 -8.732806 -1.6288601 13 3199066410768 1 0
31.971537 -24.473572 0.23401089 6 3199066410768 1 0
9.968729 -9.309552 -0.079274505 11 3199066413072 1 0
10.39439 -8.796906 -1.4668012 22 3199066413072 1 0
8.999169 -9.270221 -1.2060423 15 3199066415376 1 0
29.513844 -24.985312 0.89981824 17 3199066415376 1 0
28.381975 -29.24534 0.47444397 55 3199066417680 1 0
16.589804 -14.048448 -1.520133 4 3199066417680 1 0
44.59065 -34.17441 1.6350044 18 3199066419984 1 0
28.951038 -27.068218 0.6918134 49 3199066422288 1 0
18.333078 -14.054761 -1.4804891 4 3199066422288 1 0
14.032664 -13.116231 -1.5680561 3 3199066419984 1 0
17.762774 -18.319094 -1.4860333 3 3199066424592 1 0
0 0 0 9 3199066424592 1 0
9.964187 -9.321604 0.5558986 5 3199066426896 1 0
0 0 0 17 3199066429200 1 0
22.727034 -19.268244 -1.3879304 9 3199066426896 1 0
30.058302 -25.491293 4.839188 22 3199066429200 1 0
30.06909 -28.146362 3.3623054 21 3199066431504 1 0
26.048244 -19.993542 -1.3378041 5 3199066431504 1 0
25.875544 -26.717035 -1.2988197 13 3199066433808 1 0
0 0 0 9 3199066433808 1 0
0 0 0 29 3199066436112 1 0
29.633547 -25.153315 -0.90447086 17 3199066436112 1 0
0 0 0 4 3199066456296 1 0
31.823011 -24.507019 -0.7010981 6 3199066456296 1 0
26.880787 -25.250465 -1.0733243 36 3199066458600 1 0
0 0 0 1 3199066458600 1 0
6.0341444 -5.669908 -1.6560144 39 3199066460904 1 0
31.601713 -26.911814 0 6 3199066460904 1 0
28.401674 -29.437775 -0.47621343 49 3199066463208 1 0
7.8739524 -6.707482 -1.609219 7 3199066463208 1 0
9.323076 -8.765676 -1.6288601 15 3199066465512 1 0
31.885199 -24.585953 0.23401089 6 3199066465512 1 0
28.953772 -27.231035 -0.23101194 33 3199066467816 1 0
0 0 0 56 3199066470120 1 0
10.320926 -8.797394 -1.4608037 29 3199066467816 1 0
29.443611 -25.105034 0.90037656 5 3199066470120 1 0
28.350384 -29.420557 0.47565466 28 3199066472424 1 0
16.52173 -14.091577 -1.518459 4 3199066472424 1 0
13.997641 -13.176878 -1.569358 3 3199066474728 1 0
44.583023 -34.420403 1.6391934 9 3199066474728 1 0
18.282982 -14.119866 -1.4804891 4 3199066477032 1 0
28.91283 -27.225834 0.6932096 49 3199066477032 1 0
17.694613 -18.379396 -1.4858009 6 3199066479336 1 0
30.066742 -25.668081 2.3023052 27 3199066479336 1 0
9.974472 -9.398234 0.5583411 4 3199066481640 1 0
22.667204 -19.357056 -1.3884888 9 3199066481640 1 0
0 0 0 8 3199066483944 1 0
30.048409 -25.6683 4.8523498 7 3199066483944 1 0
34.42069 -32.452015 3.8618834 15 3199066486248 1 0
25.985882 -20.094135 -1.3382926 5 3199066486248 1 0
25.773855 -26.804056 -1.2985405 13 3199066488552 1 0
0 0 0 9 3199066488552 1 0
9.84954 -9.291884 2.468833 1 3199066490856 1 0
29.722134 -25.413149 -0.909961 52 3199066490856 1 0
31.736135 -24.625942 -0.7011679 6 3199066511592 1 0
0 0 0 4 3199066511592 1 0
26.730345 -25.293468 -1.0709971 36 3199066513896 1 0
0 0 0 1 3199066513896 1 0
6.0191855 -5.6972036 -1.6575834 40 3199066516200 1 0
0 0 0 27 3199066516200 1 0
28.375113 -29.624205 -0.4775638 49 3199066518504 1 0
7.840611 -6.728232 -1.6073742 6 3199066518504 1 0
9.294279 -8.801975 -1.6293652 12 3199066520808 1 0
31.894232 -24.776873 0.23473157 6 3199066520808 1 0
28.913836 -27.38989 -0.2314769 55 3199066523112 1 0
10.271151 -8.818871 -1.4582334 36 3199066523112 1 0
9.037651 -9.443328 -1.2201698 2 3199066525416 1 0
28.353205 -29.634102 0.47747067 33 3199066527720 1 0
0 0 0 70 3199066525416 1 0
16.477465 -14.155561 -1.519017 4 3199066527720 1 0
38.807938 -30.182158 1.4307889 15 3199066530024 1 0
13.950789 -13.226471 -1.569358 3 3199066530024 1 0
28.865759 -27.374636 0.6943964 49 3199066532328 1 0
18.229815 -14.181944 -1.4802333 4 3199066532328 1 0
17.632572 -18.444448 -1.4860333 3 3199066534632 1 0
30.027685 -25.818008 2.3062587 18 3199066534632 1 0
30.012856 -28.478233 1.6856071 17 3199066536936 1 0
22.596184 -19.433784 -1.3883026 4 3199066536936 1 0
21.016878 -19.947758 -1.5185801 4 3199066539240 1 0
44.84163 -38.576694 7.2629256 83 3199066539240 1 0
34.154438 -32.425987 3.844634 14 3199066541544 1 0
26.004164 -20.253107 -1.3428518 5 3199066541544 1 0
25.69472 -26.90757 -1.2992384 13 3199066543848 1 0
0 0 0 9 3199066543848 1 0
9.717594 -9.230925 2.4437213 1 3199066546152 1 0
29.26768 -25.199738 -0.8987016 97 3199066546152 1 0
0 0 0 4 3199066566888 1 0
26.57376 -25.313221 -1.068088 36 3199066569192 1 0
0 0 0 1 3199066569192 1 0
6.003016 -5.719926 -1.6583678 44 3199066571496 1 0
31.695269 -24.763058 -0.7020754 6 3199066566888 1 0
29.36706 -25.363876 0 43 3199066571496 1 0
28.386353 -29.834661 -0.47942638 36 3199066573800 1 0
7.8210998 -6.75695 -1.6079891 6 3199066573800 1 0
9.26191 -8.830278 -1.6288601 13 3199066576104 1 0
31.81747 -24.888355 0.23477806 6 3199066576104 1 0
28.868162 -27.53084 -0.23184887 55 3199066578408 1 0
10.223475 -8.837649 -1.4556631 12 3199066578408 1 0
11.9063015 -12.524716 -1.6131372 3 3199066580712 1 0
29.168911 -25.222383 0.89730585 25 3199066580712 1 0
28.355213 -29.836676 0.47919354 33 3199066583016 1 0
16.438763 -14.218792 -1.5198541 4 3199066583016 1 0
13.917616 -13.28448 -1.5706598 3 3199066585320 1 0
38.570515 -30.206928 1.4257853 15 3199066585320 1 0
28.836664 -27.532852 0.69593215 57 3199066587624 1 0
18.188038 -14.248432 -1.480745 4 3199066587624 1 0
17.578215 -18.512785 -1.486731 3 3199066589928 1 0
30.012478 -25.982346 2.31184 18 3199066589928 1 0
29.800371 -28.469563 1.679094 26 3199066592232 1 0
22.533075 -19.513027 -1.3884888 4 3199066592232 1 0
20.966192 -20.035728 -1.5198362 4 3199066594536 1 0
33.813095 -32.321907 3.8185976 14 3199066596840 1 0
44.827114 -38.830463 7.281937 56 3199066594536 1 0
25.938082 -20.344147 -1.3430146 5 3199066596840 1 0
25.588848 -26.980732 -1.2985405 13 3199066599144 1 0
0 0 0 9 3199066599144 1 0
0 0 0 29 3199066601448 1 0
29.199322 -25.315554 -0.8992599 28 3199066601448 1 0
0 0 0 4 3199066622184 1 0
31.709211 -24.952688 -0.7043093 6 3199066622184 1 0
26.433117 -25.356197 -1.0659935 36 3199066624488 1 0
0 0 0 1 3199066624488 1 0
5.9800997 -5.7382164 -1.6575834 43 3199066626792 1 0
29.371532 -25.548038 0 53 3199066626792 1 0
28.372028 -30.030127 -0.480963 50 3199066629096 1 0
7.8002996 -6.786974 -1.6086041 6 3199066629096 1 0
9.236498 -8.86832 -1.6298702 15 3199066631400 1 0
31.754808 -25.019995 0.23496404 6 3199066631400 1 0
28.819925 -27.679588 -0.23224407 60 3199066633704 1 0
0 0 0 6 3199066633704 1 0
11.889299 -12.59568 -1.616855 3 3199066636008 1 0
0 0 0 10 3199066636008 1 0
28.35368 -30.047453 0.480963 28 3199066638312 1 0
16.394321 -14.282164 -1.5204121 4 3199066638312 1 0
13.873258 -13.336551 -1.5709852 3 3199066640616 1 0
38.57608 -30.43277 1.4299743 15 3199066640616 1 0
28.787579 -27.68235 0.69711894 49 3199066642920 1 0
18.146654 -14.320439 -1.4815124 4 3199066642920 1 0
17.509396 -18.5724 -1.4864985 3 3199066645224 1 0
30.009995 -26.167858 2.3188167 18 3199066645224 1 0
29.583326 -28.464943 1.6725807 35 3199066647528 1 0
22.490358 -19.616999 -1.3901639 4 3199066647528 1 0
20.917397 -20.132776 -1.521511 4 3199066649832 1 0
44.819523 -39.10545 7.303386 56 3199066649832 1 0
25.871248 -20.441965 -1.3433403 5 3199066652136 1 0
25.499977 -27.081217 -1.2989593 13 3199066654440 1 0
0 0 0 9 3199066654440 1 0
33.54191 -32.29361 3.8010228 14 3199066652136 1 0
0 0 0 101 3199066656744 1 0
28.993547 -25.320543 -0.89572394 28 3199066656744 1 0
0 0 0 4 3199066677480 1 0
31.746029 -25.170616 -0.7071715 6 3199066677480 1 0
26.268492 -25.383068 -1.0630845 36 3199066679784 1 0
0 0 0 1 3199066679784 1 0
5.9591956 -5.759923 -1.6575834 18 3199066682088 1 0
29.335604 -25.704754 0 75 3199066682088 1 0
28.397165 -30.275627 -0.48324466 41 3199066684392 1 0
7.7845864 -6.822994 -1.6104487 7 3199066684392 1 0
31.799068 -25.241306 0.2359637 6 3199066686696 1 0
28.777798 -27.838566 -0.23270902 56 3199066689000 1 0
10.094516 -8.852523 -1.4462385 3 3199066689000 1 0
11.841434 -12.635233 -1.6164832 3 3199066691304 1 0
29.271372 -25.677082 0.90605277 17 3199066691304 1 0
28.36949 -30.279642 0.4830584 40 3199066693608 1 0
9.20445 -8.901578 -1.6298702 18 3199066686696 1 0
16.352322 -14.348388 -1.5212492 4 3199066693608 1 0
13.840163 -13.399566 -1.5726125 3 3199066695912 1 0
0 0 0 23 3199066695912 1 0
18.102179 -14.389453 -1.4820241 4 3199066698216 1 0
28.738403 -27.831219 0.69830567 58 3199066698216 1 0
17.452105 -18.642658 -1.4871962 6 3199066700520 1 0
30.115734 -26.447231 2.3341653 28 3199066700520 1 0
29.36282 -28.451653 1.6657419 43 3199066702824 1 0
22.424461 -19.698347 -1.39035 4 3199066702824 1 0
20.907228 -20.264051 -1.5259072 4 3199066705128 1 0
30.068846 -26.420776 4.9147468 15 3199066705128 1 0
33.26916 -32.254604 3.782797 14 3199066707432 1 0
25.463419 -27.230642 -1.3018909 13 3199066709736 1 0
25.825052 -20.551682 -1.3446429 5 3199066707432 1 0
0 0 0 9 3199066709736 1 0
0 0 0 147 3199066712040 1 0
28.785978 -25.314703 -0.89200187 34 3199066712040 1 0
0 0 0 4 3199066732776 1 0
31.70927 -25.313179 -0.70821863 20 3199066732776 1 0
26.1324 -25.420046 -1.06099 35 3199066735080 1 0
0 0 0 49 3199066737384 1 0
29.219831 -25.775856 0 59 3199066737384 1 0
0 0 0 1 3199066735080 1 0
28.424095 -30.507788 -0.48543316 41 3199066739688 1 0
7.770659 -6.856786 -1.6122935 8 3199066739688 1 0
9.177464 -8.935087 -1.6303753 18 3199066741992 1 0
31.764448 -25.387495 0.23633566 6 3199066741992 1 0
28.74162 -27.9907 -0.23317398 50 3199066744296 1 0
10.049874 -8.873154 -1.4440966 3 3199066744296 1 0
0 0 0 240 3199066746600 1 0
29.23889 -25.822931 0.9077277 17 3199066746600 1 0
28.389994 -30.506752 0.4851538 41 3199066748904 1 0
16.30691 -14.406007 -1.5215282 4 3199066748904 1 0
9.426875 -9.1886015 -1.074662 3 3199066751208 1 0
38.120964 -30.504255 1.4208981 30 3199066751208 1 0
28.707123 -27.989664 0.6998415 58 3199066753512 1 0
18.059649 -14.455573 -1.4825357 4 3199066753512 1 0
17.399704 -18.713392 -1.4881264 3 3199066755816 1 0
29.996021 -26.522686 2.3318398 18 3199066755816 1 0
29.154453 -28.442362 1.6593916 43 3199066758120 1 0
22.438244 -19.845863 -1.3953754 4 3199066758120 1 0
20.852434 -20.34904 -1.5269538 4 3199066760424 1 0
29.90144 -26.45456 4.9020724 23 3199066760424 1 0
33.00205 -32.21472 3.7648969 14 3199066762728 1 0
25.770401 -20.65214 -1.3454571 5 3199066762728 1 0
25.334831 -27.279436 -1.300076 13 3199066765032 1 0
9.371611 -9.1533575 2.3884757 140 3199066767336 1 0
0 0 0 9 3199066765032 1 0
28.576353 -25.304459 -0.8881867 45 3199066767336 1 0
0 0 0 4 3199066788072 1 0
31.773445 -25.546505 -0.71163934 20 3199066788072 1 0
25.972103 -25.441162 -1.0580809 35 3199066790376 1 0
0 0 0 1 3199066790376 1 0
5.9225683 -5.803183 -1.6583678 3 3199066792680 1 0
29.240324 -25.975988 0 64 3199066792680 1 0
28.4125 -30.709578 -0.48706293 47 3199066794984 1 0
7.7703133 -6.904872 -1.6172128 21 3199066794984 1 0
9.140552 -8.961513 -1.6293652 15 3199066797288 1 0
31.675634 -25.49822 0.23633566 6 3199066797288 1 0
9.980204 -8.873827 -1.4385276 46 3199066799592 1 0
28.706568 -28.152472 -0.23368542 28 3199066799592 1 0
0 0 0 242 3199066801896 1 0
29.19937 -25.970016 0.9093096 23 3199066801896 1 0
28.381058 -30.711414 0.4868301 41 3199066804200 1 0
16.259504 -14.465493 -1.5218072 4 3199066804200 1 0
0 0 0 16 3199066806504 1 0
28.666323 -28.14574 0.7012377 58 3199066808808 1 0
44.582924 -35.93108 1.6664221 9 3199066806504 1 0
18.018402 -14.526041 -1.4833033 4 3199066808808 1 0
17.342402 -18.782816 -1.488824 6 3199066811112 1 0
28.943802 -28.434721 1.6530412 43 3199066813416 1 0
22.371815 -19.926723 -1.3955615 4 3199066813416 1 0
20.775578 -20.416103 -1.5265352 4 3199066815720 1 0
29.9097 -26.648571 4.918647 23 3199066815720 1 0
32.653416 -32.09776 3.7378838 13 3199066818024 1 0
25.729256 -20.76707 -1.3470854 5 3199066818024 1 0
29.97483 -26.690964 2.3374212 19 3199066811112 1 0
25.274687 -27.405907 -1.3018909 13 3199066820328 1 0
0 0 0 9 3199066820328 1 0
9.263853 -9.111511 2.369104 140 3199066822632 1 0
28.386374 -25.313562 -0.8850229 39 3199066822632 1 0
0 0 0 4 3199066843368 1 0
31.264482 -25.317478 -0.702215 6 3199066843368 1 0
25.820515 -25.469894 -1.0555209 21 3199066845672 1 0
0 0 0 1 3199066845672 1 0
5.8966913 -5.8183117 -1.6567988 4 3199066847976 1 0
29.215057 -26.136572 0 66 3199066847976 1 0
28.402548 -30.914602 -0.48873922 47 3199066850280 1 0
7.722601 -6.9108677 -1.6122935 69 3199066850280 1 0
9.097919 -8.982213 -1.6273448 15 3199066852584 1 0
31.182518 -25.281157 0.23331346 6 3199066852584 1 0
9.309308 -9.193587 -0.07604308 1 3199066854888 1 0
9.922502 -8.884733 -1.4346721 41 3199066854888 1 0
0 0 0 100 3199066857192 1 0
29.159178 -26.117138 0.91089153 29 3199066857192 1 0
28.373741 -30.919333 0.488553 41 3199066859496 1 0
16.22377 -14.535475 -1.5232024 4 3199066859496 1 0
9.212221 -9.105651 -1.0574127 10 3199066861800 1 0
44.522423 -36.1394 1.6688658 9 3199066861800 1 0
28.59634 -28.273752 0.70193577 14 3199066864104 1 0
17.970686 -14.591365 -1.4835591 4 3199066864104 1 0
17.290226 -18.857954 -1.4899868 6 3199066866408 1 0
9.891124 -8.869606 0.77371407 6 3199066866408 1 0
28.787546 -28.479364 1.6497847 17 3199066868712 1 0
22.305096 -20.007362 -1.3957475 4 3199066868712 1 0
9.26748 -9.170936 -0.68329823 1 3199066871016 1 0
29.902193 -26.829704 4.9327836 23 3199066871016 1 0
9.355765 -9.260995 1.074662 3 3199066873320 1 0
25.715532 -20.904657 -1.3501791 5 3199066873320 1 0
25.122171 -27.432055 -1.2989593 13 3199066875624 1 0
0 0 0 9 3199066875624 1 0
9.162094 -9.074564 2.351167 151 3199066877928 1 0
28.193705 -25.31898 -0.8817661 39 3199066877928 1 0
30.999256 -25.282377 -0.69823587 6 3199066898664 1 0
0 0 0 4 3199066898664 1 0
9.236204 -9.174616 -0.3788751 13 3199066900968 1 0
0 0 0 1 3199066900968 1 0
5.8846927 -5.8471537 -1.6591523 4 3199066903272 1 0
29.16525 -26.275875 0 16 3199066903272 1 0
28.437338 -31.170162 -0.49120715 42 3199066905576 1 0
7.6749415 -6.9166145 -1.6073742 103 3199066905576 1 0
9.058068 -9.005524 -1.6258297 18 3199066907880 1 0
0 0 0 10 3199066907880 1 0
0 0 0 74 3199066910184 1 0
0 0 0 5 3199066912488 1 0
9.8678 -8.898009 -1.431245 38 3199066910184 1 0
9.906047 -8.93511 0.31042334 3 3199066912488 1 0
28.394953 -31.160093 0.49078807 24 3199066914792 1 0
16.167007 -14.586671 -1.5226443 4 3199066914792 1 0
9.208636 -9.165876 -1.0606673 19 3199066917096 1 0
0 0 0 27 3199066917096 1 0
0 0 0 99 3199066919400 1 0
17.925823 -14.65906 -1.4840708 4 3199066919400 1 0
17.296879 -18.997917 -1.4962659 6 3199066921704 1 0
9.895667 -8.936193 0.77650476 9 3199066921704 1 0
0 0 0 104 3199066924008 1 0
22.249947 -20.098492 -1.3966782 9 3199066924008 1 0
0 0 0 100 3199066926312 1 0
9.201968 -9.172571 1.0606673 12 3199066928616 1 0
29.902624 -27.019094 4.948383 24 3199066926312 1 0
25.651682 -21.001888 -1.3506676 5 3199066928616 1 0
25.023573 -27.516623 -1.2988197 13 3199066930920 1 0
0 0 0 9 3199066930920 1 0
9.055135 -9.03146 2.3317952 129 3199066933224 1 0
27.992449 -25.315313 -0.8782301 45 3199066933224 1 0
0 0 0 4 3199066953960 1 0
30.456518 -25.017265 -0.68797386 19 3199066953960 1 0
9.178614 -9.181417 -0.37782785 24 3199066956264 1 0
0 0 0 1 3199066956264 1 0
5.8558435 -5.8594217 -1.6567988 14 3199066958568 1 0
9.935882 -9.014838 0 15 3199066958568 1 0
28.440462 -31.394352 -0.49316284 42 3199066960872 1 0
7.6506 -6.94353 -1.6073742 102 3199066960872 1 0
0 0 0 1 3199066963176 1 0
9.182385 -9.196419 -0.07553163 106 3199066965480 1 0
9.81869 -8.916716 -1.4286746 7 3199066965480 1 0
11.660323 -12.883248 -1.6220598 3 3199066967784 1 0
9.898086 -8.991576 0.31116778 13 3199066967784 1 0
9.012295 -9.023313 -1.6233042 16 3199066963176 1 0
28.413229 -31.402822 0.49302316 18 3199066970088 1 0
16.12706 -14.654571 -1.5237604 4 3199066970088 1 0
9.17605 -9.198499 -1.0606673 20 3199066972392 1 0
0 0 0 3 3199066972392 1 0
0 0 0 229 3199066974696 1 0
17.876661 -14.72525 -1.4843266 4 3199066974696 1 0
17.234428 -19.065357 -1.4967309 6 3199066977000 1 0
9.902164 -9.006328 0.779528 9 3199066977000 1 0
0 0 0 242 3199066979304 1 0
22.192818 -20.191256 -1.3976089 9 3199066979304 1 0
9.168591 -9.202257 -0.68078613 26 3199066981608 1 0
10.003766 -9.104322 1.6608354 2 3199066981608 1 0
9.154957 -9.19138 1.05904 15 3199066983912 1 0
25.588554 -21.103891 -1.3513188 5 3199066983912 1 0
24.927238 -27.609308 -1.2989593 20 3199066986216 1 0
0 0 0 9 3199066986216 1 0
0 0 0 16 3199066988520 1 0
27.827232 -25.34859 -0.8759037 11 3199066988520 1 0
0 0 0 4 3199067009256 1 0
30.401594 -25.159325 -0.6888116 6 3199067009256 1 0
9.1506 -9.220607 -0.37806058 20 3199067011560 1 0
0 0 0 1 3199067011560 1 0
5.8344135 -5.88076 -1.6567988 38 3199067013864 1 0
9.941289 -9.086132 0 13 3199067013864 1 0
23.364649 -25.98097 -0.40678602 21 3199067016168 1 0
7.6252513 -6.971358 -1.6073742 105 3199067016168 1 0
29.876696 -24.754236 0.22550225 11 3199067018472 1 0
9.151769 -9.23252 -0.07555488 219 3199067020776 1 0
9.783334 -8.949603 -1.4282463 50 3199067020776 1 0
11.618914 -12.931317 -1.6228034 3 3199067023080 1 0
8.954281 -9.030663 -1.6187587 18 3199067018472 1 0
9.912661 -9.070557 0.3126566 12 3199067023080 1 0
23.338839 -25.982656 0.40659976 9 3199067025384 1 0
16.082819 -14.720844 -1.5245975 4 3199067025384 1 0
9.154033 -9.242867 -1.0619692 18 3199067027688 1 0
29.81015 -24.728363 1.1272 14 3199067027688 1 0
9.133902 -9.225224 0.22660205 234 3199067029992 1 0
17.84197 -14.804801 -1.4858615 4 3199067029992 1 0
17.17116 -19.133091 -1.4971961 6 3199067032296 1 0
9.913912 -9.082305 0.7830163 12 3199067032296 1 0
9.12785 -9.224477 0.52870613 230 3199067034600 1 0
22.140907 -20.289589 -1.3989117 4 3199067034600 1 0
9.135607 -9.2350025 -0.68078613 19 3199067036904 1 0
9.962347 -9.132009 1.6593729 4 3199067036904 1 0
9.127686 -9.22968 1.059691 8 3199067039208 1 0
25.519184 -21.200233 -1.3516445 5 3199067039208 1 0
23.342443 -26.039951 -1.2212032 17 3199067041512 1 0
0 0 0 9 3199067041512 1 0
0 0 0 8 3199067043816 1 0
9.933192 -9.113262 -0.31368017 16 3199067043816 1 0
0 0 0 4 3199067064552 1 0
0 0 0 87 3199067064552 1 0
9.15765 -9.292361 -0.37968966 8 3199067066856 1 0
0 0 0 1 3199067066856 1 0
5.808345 -5.895502 -1.6552299 49 3199067069160 1 0
9.874194 -9.088272 0 15 3199067069160 1 0
28.42091 -31.826164 -0.4967483 53 3199067071464 1 0
7.60087 -6.9979324 -1.6073742 104 3199067071464 1 0
8.897648 -9.036417 -1.614213 16 3199067073768 1 0
0 0 0 21 3199067073768 1 0
9.122291 -9.267261 -0.07557812 118 3199067076072 1 0
0 0 0 12 3199067076072 1 0
11.576355 -12.974768 -1.6231753 3 3199067078376 1 0
9.869175 -9.094264 0.31228438 15 3199067078376 1 0
28.405052 -31.845678 0.49679488 36 3199067080680 1 0
0 0 0 101 3199067080680 1 0
9.110532 -9.263395 -1.0606673 14 3199067082984 1 0
29.732855 -24.839958 1.127549 9 3199067082984 1 0
9.124075 -9.279865 0.22716053 184 3199067085288 1 0
17.114895 -19.204838 -1.4981263 6 3199067087592 1 0
17.790184 -14.86699 -1.4858615 4 3199067085288 1 0
9.852798 -9.089778 0.7806908 33 3199067087592 1 0
9.115203 -9.2762375 0.52984595 155 3199067089896 1 0
0 0 0 111 3199067089896 1 0
9.12571 -9.289633 -0.68246084 3 3199067092200 1 0
9.7262 -8.978223 1.6252495 5 3199067092200 1 0
9.10938 -9.275707 1.0613182 2 3199067094504 1 0
25.460354 -21.302006 -1.3524587 5 3199067094504 1 0
24.707941 -27.757584 -1.2977029 13 3199067096808 1 0
0 0 0 9 3199067096808 1 0
9.132127 -9.304282 2.3769963 4 3199067099112 1 0
9.848451 -9.099033 -0.31200522 18 3199067099112 1 0
0 0 0 4 3199067120296 1 0
29.777973 -24.995544 -0.6786194 19 3199067120296 1 0
25.082485 -25.62942 -1.043652 21 3199067122600 1 0
0 0 0 1 3199067122600 1 0
5.7933025 -5.921264 -1.6567988 48 3199067124904 1 0
9.842543 -9.122541 0 15 3199067124904 1 0
28.405874 -32.03229 -0.49842462 39 3199067127208 1 0
7.579448 -7.0269437 -1.6079891 103 3199067127208 1 0
8.846895 -9.047304 -1.6106775 6 3199067129512 1 0
29.670193 -24.933039 0.22524653 17 3199067129512 1 0
0 0 0 85 3199067131816 1 0
9.639304 -8.941601 -1.4162514 8 3199067131816 1 0
9.828974 -9.1200695 0.31200522 13 3199067134120 1 0
11.531562 -13.014595 -1.6231753 3 3199067134120 1 0
28.38021 -32.039005 0.49828494 42 3199067136424 1 0
0 0 0 109 3199067136424 1 0
9.078682 -9.294613 -1.0606673 3 3199067138728 1 0
29.564808 -24.872372 1.1244073 14 3199067138728 1 0
0 0 0 6 3199067141032 1 0
17.82162 -14.997234 -1.492769 4 3199067141032 1 0
17.051802 -19.266214 -1.4983588 6 3199067143336 1 0
9.874335 -9.17232 0.78487676 9 3199067143336 1 0
0 0 0 29 3199067145640 1 0
9.817615 -9.122159 -0.62426156 109 3199067145640 1 0
20.411379 -20.91997 -1.5317688 4 3199067147944 1 0
9.698496 -9.013976 1.6257371 4 3199067147944 1 0
32.333317 -33.14813 3.7801933 28 3199067150248 1 0
25.40009 -21.39865 -1.35311 5 3199067150248 1 0
22.98535 -25.999256 -1.2118502 17 3199067152552 1 0
0 0 0 9 3199067152552 1 0
9.108852 -9.343562 2.3791485 0 3199067154856 1 0
9.820554 -9.135009 -0.3120983 14 3199067154856 1 0
0 0 0 4 3199067175592 1 0
29.673538 -25.076084 -0.6781307 19 3199067175592 1 0
24.955364 -25.669634 -1.0419066 42 3199067177896 1 0
0 0 0 1 3199067177896 1 0
28.994694 -27.053762 0 27 3199067180200 1 0
5.7762823 -5.9433393 -1.6575834 49 3199067180200 1 0
28.420408 -32.264996 -0.5005666 45 3199067182504 1 0
7.567508 -7.0629916 -1.6104487 103 3199067182504 1 0
8.791698 -9.051231 -1.6061318 9 3199067184808 1 0
28.43651 -29.284485 -0.23724231 58 3199067187112 1 0
29.568298 -25.016651 0.22510704 11 3199067184808 1 0
9.583114 -8.949436 -1.4123958 39 3199067187112 1 0
11.493033 -13.059244 -1.6239188 3 3199067189416 1 0
9.944389 -9.289531 0.31665787 8 3199067189416 1 0
28.393705 -32.272514 0.5004269 43 3199067191720 1 0
9.813628 -9.170054 -0.9392012 49 3199067191720 1 0
13.475126 -13.889073 -1.5797726 3 3199067194024 1 0
29.544783 -25.02626 1.126851 4 3199067194024 1 0
0 0 0 7 3199067196328 1 0
17.779942 -15.065155 -1.4935365 4 3199067196328 1 0
16.991686 -19.329887 -1.498824 6 3199067198632 1 0
9.954022 -9.30938 0.7937139 6 3199067198632 1 0
0 0 0 14 3199067200936 1 0
0 0 0 28 3199067200936 1 0
20.420677 -21.072504 -1.5378398 4 3199067203240 1 0
9.679358 -9.057782 1.627687 4 3199067203240 1 0
32.325485 -33.36702 3.7925608 29 3199067205544 1 0
25.333054 -21.490326 -1.3534356 10 3199067205544 1 0
0 0 0 9 3199067207848 1 0
22.819864 -25.99055 -1.2078018 17 3199067207848 1 0
0 0 0 29 3199067210152 1 0
27.018093 -25.305206 -0.86138755 22 3199067210152 1 0
0 0 0 4 3199067230888 1 0
30.021358 -25.550179 -0.6881135 19 3199067230888 1 0
24.801737 -25.690426 -1.0392302 41 3199067233192 1 0
0 0 0 1 3199067233192 1 0
5.7609487 -5.969111 -1.6591523 49 3199067235496 1 0
26.90034 -25.27583 0 20 3199067235496 1 0
28.415573 -32.48744 -0.50247574 40 3199067237800 1 0
7.5428076 -7.089364 -1.6104487 101 3199067237800 1 0
8.746276 -9.067585 -1.6036065 4 3199067240104 1 0
29.44426 -25.088581 0.22482806 17 3199067240104 1 0
28.434069 -29.487223 -0.23807923 47 3199067242408 1 0
9.519948 -8.952863 -1.4076836 34 3199067242408 1 0
11.442137 -13.093285 -1.6231753 3 3199067244712 1 0
28.879375 -27.167004 0.9226161 54 3199067244712 1 0
28.38614 -32.491917 0.5022895 37 3199067247016 1 0
13.418263 -13.927413 -1.5787963 3 3199067249320 1 0
0 0 0 3 3199067247016 1 0
0 0 0 87 3199067249320 1 0
28.421385 -29.508408 0.7151298 59 3199067251624 1 0
17.745466 -15.1426735 -1.4950714 4 3199067251624 1 0
16.926735 -19.39209 -1.4990565 6 3199067253928 1 0
0 0 0 6 3199067253928 1 0
27.786564 -28.866108 1.6323619 8 3199067256232 1 0
0 0 0 2 3199067256232 1 0
20.349766 -21.146536 -1.5380491 4 3199067258536 1 0
9.659238 -9.102406 1.6296369 4 3199067258536 1 0
32.31108 -33.585957 3.8046029 29 3199067260840 1 0
25.349045 -21.656507 -1.3583206 10 3199067260840 1 0
22.631802 -25.95856 -1.2026366 28 3199067263144 1 0
0 0 0 9 3199067263144 1 0
0 0 0 29 3199067265448 1 0
0 0 0 4 3199067286184 1 0
26.836506 -25.311562 -0.8584099 48 3199067265448 1 0
29.336811 -25.14469 -0.6744308 19 3199067286184 1 0
24.66229 -25.724712 -1.0371357 41 3199067288488 1 0
0 0 0 1 3199067288488 1 0
5.7347364 -5.983437 -1.6575834 39 3199067290792 1 0
28.895586 -27.340328 0 71 3199067290792 1 0
28.412867 -32.71264 -0.5044314 45 3199067293096 1 0
7.5325236 -7.1290703 -1.6135234 43 3199067293096 1 0
29.284384 -25.12784 0.22427012 92 3199067295400 1 0
28.426104 -29.68349 -0.23886965 36 3199067297704 1 0
9.471639 -8.969287 -1.4051132 21 3199067297704 1 0
11.402157 -13.138664 -1.6239188 3 3199067300008 1 0
8.692877 -9.074883 -1.5995659 6 3199067295400 1 0
28.826204 -27.30489 0.9239189 36 3199067300008 1 0
28.373814 -32.70417 0.5040589 44 3199067302312 1 0
0 0 0 1 3199067302312 1 0
13.392428 -13.996432 -1.5813999 3 3199067304616 1 0
29.310156 -25.178095 1.1245236 30 3199067304616 1 0
28.425198 -29.715405 0.71778256 52 3199067306920 1 0
17.71166 -15.218976 -1.4966065 6 3199067306920 1 0
16.878664 -19.470953 -1.5006844 6 3199067309224 1 0
32.366066 -30.691893 2.5976515 25 3199067309224 1 0
27.856426 -29.13693 1.6422945 8 3199067311528 1 0
21.93654 -20.807604 -1.408404 9 3199067311528 1 0
20.28872 -21.227222 -1.5388864 9 3199067313832 1 0
32.320774 -33.825207 3.8192484 43 3199067316136 1 0
9.625323 -9.132494 1.6291494 4 3199067313832 1 0
25.28747 -21.752895 -1.3589718 10 3199067316136 1 0
0 0 0 9 3199067318440 1 0
22.483515 -25.9656 -1.1994259 23 3199067318440 1 0
0 0 0 29 3199067320744 1 0
26.684063 -25.338833 -0.85626966 48 3199067320744 1 0
0 0 0 4 3199067341480 1 0
29.25024 -25.239222 -0.674361 25 3199067341480 1 0
24.521326 -25.748804 -1.0348085 41 3199067343784 1 0
0 0 0 1 3199067343784 1 0
5.7173934 -6.0054283 -1.6583678 14 3199067346088 1 0
28.35244 -32.865456 -0.50531614 50 3199067348392 1 0
0 0 0 19 3199067348392 1 0
8.632119 -9.072542 -1.5940101 21 3199067350696 1 0
28.84741 -27.478218 0 60 3199067346088 1 0
29.232721 -25.255276 0.22452585 28 3199067350696 1 0
28.427347 -29.886887 -0.23972982 30 3199067353000 1 0
9.421041 -8.982123 -1.4021145 5 3199067353000 1 0
28.80256 -27.469076 0.9261521 30 3199067355304 1 0
28.324526 -32.87368 0.5051764 44 3199067357608 1 0
11.362576 -13.183428 -1.6246623 3 3199067355304 1 0
15.859218 -15.129602 -1.5326892 4 3199067357608 1 0
13.3498 -14.0480995 -1.5820508 3 3199067359912 1 0
29.051195 -25.129456 1.1178911 63 3199067359912 1 0
28.421764 -29.917595 0.7202957 60 3199067362216 1 0
17.659096 -15.279938 -1.4966065 6 3199067362216 1 0
16.881502 -19.610975 -1.5069634 6 3199067364520 1 0
32.369377 -30.908539 2.6064887 26 3199067364520 1 0
27.859545 -29.343727 1.6484821 17 3199067366824 1 0
21.864079 -20.883732 -1.408404 4 3199067366824 1 0
20.222748 -21.306606 -1.5395145 9 3199067369128 1 0
9.599127 -9.171523 1.6301243 4 3199067369128 1 0
32.33373 -34.077106 3.8348703 44 3199067371432 1 0
22.311193 -25.950605 -1.1950984 22 3199067373736 1 0
0 0 0 9 3199067373736 1 0
25.22315 -21.851868 -1.3596232 10 3199067371432 1 0
0 0 0 29 3199067376040 1 0
26.53943 -25.38047 -0.85450166 48 3199067376040 1 0
29.03982 -25.24393 -0.6716384 37 3199067396776 1 0
24.366547 -25.774408 -1.0322485 41 3199067399080 1 0
0 0 0 4 3199067396776 1 0
0 0 0 1 3199067399080 1 0
5.7169847 -6.0490656 -1.6646435 5 3199067401384 1 0
28.798857 -27.633196 0 66 3199067401384 1 0
28.339176 -33.093098 -0.5072253 35 3199067403688 1 0
7.496671 -7.195331 -1.6165979 5 3199067403688 1 0
8.58545 -9.089446 -1.5914847 23 3199067405992 1 0
29.35794 -25.55047 0.22619969 17 3199067405992 1 0
28.423061 -30.10036 -0.24061322 67 3199067408296 1 0
9.368304 -8.996968 -1.3991158 4 3199067408296 1 0
11.325113 -13.236596 -1.6261494 3 3199067410600 1 0
28.751917 -27.6203 0.927734 24 3199067410600 1 0
28.30692 -33.09438 0.50699246 25 3199067412904 1 0
15.818817 -15.200646 -1.5340843 4 3199067412904 1 0
13.296306 -14.093261 -1.5817254 3 3199067415208 1 0
29.343206 -25.567663 1.1326691 24 3199067415208 1 0
28.415419 -30.127361 0.7228787 67 3199067417512 1 0
17.606987 -15.34603 -1.4968623 6 3199067417512 1 0
16.816132 -19.677567 -1.5074285 6 3199067419816 1 0
32.355988 -31.11874 2.6143954 26 3199067419816 1 0
21.866814 -21.03678 -1.4134294 9 3199067422120 1 0
27.795284 -29.487045 1.6509244 25 3199067422120 1 0
20.146385 -21.378824 -1.5395145 4 3199067424424 1 0
9.566251 -9.205809 1.6301243 4 3199067424424 1 0
32.326664 -34.31422 3.8485396 45 3199067426728 1 0
25.163033 -21.957558 -1.3606001 10 3199067426728 1 0
22.143316 -25.941769 -1.19105 39 3199067429032 1 0
0 0 0 9 3199067429032 1 0
0 0 0 29 3199067431336 1 0
26.391403 -25.419205 -0.8526406 48 3199067431336 1 0
0 0 0 4 3199067452072 1 0
28.81611 -25.226599 -0.66849697 37 3199067452072 1 0
24.224434 -25.80392 -1.0300376 41 3199067454376 1 0
0 0 0 1 3199067454376 1 0
5.6824136 -6.0546846 -1.6607212 4 3199067456680 1 0
28.765509 -27.794704 0 45 3199067456680 1 0
28.347853 -33.338078 -0.5094604 30 3199067458984 1 0
7.471509 -7.2214556 -1.6165979 6 3199067458984 1 0
8.531954 -9.096207 -1.5874441 24 3199067461288 1 0
29.295647 -25.676521 0.22640891 17 3199067461288 1 0
28.46009 -30.35112 -0.24182211 42 3199067463592 1 0
9.308254 -9.001967 -1.394832 3 3199067463592 1 0
11.283997 -13.282118 -1.6268929 3 3199067465896 1 0
28.70419 -27.767763 0.9293159 30 3199067465896 1 0
28.299973 -33.32103 0.50894815 26 3199067468200 1 0
15.777131 -15.266871 -1.5352005 4 3199067468200 1 0
13.257933 -14.151225 -1.5830272 3 3199067470504 1 0
29.292849 -25.704218 1.1341817 24 3199067470504 1 0
28.45498 -30.381073 0.7265786 61 3199067472808 1 0
16.76026 -19.75137 -1.5085913 6 3199067475112 1 0
32.359035 -31.33984 2.6234653 26 3199067475112 1 0
17.553312 -15.407396 -1.4968623 6 3199067472808 1 0
27.806898 -29.706438 1.6577632 26 3199067477416 1 0
21.790379 -21.1102 -1.4132433 9 3199067477416 1 0
20.085283 -21.463602 -1.5405612 9 3199067479720 1 0
9.556867 -9.261249 1.6340241 4 3199067479720 1 0
32.334698 -34.563686 3.863836 30 3199067482024 1 0
21.97767 -25.930468 -1.1870017 39 3199067484328 1 0
25.089235 -22.047897 -1.360763 10 3199067482024 1 0
0 0 0 9 3199067484328 1 0
0 0 0 29 3199067486632 1 0
26.233622 -25.444353 -0.85040736 48 3199067486632 1 0
0 0 0 4 3199067507368 1 0
28.598879 -25.213303 -0.66549516 30 3199067507368 1 0
24.063515 -25.812109 -1.0270122 40 3199067509672 1 0
0 0 0 1 3199067509672 1 0
5.6586585 -6.0715313 -1.6599368 4 3199067511976 1 0
28.726055 -27.950317 0 56 3199067511976 1 0
28.330093 -33.55234 -0.5112298 41 3199067514280 1 0
7.4492464 -7.2500863 -1.6172128 6 3199067514280 1 0
8.486893 -9.111169 -1.5849187 15 3199067516584 1 0
28.453213 -30.554628 -0.24265902 50 3199067518888 1 0
29.230581 -25.79895 0.2265949 17 3199067516584 1 0
9.25431 -9.01187 -1.3914049 13 3199067518888 1 0
11.240714 -13.323979 -1.6272647 3 3199067521192 1 0
28.665594 -27.922346 0.93117696 30 3199067521192 1 0
28.30381 -33.55882 0.5110901 26 3199067523496 1 0
13.211997 -14.199568 -1.5833527 3 3199067525800 1 0
15.727382 -15.323835 -1.5354795 4 3199067523496 1 0
29.261375 -25.854914 1.1363926 24 3199067525800 1 0
28.454262 -30.589636 0.72923136 61 3199067528104 1 0
17.500435 -15.467429 -1.4968623 6 3199067528104 1 0
16.692652 -19.808538 -1.5085913 6 3199067530408 1 0
32.354652 -31.550623 2.6318371 26 3199067530408 1 0
27.748959 -29.847939 1.6603686 17 3199067532712 1 0
21.729692 -21.195557 -1.4139878 9 3199067532712 1 0
20.022995 -21.54354 -1.5413985 9 3199067535016 1 0
0 0 0 201 3199067535016 1 0
32.333817 -34.798885 3.8778307 30 3199067537320 1 0
25.020199 -22.138273 -1.3610886 10 3199067537320 1 0
21.825312 -25.928339 -1.1835117 44 3199067539624 1 0
0 0 0 9 3199067539624 1 0
0 0 0 29 3199067541928 1 0
26.09307 -25.479836 -0.84863937 43 3199067541928 1 0
0 0 0 4 3199067562664 1 0
23.936846 -25.847935 -1.0252668 54 3199067564968 1 0
28.419394 -25.22305 -0.66326123 30 3199067562664 1 0
0 0 0 1 3199067564968 1 0
5.6463985 -6.0989795 -1.6622902 4 3199067567272 1 0
28.698526 -28.110214 0 16 3199067567272 1 0
28.284765 -33.7264 -0.5124405 51 3199067569576 1 0
7.430651 -7.280443 -1.6184427 6 3199067569576 1 0
0 0 0 22 3199067571880 1 0
29.242788 -25.984266 0.22736207 23 3199067571880 1 0
28.461979 -30.770237 -0.24361217 50 3199067574184 1 0
9.204166 -9.023356 -1.3884062 52 3199067574184 1 0
28.631578 -28.077297 0.9331311 36 3199067576488 1 0
28.254866 -33.730583 0.51225424 39 3199067578792 1 0
11.208675 -13.376933 -1.6291237 3 3199067576488 1 0
13.172126 -14.252852 -1.584329 3 3199067581096 1 0
15.681394 -15.382291 -1.5360376 4 3199067578792 1 0
29.21579 -25.99071 1.1380217 14 3199067581096 1 0
28.451077 -30.79437 0.7318143 53 3199067583400 1 0
16.633118 -19.87418 -1.509289 6 3199067585704 1 0
17.44505 -15.523867 -1.4966065 6 3199067583400 1 0
32.33588 -31.74681 2.6390464 26 3199067585704 1 0
27.750462 -30.053587 1.6665561 26 3199067588008 1 0
21.67469 -21.28603 -1.4151045 9 3199067588008 1 0
9.391646 -9.2259245 1.616475 185 3199067590312 1 0
19.949558 -21.611559 -1.5413985 9 3199067590312 1 0
32.339314 -35.04373 3.8928018 30 3199067592616 1 0
24.971405 -22.247408 -1.3625541 10 3199067592616 1 0
21.659647 -25.910772 -1.1793238 38 3199067594920 1 0
9.076528 -8.9215555 3.4101996 1 3199067594920 1 0
0 0 0 29 3199067597224 1 0
0 0 0 4 3199067617960 1 0
25.931503 -25.496164 -0.84622 43 3199067597224 1 0
28.223825 -25.22615 -0.6607481 30 3199067617960 1 0
23.802984 -25.884417 -1.023405 47 3199067620264 1 0
0 0 0 1 3199067620264 1 0
28.639687 -28.249962 0 22 3199067622568 1 0
21.56545 -25.89859 -0.39235106 49 3199067624872 1 0
5.6223316 -6.115846 -1.6615057 4 3199067622568 1 0
7.405033 -7.306498 -1.6184427 5 3199067624872 1 0
29.180956 -26.113707 0.22759454 17 3199067627176 1 0
8.389246 -9.131229 -1.5783528 3 3199067627176 1 0
28.453386 -30.979431 -0.24447234 51 3199067629480 1 0
9.138322 -9.022234 -1.3832655 52 3199067629480 1 0
11.171515 -13.428711 -1.6306107 3 3199067631784 1 0
28.591915 -28.237322 0.9350852 36 3199067631784 1 0
28.234972 -33.95037 0.5140702 39 3199067634088 1 0
0 0 0 17 3199067634088 1 0
9.898372 -8.868835 0.38678774 11 3199067636392 1 0
13.118767 -14.296571 -1.5840036 3 3199067636392 1 0
28.452234 -31.016186 0.7346765 68 3199067638696 1 0
17.389734 -15.585805 -1.4966065 6 3199067638696 1 0
16.574953 -19.94868 -1.5104518 6 3199067641000 1 0
32.344646 -31.982565 2.6490464 27 3199067641000 1 0
27.737503 -30.255592 1.672255 26 3199067643304 1 0
21.604229 -21.368906 -1.4154768 4 3199067643304 1 0
9.279554 -9.181281 1.6028256 181 3199067645608 1 0
19.882902 -21.694578 -1.542236 9 3199067645608 1 0
32.345436 -35.303486 3.9087493 31 3199067647912 1 0
21.520472 -25.933044 -1.176811 55 3199067650216 1 0
24.95395 -22.392847 -1.3659735 10 3199067647912 1 0
0 0 0 100 3199067650216 1 0
0 0 0 29 3199067652520 1 0
25.78557 -25.535883 -0.84445196 31 3199067652520 1 0
0 0 0 4 3199067673256 1 0
9.947707 -8.956956 -0.23365282 8 3199067673256 1 0
23.654228 -25.912252 -1.0210778 40 3199067675560 1 0
0 0 0 1 3199067675560 1 0
5.605255 -6.1421247 -1.6630746 4 3199067677864 1 0
9.227429 -9.168567 0 24 3199067677864 1 0
28.26949 -34.202316 -0.5165847 47 3199067680168 1 0
7.3783636 -7.333429 -1.6184427 5 3199067680168 1 0
8.334597 -9.13822 -1.5743122 3 3199067682472 1 0
29.180882 -26.30534 0.22833847 17 3199067682472 1 0
28.483616 -31.239132 -0.24570446 31 3199067684776 1 0
9.080143 -9.030096 -1.37941 50 3199067684776 1 0
11.120274 -13.466011 -1.630239 3 3199067687080 1 0
9.219598 -9.171451 0.30260694 24 3199067687080 1 0
28.234308 -34.200253 0.5163053 33 3199067689384 1 0
9.223755 -9.178255 -0.90990347 13 3199067689384 1 0
13.083222 -14.36148 -1.5859563 3 3199067691688 1 0
9.907872 -8.941985 0.3884168 11 3199067691688 1 0
28.47774 -31.269207 0.7382368 77 3199067693992 1 0
17.342405 -15.656326 -1.4973739 6 3199067693992 1 0
16.498098 -20.001936 -1.5099866 6 3199067696296 1 0
0 0 0 21 3199067696296 1 0
27.728392 -30.464203 1.6782798 26 3199067698600 1 0
0 0 0 28 3199067698600 1 0
9.170714 -9.138759 1.5896637 191 3199067700904 1 0
19.864298 -21.830578 -1.5468415 9 3199067700904 1 0
32.240635 -35.44235 3.9113529 15 3199067703208 1 0
24.88866 -22.495207 -1.3667877 10 3199067703208 1 0
21.377089 -25.947857 -1.1740191 38 3199067705512 1 0
9.1136875 -9.087215 3.448505 11 3199067705512 1 0
0 0 0 29 3199067707816 1 0
9.207585 -9.183511 -0.30260694 16 3199067707816 1 0
0 0 0 4 3199067728552 1 0
9.946009 -9.01849 -0.23435092 12 3199067728552 1 0
23.507242 -25.932455 -1.0186341 39 3199067730856 1 0
0 0 0 1 3199067730856 1 0
5.578513 -6.1558404 -1.6615057 4 3199067733160 1 0
0 0 0 224 3199067733160 1 0
28.264112 -34.43992 -0.5186801 15 3199067735464 1 0
7.361101 -7.3675275 -1.6202873 5 3199067735464 1 0
8.281339 -9.143728 -1.5702716 23 3199067737768 1 0
28.48447 -31.459938 -0.24665761 13 3199067740072 1 0
9.950992 -9.033563 0.07811212 10 3199067737768 1 0
0 0 0 19 3199067740072 1 0
11.093403 -13.529384 -1.6332132 3 3199067742376 1 0
28.223785 -34.43161 0.51830757 40 3199067744680 1 0
0 0 0 252 3199067742376 1 0
9.186023 -9.204747 -0.9093454 23 3199067744680 1 0
13.030337 -14.404105 -1.5856309 3 3199067746984 1 0
9.920981 -9.016853 0.39016223 11 3199067746984 1 0
28.456942 -31.46631 0.7405405 62 3199067749288 1 0
17.293556 -15.722138 -1.4978856 6 3199067749288 1 0
16.4383 -20.071762 -1.5109168 6 3199067751592 1 0
27.72908 -30.679409 1.6847929 26 3199067753896 1 0
9.163483 -9.190177 0.7558073 19 3199067751592 1 0
9.179012 -9.20843 -0.6056491 27 3199067753896 1 0
19.796007 -21.908676 -1.5474695 9 3199067756200 1 0
9.04908 -9.080723 1.5740645 172 3199067756200 1 0
31.833448 -35.241077 3.8768544 15 3199067758504 1 0
24.839542 -22.608849 -1.368416 10 3199067758504 1 0
20.623241 -25.211636 -1.1374444 10 3199067760808 1 0
9.125536 -9.162775 3.4650693 11 3199067760808 1 0
0 0 0 29 3199067763112 1 0
0 0 0 4 3199067783296 1 0
9.1641865 -9.20426 -0.3022347 32 3199067763112 1 0
9.942633 -9.075689 -0.2349792 13 3199067783296 1 0
23.37296 -25.956783 -1.0165396 33 3199067785600 1 0
0 0 0 1 3199067785600 1 0
5.565942 -6.183051 -1.6638591 3 3199067787904 1 0
9.150717 -9.2169695 0 234 3199067787904 1 0
20.209494 -24.792536 -0.37237498 32 3199067790208 1 0
7.3449817 -7.400313 -1.6221321 5 3199067790208 1 0
8.24301 -9.162291 -1.5687565 28 3199067792512 1 0
9.935744 -9.080004 0.07822836 10 3199067792512 1 0
23.370024 -25.983908 -0.20311476 33 3199067794816 1 0
8.982057 -9.054987 -1.3738409 2 3199067794816 1 0
11.035901 -13.550655 -1.6313543 3 3199067797120 1 0
9.140062 -9.216956 0.30204862 234 3199067797120 1 0
28.21804 -34.65839 0.52030987 33 3199067799424 1 0
9.152639 -9.232325 -0.9090664 18 3199067799424 1 0
12.993158 -14.459097 -1.5869327 3 3199067801728 1 0
9.891026 -9.049703 0.39016223 14 3199067801728 1 0
28.454004 -31.67356 0.74319327 62 3199067804032 1 0
0 0 0 97 3199067804032 1 0
16.381727 -20.138554 -1.5118471 6 3199067806336 1 0
9.1329565 -9.220513 0.7558073 19 3199067806336 1 0
27.720644 -30.87528 1.6904919 26 3199067808640 1 0
9.142802 -9.23314 -0.6052769 23 3199067808640 1 0
19.725914 -21.977173 -1.547679 9 3199067810944 1 0
8.974228 -9.0655365 1.5662647 136 3199067810944 1 0
32.291523 -35.987385 3.9471533 31 3199067813248 1 0
0 0 0 15 3199067813248 1 0
0 0 0 81 3199067815552 1 0
9.108687 -9.206718 3.4702458 12 3199067815552 1 0
0 0 0 29 3199067817856 1 0
9.130801 -9.231756 -0.30214167 23 3199067817856 1 0
0 0 0 4 3199067838592 1 0
9.872615 -9.075155 -0.23407167 21 3199067838592 1 0
23.231575 -25.98158 -1.0143287 33 3199067840896 1 0
0 0 0 1 3199067840896 1 0
5.544325 -6.202442 -1.6638591 3 3199067843200 1 0
9.118487 -9.248856 0 218 3199067843200 1 0
20.034758 -24.754114 -0.3707452 6 3199067845504 1 0
7.319105 -7.4259067 -1.6221321 6 3199067845504 1 0
8.187185 -9.164376 -1.5642108 30 3199067847808 1 0
9.859839 -9.074001 0.077879645 19 3199067847808 1 0
28.464174 -31.870878 -0.2483547 53 3199067850112 1 0
8.933649 -9.069286 -1.3712707 3 3199067850112 1 0
10.996046 -13.598386 -1.6324697 3 3199067852416 1 0
9.107833 -9.248805 0.30204862 223 3199067852416 1 0
29.540205 -36.5421 0.5470378 30 3199067854720 1 0
9.128755 -9.272748 -0.90990347 16 3199067854720 1 0
12.950571 -14.513288 -1.5879091 3 3199067857024 1 0
9.844674 -9.070627 0.38958043 17 3199067857024 1 0
28.460411 -31.904007 0.7462649 63 3199067859328 1 0
0 0 0 142 3199067859328 1 0
9.1175165 -9.269419 0.7572026 7 3199067861632 1 0
16.308823 -20.192507 -1.5116146 6 3199067861632 1 0
27.713766 -31.085218 1.6966795 26 3199067863936 1 0
0 0 0 8 3199067863936 1 0
19.667685 -22.06677 -1.5491443 9 3199067866240 1 0
32.287704 -36.236805 3.9621243 48 3199067868544 1 0
0 0 0 10 3199067866240 1 0
0 0 0 101 3199067868544 1 0
19.996851 -24.78827 -1.1121771 53 3199067870848 1 0
9.079203 -9.241214 3.471281 7 3199067870848 1 0
9.129345 -9.294954 -0.30316526 12 3199067873152 1 0
0 0 0 29 3199067873152 1 0
0 0 0 4 3199067893888 1 0
23.063755 -25.97581 -1.0109543 33 3199067896192 1 0
9.846746 -9.114995 -0.2342113 15 3199067893888 1 0
0 0 0 1 3199067896192 1 0
5.5278482 -6.2276244 -1.665428 4 3199067898496 1 0
0 0 0 50 3199067898496 1 0
7.28761 -7.4457607 -1.6209022 6 3199067900800 1 0
28.586948 -35.57406 -0.53129905 11 3199067900800 1 0
8.139346 -9.175089 -1.5611804 46 3199067903104 1 0
0 0 0 7 3199067903104 1 0
28.480143 -32.11369 -0.24947058 39 3199067905408 1 0
8.88247 -9.080514 -1.368272 3 3199067905408 1 0
10.948512 -13.636686 -1.6324697 3 3199067907712 1 0
9.11184 -9.317709 0.3032583 111 3199067907712 1 0
0 0 0 1 3199067910016 1 0
12.910407 -14.570341 -1.5892109 3 3199067912320 1 0
9.944846 -9.227315 0.39481673 9 3199067912320 1 0
29.510109 -36.766644 0.5488538 45 3199067910016 1 0
28.460253 -32.128895 0.7491969 63 3199067914624 1 0
9.836646 -9.129584 -0.860101 113 3199067914624 1 0
27.804996 -28.46632 2.3174214 18 3199067916928 1 0
16.315681 -20.345886 -1.5188237 6 3199067916928 1 0
27.70841 -31.298475 1.7030298 27 3199067919232 1 0
21.277195 -21.789598 -1.4186409 9 3199067919232 1 0
19.582596 -22.126314 -1.5485163 9 3199067921536 1 0
0 0 0 5 3199067921536 1 0
32.285183 -36.489624 3.9774208 48 3199067923840 1 0
9.82577 -9.1301365 -0.54645455 52 3199067923840 1 0
19.932695 -24.886003 -1.1134336 48 3199067926144 1 0
9.046889 -9.27285 3.471281 8 3199067926144 1 0
0 0 0 29 3199067928448 1 0
25.040052 -25.672937 -0.83449537 26 3199067928448 1 0
0 0 0 4 3199067949184 1 0
22.898903 -25.972185 -1.0076962 32 3199067951488 1 0
0 0 0 1 3199067951488 1 0
5.5086694 -6.249825 -1.6662126 4 3199067953792 1 0
27.057444 -25.222647 -0.6456692 17 3199067949184 1 0
28.399107 -29.210243 0 58 3199067953792 1 0
28.5524 -35.786186 -0.5329754 16 3199067956096 1 0
7.2698393 -7.4796567 -1.622747 5 3199067956096 1 0
8.094155 -9.188558 -1.5586549 20 3199067958400 1 0
28.97351 -27.040304 0.23033777 12 3199067958400 1 0
28.473614 -32.33298 -0.25040048 47 3199067960704 1 0
0 0 0 16 3199067963008 1 0
0 0 0 85 3199067960704 1 0
0 0 0 12 3199067963008 1 0
29.50124 -37.019573 0.55108887 30 3199067965312 1 0
15.381494 -15.843857 -1.5441293 4 3199067965312 1 0
12.862102 -14.618311 -1.5895363 3 3199067967616 1 0
9.971005 -9.316567 0.39714396 9 3199067967616 1 0
28.456228 -32.351166 0.7520591 63 3199067969920 1 0
0 0 0 9 3199067969920 1 0
27.763845 -28.623398 2.322305 27 3199067972224 1 0
16.25451 -20.41521 -1.519754 6 3199067972224 1 0
27.701902 -31.512072 1.7093801 27 3199067974528 1 0
21.17597 -21.837921 -1.4169657 9 3199067974528 1 0
19.521063 -22.21254 -1.5497724 9 3199067976832 1 0
0 0 0 1 3199067976832 1 0
0 0 0 3 3199067979136 1 0
32.278656 -36.73987 3.992392 32 3199067979136 1 0
19.86561 -24.980461 -1.1145504 48 3199067981440 1 0
0 0 0 9 3199067981440 1 0
0 0 0 29 3199067983744 1 0
24.905771 -25.71423 -0.8330065 47 3199067983744 1 0
26.896338 -25.248508 -0.643924 41 3199068004480 1 0
0 0 0 4 3199068004480 1 0
22.723825 -25.955692 -1.0039725 32 3199068006784 1 0
4.2679763 -4.4193616 -1.7198908 0 3199068006784 1 0
5.4816537 -6.2631125 -1.6646435 3 3199068009088 1 0
28.39699 -29.412792 0 47 3199068009088 1 0
28.77253 -36.321426 -0.5394478 16 3199068011392 1 0
7.243686 -7.5049877 -1.622747 6 3199068011392 1 0
28.93724 -27.196062 0.23080271 12 3199068013696 1 0
0 0 0 22 3199068013696 1 0
28.460632 -32.546597 -0.2512839 40 3199068016000 1 0
8.7857275 -9.107955 -1.3631313 49 3199068016000 1 0
10.877761 -13.744019 -1.6361874 33 3199068018304 1 0
0 0 0 10 3199068018304 1 0
29.49841 -37.282295 0.55346364 22 3199068020608 1 0
15.331634 -15.903197 -1.5446874 4 3199068020608 1 0
12.818865 -14.672126 -1.5905128 3 3199068022912 1 0
28.903837 -27.196356 1.1550106 25 3199068022912 1 0
28.450996 -32.5738 0.7549213 56 3199068025216 1 0
0 0 0 9 3199068025216 1 0
27.766262 -28.826551 2.3309097 28 3199068027520 1 0
16.188103 -20.47809 -1.5202191 6 3199068027520 1 0
27.699495 -31.732025 1.7160561 27 3199068029824 1 0
21.11347 -21.926096 -1.4178964 9 3199068029824 1 0
19.45654 -22.295593 -1.550819 9 3199068032128 1 0
0 0 0 1 3199068032128 1 0
32.273396 -36.993515 4.0076885 32 3199068034432 1 0
19.803064 -25.081026 -1.1159463 48 3199068036736 1 0
0 0 0 9 3199068036736 1 0
0 0 0 29 3199068039040 1 0
24.768734 -25.752012 -0.83142465 47 3199068039040 1 0
0 0 0 4 3199068059776 1 0
0 0 0 1 3199068034432 1 0
26.741194 -25.27905 -0.64231837 41 3199068059776 1 0
22.551764 -25.941313 -1.0003653 32 3199068062080 1 0
5.4726224 -6.2970114 -1.6685659 2 3199068064384 1 0
4.1298804 -4.306349 -1.6702889 0 3199068062080 1 0
28.396572 -29.61857 0 48 3199068064384 1 0
28.72964 -36.528534 -0.541031 16 3199068066688 1 0
7.2229147 -7.535934 -1.6239768 6 3199068066688 1 0
7.9985857 -9.208892 -1.5525941 3 3199068068992 1 0
28.888615 -27.340899 0.23117468 18 3199068068992 1 0
8.715366 -9.09836 -1.3571337 47 3199068071296 1 0
10.827258 -13.778773 -1.6358156 31 3199068073600 1 0
28.36336 -29.6184 0.95425403 37 3199068073600 1 0
28.441261 -32.754475 -0.25212082 61 3199068071296 1 0
29.511396 -37.567463 0.5561644 31 3199068075904 1 0
15.284307 -15.965264 -1.5455245 4 3199068075904 1 0
28.858068 -27.343834 1.1569887 25 3199068078208 1 0
12.77541 -14.725817 -1.5914891 3 3199068078208 1 0
28.420973 -32.769596 0.7571552 64 3199068080512 1 0
17.02705 -16.138311 -1.5035138 4 3199068080512 1 0
16.116522 -20.534473 -1.5202191 6 3199068082816 1 0
27.759315 -29.02141 2.3388166 28 3199068082816 1 0
27.690655 -31.946304 1.7224065 27 3199068085120 1 0
21.111366 -22.077635 -1.4229218 9 3199068085120 1 0
0 0 0 1 3199068087424 1 0
19.375978 -22.360353 -1.5506097 9 3199068087424 1 0
32.285027 -37.26866 4.0252633 33 3199068089728 1 0
24.466116 -23.216125 -1.374115 10 3199068089728 1 0
19.740057 -25.181461 -1.1173422 48 3199068092032 1 0
0 0 0 9 3199068092032 1 0
0 0 0 29 3199068094336 1 0
24.623451 -25.78048 -0.82956356 46 3199068094336 1 0
0 0 0 4 3199068115072 1 0
26.597754 -25.319847 -0.640992 41 3199068115072 1 0
22.385307 -25.932104 -0.9969908 31 3199068117376 1 0
4.1281056 -4.3346853 -1.6756804 0 3199068117376 1 0
5.445483 -6.3101373 -1.666997 3 3199068119680 1 0
28.616726 -36.64751 -0.54131037 16 3199068121984 1 0
28.395063 -29.824701 0 48 3199068119680 1 0
7.202015 -7.566827 -1.6252066 5 3199068121984 1 0
7.9534345 -9.221732 -1.5500687 3 3199068124288 1 0
28.848015 -27.494005 0.23161638 24 3199068124288 1 0
