# .PCD v.7 - Point Cloud Data file format
VERSION .7
FIELDS x y z rgb timestamp_ns device_id active
SIZE 4 4 4 4 8 1 1
TYPE F F F F F U U
COUNT 1 1 1 1 1 1 1
WIDTH 985
HEIGHT 1
VIEWPOINT 0 0 0 1 0 0 0
POINTS 985               
DATA ascii
-0.8668232 -16.32194 -1.5257698 2 3205579455304 1 1
3.5072627 -78.44438 1.82718 27 3205579455304 1 0
-3.7281883 -70.00805 0.81617963 58 3205579457608 1 0
0 0 0 38 3205579459912 1 0
0.71058905 -15.945199 -1.1161035 15 3205579457608 1 1
7.1425385 -76.366234 2.2321749 38 3205579459912 1 0
1.4760789 -15.80666 -1.0174365 15 3205579462216 1 1
-0.8775693 -16.344725 -0.95324737 3 3205579464520 1 1
0 0 0 3 3205579464520 1 0
-0.31013086 -67.05307 1.1704282 19 3205579462216 1 0
0.70401907 -16.007153 -0.7463592 1 3205579466824 1 1
-0.08192328 -16.18558 -0.8482612 2 3205579469128 1 1
-0.35302925 -71.81156 2.9257138 29 3205579466824 1 0
0 0 0 1 3205579469128 1 0
0 0 0 8 3205579471432 1 0
1.4801217 -15.950184 -0.6526191 1 3205579471432 1 1
-2.3792276 -43.836723 -1.5330651 25 3205579473736 1 0
0 0 0 9 3205579473736 1 0
0.7063681 -16.27627 -0.37909612 2 3205579476040 1 1
0 0 0 29 3205579476040 1 0
-0.025465606 -3.7411518 -1.7445682 1 3205579496776 1 0
7.0015593 -76.785706 -1.3458598 26 3205579496776 1 0
-0.11430094 -16.440641 -0.4784811 2 3205579499080 1 1
0.25906867 -6.1768966 -1.7306738 6 3205579499080 1 0
-0.0628329 -8.852457 -1.7705469 3 3205579501384 1 0
3.1438148 -75.21833 0 49 3205579501384 1 0
-1.7660428 -31.440304 -0.366601 3 3205579503688 1 0
0 0 0 13 3205579503688 1 0
-0.08205948 -11.106086 -1.413699 14 3205579505992 1 0
6.939061 -76.59302 0.44698265 38 3205579505992 1 0
-0.3449278 -45.78193 -0.26609266 15 3205579508296 1 0
0.6807091 -16.45864 -1.7743839 2 3205579508296 1 0
-0.9249176 -16.338696 -1.5276287 2 3205579510600 1 1
3.2605896 -79.1154 1.8425337 27 3205579510600 1 0
-3.9725394 -69.994606 0.81617963 58 3205579512904 1 0
0.6550893 -15.95157 -1.1163826 12 3205579512904 1 1
-0.12923017 -16.213547 -1.3236372 2 3205579515208 1 1
6.835424 -75.94071 2.2190259 37 3205579515208 1 0
-0.5395464 -66.47968 1.1604455 38 3205579517512 1 0
1.4208943 -15.811715 -1.0174365 15 3205579517512 1 1
-0.9362138 -16.369469 -0.9548753 3 3205579519816 1 1
0 0 0 3 3205579519816 1 0
-0.60077316 -71.46219 2.9115474 29 3205579522120 1 0
0.6491092 -16.033466 -0.747476 1 3205579522120 1 1
-0.13852349 -16.197178 -0.84888923 2 3205579524424 1 1
0 0 0 1 3205579524424 1 0
0 0 0 8 3205579526728 1 0
1.4130634 -15.827866 -0.6474086 1 3205579526728 1 1
-2.5237005 -43.680485 -1.5279 25 3205579529032 1 0
0 0 0 9 3205579529032 1 0
0 0 0 29 3205579531336 1 0
0.64970845 -16.28263 -0.3791892 2 3205579531336 1 1
-0.038487177 -3.737415 -1.7428777 1 3205579552072 1 0
4.4461465 -50.71773 -0.8886765 26 3205579552072 1 0
-0.17335428 -16.58807 -0.4827865 4 3205579554376 1 1
0.23790462 -6.1893125 -1.7339088 6 3205579554376 1 0
-0.09382052 -8.848261 -1.7697624 3 3205579556680 1 0
2.872489 -75.02903 0 48 3205579556680 1 0
-1.8781334 -31.461857 -0.36692694 3 3205579558984 1 0
0.4060334 -10.648075 -1.6577969 4 3205579558984 1 0
-0.12123607 -11.113664 -1.4147092 13 3205579561288 1 0
6.7318687 -77.33424 0.45116723 39 3205579561288 1 0
-0.5047178 -45.628437 -0.26520926 15 3205579563592 1 0
0.6228054 -16.464912 -1.7748123 2 3205579563592 1 0
-0.9862446 -16.394957 -1.5332054 2 3205579565896 1 1
2.9853187 -79.24232 1.8452322 27 3205579565896 1 0
-4.215107 -69.892265 0.8151552 58 3205579568200 1 0
0.5991903 -15.969739 -1.1174988 10 3205579568200 1 1
-0.18621738 -16.165148 -1.3197317 4 3205579570504 1 1
6.693961 -77.446335 2.2623127 39 3205579570504 1 0
-0.7776786 -66.62531 1.1630284 38 3205579572808 1 0
1.3653436 -15.824622 -1.0179482 14 3205579572808 1 1
-1.0013204 -16.477633 -0.96138686 1 3205579575112 1 1
0 0 0 3 3205579575112 1 0
-0.8534463 -71.25178 2.9030805 29 3205579577416 1 0
-0.19657166 -16.204567 -0.8493079 2 3205579579720 1 1
0.59200263 -16.039675 -0.74766207 1 3205579577416 1 1
0 0 0 1 3205579579720 1 0
1.5609828 -18.22209 -0.74510604 1 3205579582024 1 1
0 0 0 8 3205579582024 1 0
-2.6708078 -43.511536 -1.5223161 25 3205579584328 1 0
0 0 0 9 3205579584328 1 0
0 0 0 29 3205579586632 1 0
0.5912361 -16.28886 -0.37928224 2 3205579586632 1 1
-0.052134614 -3.7336242 -1.7411872 1 3205579607368 1 0
6.4090815 -76.323715 -1.3369242 26 3205579607368 1 0
-0.638926 -45.30831 -1.3187321 19 3205579609672 1 0
0.2151742 -6.18629 -1.7328304 5 3205579609672 1 0
-0.12604886 -8.851783 -1.7705469 2 3205579611976 1 0
2.5615716 -73.939644 0 70 3205579611976 1 0
-2.001921 -31.610525 -0.36874294 3 3205579614280 1 0
0.3676045 -10.653426 -1.6584117 5 3205579614280 1 0
-0.16132233 -11.113153 -1.4147092 12 3205579616584 1 0
6.327194 -75.85128 0.44237962 37 3205579616584 1 0
-0.66576105 -45.430355 -0.26407012 22 3205579618888 1 0
0.5644681 -16.490892 -1.7773826 3 3205579618888 1 0
-1.0459116 -16.407223 -1.5346924 2 3205579621192 1 1
2.728754 -80.04382 1.8636566 28 3205579621192 1 0
-4.4631124 -69.86084 0.81496894 58 3205579623496 1 0
0.5426865 -15.983737 -1.1183358 11 3205579623496 1 1
-0.24382383 -16.18033 -1.3210336 19 3205579625800 1 1
6.34875 -76.62087 2.2375276 38 3205579625800 1 0
-1.007126 -66.22625 1.1561172 37 3205579628104 1 0
1.3100644 -15.837305 -1.0184599 13 3205579628104 1 1
-1.0587987 -16.466036 -0.96092176 3 3205579630408 1 1
3.1729903 -94.61041 5.5129747 28 3205579630408 1 0
-1.0476894 -67.66375 2.7570226 29 3205579632712 1 0
0.5395113 -16.153467 -0.7528736 1 3205579632712 1 1
-0.2530726 -16.19979 -0.84909856 2 3205579635016 1 1
0 0 0 1 3205579635016 1 0
0 0 0 8 3205579637320 1 0
1.4914131 -18.151724 -0.7420123 1 3205579637320 1 1
-2.6765232 -41.26809 -1.4441411 23 3205579639624 1 0
0 0 0 9 3205579639624 1 0
0 0 0 29 3205579641928 1 0
0.53482205 -16.282808 -0.37909612 2 3205579641928 1 1
-0.06470338 -3.7443047 -1.7462586 1 3205579662664 1 0
6.1508045 -76.28076 -1.3358072 25 3205579662664 1 0
-0.79005706 -45.337917 -1.3196629 28 3205579664968 1 0
0.19485575 -6.1946707 -1.734987 7 3205579664968 1 0
-0.15559939 -8.855236 -1.7713314 2 3205579667272 1 0
2.311409 -73.82382 0 47 3205579667272 1 0
0.33241135 -10.666445 -1.6602565 4 3205579669576 1 0
-2.761819 -41.417206 -0.48324466 9 3205579669576 1 0
-0.19878072 -11.128422 -1.4167295 11 3205579671880 1 0
6.072782 -75.864044 0.44233313 37 3205579671880 1 0
-0.8166213 -45.34788 -0.26360515 22 3205579674184 1 0
0.50917953 -16.492691 -1.7773826 2 3205579674184 1 0
-1.1039639 -16.447327 -1.538782 2 3205579676488 1 1
-4.697505 -69.83344 0.81482923 39 3205579678792 1 0
2.3024805 -74.93234 1.7444564 48 3205579676488 1 0
0.48923174 -15.997438 -1.1191728 10 3205579678792 1 1
0 0 0 19 3205579681096 1 0
-1.2307715 -66.206474 1.155838 56 3205579683400 1 0
5.9964237 -75.462074 2.2030842 72 3205579681096 1 0
1.256502 -15.841645 -1.0184599 13 3205579683400 1 1
-1.1151329 -16.470322 -0.96138686 1 3205579685704 1 1
2.2594059 -74.9509 4.366938 28 3205579685704 1 0
-1.2451856 -65.949524 2.687332 29 3205579688008 1 0
0.4844096 -16.147219 -0.7525013 1 3205579688008 1 1
-0.30866116 -16.222797 -0.8503546 2 3205579690312 1 1
0 0 0 1 3205579690312 1 0
0 0 0 8 3205579692616 1 0
1.4288677 -18.148737 -0.74168664 1 3205579692616 1 1
-2.8189206 -41.27864 -1.4448391 23 3205579694920 1 0
0 0 0 9 3205579694920 1 0
0 0 0 29 3205579697224 1 0
0.47939977 -16.296537 -0.37937528 2 3205579697224 1 1
-0.07762247 -3.736807 -1.7428777 1 3205579717960 1 0
5.8214545 -75.48432 -1.3214962 25 3205579717960 1 0
-0.94697326 -45.270924 -1.3178012 19 3205579720264 1 0
0.1730158 -6.1876125 -1.7328304 6 3205579720264 1 0
-0.18659158 -8.85856 -1.7721158 3 3205579722568 1 0
2.0779479 -74.7031 0 72 3205579722568 1 0
0.2952858 -10.671492 -1.6608714 4 3205579724872 1 0
-4.5267534 -64.49295 -0.7526659 10 3205579724872 1 0
5.796636 -75.73721 0.44147298 37 3205579727176 1 0
-0.23813322 -11.151463 -1.4197599 10 3205579727176 1 0
-0.97061104 -45.144806 -0.26244277 15 3205579729480 1 0
0.45193276 -16.506294 -1.7786678 2 3205579729480 1 0
-1.1630526 -16.467209 -1.5410126 2 3205579731784 1 1
2.0339365 -74.68408 1.738501 72 3205579731784 1 0
-4.939264 -69.78869 0.8145033 19 3205579734088 1 0
0.43381947 -16.015003 -1.120289 10 3205579734088 1 1
-0.3568181 -16.265963 -1.3281937 23 3205579736392 1 1
5.9461493 -78.289276 2.2850032 41 3205579736392 1 0
-1.4777606 -66.921486 1.1684037 38 3205579738696 1 0
1.2018002 -15.853895 -1.0189716 13 3205579738696 1 1
-1.1808442 -16.58184 -0.968131 1 3205579741000 1 1
1.9912748 -74.71483 4.352752 28 3205579741000 1 0
-1.489867 -66.59208 2.71371 29 3205579743304 1 0
0.42804235 -16.148811 -0.7525013 1 3205579743304 1 1
-0.3678054 -16.333439 -0.85621625 2 3205579745608 1 1
0 0 0 1 3205579745608 1 0
0 0 0 8 3205579747912 1 0
1.2255098 -16.29242 -0.6656455 1 3205579747912 1 1
-2.9647105 -41.292473 -1.4456768 23 3205579750216 1 0
0 0 0 9 3205579750216 1 0
0 0 0 29 3205579752520 1 0
0.42282224 -16.310104 -0.37965444 2 3205579752520 1 1
-0.09075383 -3.7401376 -1.7445682 1 3205579773256 1 0
0 0 0 36 3205579773256 1 0
-1.1009921 -45.103462 -1.3130304 19 3205579775560 1 0
-0.21760887 -8.861775 -1.7729003 4 3205579777864 1 0
0.15160438 -6.1958804 -1.734987 6 3205579775560 1 0
1.7813797 -73.23834 0 46 3205579777864 1 0
0.25870228 -10.700116 -1.6651758 15 3205579780168 1 0
-0.2774519 -11.16643 -1.4217802 10 3205579782472 1 0
5.456193 -74.715775 0.4354053 35 3205579782472 1 0
-3.1599615 -42.8768 -0.50052 15 3205579780168 1 0
-1.1238927 -44.969196 -0.26144314 22 3205579784776 1 0
0.39450222 -16.515724 -1.7795246 3 3205579784776 1 0
1.7648757 -74.33892 1.7303123 71 3205579787080 1 0
-5.1795826 -69.72715 0.8139911 19 3205579789384 1 0
0.37810227 -16.024399 -1.120847 10 3205579789384 1 1
-0.41440552 -16.296503 -1.3307973 13 3205579791688 1 1
-1.2278881 -16.562344 -1.550307 1 3205579787080 1 1
5.5844336 -77.08927 2.2493966 39 3205579791688 1 0
-1.6986722 -66.42016 1.1597474 57 3205579793992 1 0
1.1467403 -15.861976 -1.0192274 12 3205579793992 1 1
-2.4634519 -32.968075 -1.9253318 9 3205579796296 1 0
1.7223233 -74.37002 4.3322873 28 3205579796296 1 0
-1.7134202 -66.242874 2.6997068 29 3205579798600 1 0
0.37166986 -16.150208 -0.7525013 1 3205579798600 1 1
-0.42492136 -16.336048 -0.8564256 2 3205579800904 1 1
0 0 0 1 3205579800904 1 0
0 0 0 8 3205579803208 1 0
1.1600552 -16.177006 -0.6607606 1 3205579803208 1 1
-3.1109314 -41.309776 -1.446654 24 3205579805512 1 0
0 0 0 9 3205579805512 1 0
0 0 0 29 3205579807816 1 0
0.36588675 -16.31148 -0.37965444 2 3205579807816 1 1
-0.10370821 -3.7361743 -1.7428777 1 3205579828552 1 0
2.1085055 -30.077593 -0.52629477 8 3205579828552 1 0
-1.2536303 -44.927483 -1.3080268 9 3205579830856 1 0
0.12997581 -6.1963716 -1.734987 6 3205579830856 1 0
-0.24843094 -8.857041 -1.7721158 3 3205579833160 1 0
1.5415472 -74.003944 0 47 3205579833160 1 0
-3.3148444 -42.933304 -0.5013116 15 3205579835464 1 0
0.22143206 -10.7049055 -1.6657907 44 3205579835464 1 0
-0.31676555 -11.177293 -1.4232954 11 3205579837768 1 0
5.18398 -74.57076 0.43445218 35 3205579837768 1 0
-1.2759601 -44.79307 -0.26044348 14 3205579840072 1 0
-1.5696567 -20.215002 -1.892713 3 3205579842376 1 0
0.33709246 -16.528929 -1.7808098 3 3205579840072 1 0
1.5001116 -74.084755 1.7242639 70 3205579842376 1 0
-5.4204626 -69.67674 0.8136186 19 3205579844680 1 0
0.32232478 -16.0336 -1.1214051 8 3205579844680 1 1
-0.46944427 -16.231195 -1.32559 22 3205579846984 1 1
5.289461 -76.73334 2.2384584 38 3205579846984 1 0
-1.929698 -66.38584 1.1592586 19 3205579849288 1 0
1.0921865 -15.877829 -1.0199949 11 3205579849288 1 1
-2.580074 -32.97918 -1.9264946 9 3205579851592 1 0
1.4576093 -74.116066 4.317171 28 3205579851592 1 0
-1.9392452 -66.05272 2.6922166 29 3205579853896 1 0
0.31513688 -16.143415 -0.7521291 1 3205579853896 1 1
-0.4815888 -16.322487 -0.8557975 2 3205579856200 1 1
0 0 0 1 3205579856200 1 0
0 0 0 8 3205579858504 1 0
1.1005883 -16.137094 -0.65896946 1 3205579858504 1 1
-3.2569952 -41.322575 -1.4474915 24 3205579860808 1 0
0 0 0 9 3205579860808 1 0
0 0 0 29 3205579863112 1 0
0.30924973 -16.328651 -0.38002667 2 3205579863112 1 1
-0.11674926 -3.7357895 -1.7428777 1 3205579884296 1 0
5.019784 -75.37753 -1.318634 25 3205579884296 1 0
-1.404877 -44.734997 -1.3025577 19 3205579886600 1 0
0.10830058 -6.1967883 -1.734987 5 3205579886600 1 0
-0.2797225 -8.863957 -1.7736847 2 3205579888904 1 0
1.2765965 -73.68894 0 46 3205579888904 1 0
-3.4559686 -42.801792 -0.49991468 4 3205579891208 1 0
0.18349075 -10.685858 -1.6627162 41 3205579891208 1 0
-0.35635749 -11.184041 -1.4243056 10 3205579893512 1 0
4.8977766 -74.22934 0.43235987 35 3205579893512 1 0
-1.4283061 -44.61239 -0.25942057 14 3205579895816 1 0
0.27899382 -16.541945 -1.7820948 3 3205579895816 1 0
-1.639803 -20.193449 -1.8912259 3 3205579898120 1 0
1.232385 -73.73774 1.7160753 70 3205579898120 1 0
-5.6658955 -69.64116 0.81343234 19 3205579900424 1 0
0.26580316 -16.0506 -1.1225212 7 3205579900424 1 1
-0.52756065 -16.245365 -1.3268918 11 3205579902728 1 1
5.0306764 -76.9591 2.2445092 38 3205579902728 1 0
-2.1596308 -66.19069 1.1559776 37 3205579905032 1 0
1.0359762 -15.885595 -1.0202507 11 3205579905032 1 1
-2.7024593 -33.029476 -1.9299829 9 3205579907336 1 0
1.1876464 -73.757454 4.2960086 28 3205579907336 1 0
-2.207314 -67.02403 2.7321098 29 3205579909640 1 0
0.25781107 -16.164413 -0.7530597 1 3205579909640 1 1
-0.5406467 -16.340622 -0.85684425 2 3205579911944 1 1
0 0 0 1 3205579911944 1 0
0 0 0 8 3205579914248 1 0
1.0427266 -16.140936 -0.65896946 1 3205579914248 1 1
-3.407066 -41.33053 -1.4481895 24 3205579916552 1 0
0 0 0 9 3205579916552 1 0
0 0 0 29 3205579918856 1 0
0.25089824 -16.357647 -0.38067803 1 3205579918856 1 1
-0.13044082 -3.7353365 -1.7428777 1 3205579939592 1 0
1.896236 -30.139809 -0.5271325 4 3205579939592 1 0
-1.5621988 -44.549744 -1.2973214 18 3205579941896 1 0
0.085738994 -6.2048464 -1.7371436 6 3205579941896 1 0
-0.31235582 -8.870716 -1.7752538 5 3205579944200 1 0
1.002928 -73.35314 0 46 3205579944200 1 0
-5.367368 -63.585545 -0.7428874 10 3205579946504 1 0
0.14471743 -10.698312 -1.6645608 35 3205579946504 1 0
-0.39702135 -11.182671 -1.4243056 10 3205579948808 1 0
4.6144023 -74.031075 0.4311045 34 3205579948808 1 0
-1.5869095 -44.514973 -0.2588859 14 3205579951112 1 0
0.21912211 -16.554777 -1.78338 2 3205579951112 1 0
-1.7146075 -20.20722 -1.8930848 3 3205579953416 1 0
0.9620343 -73.48981 1.7102131 69 3205579953416 1 0
-5.9111247 -69.54451 0.8125476 19 3205579955720 1 0
0.20784174 -16.055447 -1.1228002 8 3205579955720 1 1
0 0 0 19 3205579958024 1 0
0 0 0 3 3205579958024 1 0
-2.3981752 -66.19048 1.1561172 37 3205579960328 1 0
0.9792764 -15.89719 -1.0207623 10 3205579960328 1 1
-2.8329966 -33.15881 -1.9381224 9 3205579962632 1 0
0.91822267 -73.40587 4.275311 56 3205579962632 1 0
-2.5641456 -70.20691 2.8622103 29 3205579964936 1 0
0.19995572 -16.173225 -0.753432 1 3205579964936 1 1
-0.598084 -16.31064 -0.85537887 2 3205579967240 1 1
0 0 0 1 3205579967240 1 0
0 0 0 8 3205579969544 1 0
0.9848431 -16.140568 -0.6588066 1 3205579969544 1 1
-3.555691 -41.334057 -1.4487479 24 3205579971848 1 0
0 0 0 9 3205579971848 1 0
0 0 0 29 3205579974152 1 0
-0.14347878 -3.7348583 -1.7428777 1 3205579994888 1 0
0.19244455 -16.334444 -0.3801197 1 3205579974152 1 1
4.396779 -74.00621 -1.2940611 23 3205579994888 1 0
-1.20689 -31.30348 -0.9116973 16 3205579997192 1 0
-0.34334114 -8.873497 -1.7760382 5 3205579999496 1 0
0.064084835 -6.2012553 -1.7360654 7 3205579997192 1 0
0.7463073 -73.1962 0 68 3205579999496 1 0
-5.571442 -63.379276 -0.7406988 10 3205580001800 1 0
0.10768537 -10.706654 -1.6657907 26 3205580001800 1 0
-0.43634653 -11.197089 -1.4263258 11 3205580004104 1 0
4.3449507 -73.823 0.42980263 69 3205580004104 1 0
0 0 0 66 3205580006408 1 0
0.16201359 -16.563389 -1.7842368 2 3205580006408 1 0
-1.7849528 -20.209126 -1.8938284 3 3205580008712 1 0
0.70516026 -73.1248 1.7016522 68 3205580008712 1 0
0.1526897 -16.064045 -1.1233582 7 3205580011016 1 1
-0.6521398 -16.500185 -1.3480465 4 3205580013320 1 1
-6.147838 -69.49587 0.81222165 19 3205580011016 1 0
4.3065886 -73.86724 2.1533978 33 3205580013320 1 0
-2.6511877 -66.84525 1.1677057 38 3205580015624 1 0
-2.837781 -31.927824 -1.8667277 13 3205580017928 1 0
0.66488916 -73.141045 4.25973 56 3205580017928 1 0
0.92574674 -15.916391 -1.0217856 3 3205580015624 1 1
-2.638028 -66.052505 2.6931937 29 3205580020232 1 0
0.14479321 -16.173813 -0.753432 1 3205580020232 1 1
0 0 0 1 3205580022536 1 0
0 0 0 8 3205580024840 1 0
-0.6545517 -16.332457 -0.8566349 2 3205580022536 1 1
0.93875694 -16.29544 -0.6649941 1 3205580024840 1 1
0 0 0 9 3205580027144 1 0
0 0 0 29 3205580029448 1 0
0.13737534 -16.354996 -0.38058499 1 3205580029448 1 1
-0.15586324 -3.7343621 -1.7428777 1 3205580050184 1 0
-3.6975257 -41.34168 -1.4494458 32 3205580027144 1 0
4.1428313 -73.868645 -1.2914083 23 3205580050184 1 0
-1.3137615 -31.367207 -0.9136755 10 3205580052488 1 0
-0.37272915 -8.868385 -1.7752538 5 3205580054792 1 0
0.043502286 -6.205286 -1.7371436 6 3205580052488 1 0
0.49976528 -72.79829 0 67 3205580054792 1 0
0.07205288 -10.722763 -1.6682503 23 3205580057096 1 0
-0.47396848 -11.199532 -1.4268309 11 3205580059400 1 0
-3.8547053 -42.233578 -0.49372163 4 3205580057096 1 0
4.100189 -73.87706 0.4300351 69 3205580059400 1 0
0 0 0 19 3205580061704 1 0
0.106560946 -16.57577 -1.785522 2 3205580061704 1 0
-1.8539315 -20.214912 -1.8949437 3 3205580064008 1 0
0.4579675 -72.88683 1.696069 45 3205580064008 1 0
-6.3902125 -69.56639 0.8132926 38 3205580066312 1 0
0.09867426 -16.076439 -1.1241953 8 3205580066312 1 1
-0.70251507 -16.374414 -1.3379574 4 3205580068616 1 1
4.51049 -82.133415 2.3939183 42 3205580068616 1 0
-2.8828907 -66.967766 1.1700094 58 3205580070920 1 0
0.8732289 -15.943346 -1.0233207 9 3205580070920 1 1
0 0 0 10 3205580073224 1 0
0.41504124 -72.79547 4.239497 28 3205580073224 1 0
-2.8495283 -65.74769 2.6811442 29 3205580075528 1 0
0.08984207 -16.170216 -0.75324583 1 3205580075528 1 1
-0.7110012 -16.350088 -0.85768163 2 3205580077832 1 1
0 0 0 1 3205580077832 1 0
0 0 0 8 3205580080136 1 0
0.874307 -16.134924 -0.65831816 1 3205580080136 1 1
-3.8406558 -41.3487 -1.4501439 24 3205580082440 1 0
0 0 0 9 3205580082440 1 0
0 0 0 29 3205580084744 1 0
0.08145482 -16.375364 -0.38105023 1 3205580084744 1 1
-0.16873382 -3.7301738 -1.7411872 1 3205580105480 1 0
3.8834865 -73.854706 -1.2909195 23 3205580105480 1 0
-2.0014615 -44.103916 -1.2848707 18 3205580107784 1 0
0.021841532 -6.2054 -1.7371436 5 3205580107784 1 0
-0.4038617 -8.870948 -1.7760382 4 3205580110088 1 0
0.24491996 -72.58359 0 67 3205580110088 1 0
-3.0079007 -31.731596 -0.37107116 22 3205580112392 1 0
0.034610253 -10.718997 -1.6676353 22 3205580112392 1 0
-0.51305926 -11.197809 -1.4268309 12 3205580114696 1 0
3.8844512 -74.70181 0.4347544 35 3205580114696 1 0
0.04871175 -16.580017 -1.7859504 2 3205580117000 1 0
-2.0226178 -44.0048 -0.25602642 14 3205580117000 1 0
-1.932035 -20.287613 -1.9023792 3 3205580119304 1 0
0.20251481 -72.52009 1.6875082 67 3205580119304 1 0
-6.6227517 -69.43615 0.8120354 58 3205580121608 1 0
0.042588104 -16.088657 -1.1250324 7 3205580121608 1 1
-0.75541806 -16.280268 -1.3304719 4 3205580123912 1 1
4.7618704 -92.614395 2.6989033 34 3205580123912 1 0
-3.109196 -66.79749 1.1672169 58 3205580126216 1 0
0.8169577 -15.934338 -1.0225531 11 3205580126216 1 1
-3.04022 -31.72867 -1.8562627 22 3205580128520 1 0
0.16041425 -72.560875 4.2257767 56 3205580128520 1 0
0.03339694 -16.170431 -0.75324583 1 3205580130824 1 1
-3.1179078 -66.56774 2.7150128 58 3205580130824 1 0
-0.7691942 -16.371449 -0.85893774 2 3205580133128 1 1
0 0 0 1 3205580133128 1 0
0 0 0 8 3205580135432 1 0
0.81878954 -16.153845 -0.65896946 1 3205580135432 1 1
-3.989186 -41.378815 -1.4516795 16 3205580137736 1 0
0 0 0 9 3205580137736 1 0
0 0 0 29 3205580140040 1 0
0.024459744 -16.487518 -0.3836557 2 3205580140040 1 1
-0.18263583 -3.7476666 -1.7496396 1 3205580160776 1 0
3.5044928 -71.399155 -1.2477772 21 3205580160776 1 0
-2.1528633 -44.044746 -1.283358 9 3205580163080 1 0
0.00018073298 -6.2131424 -1.7393003 6 3205580163080 1 0
-0.43520877 -8.877319 -1.7776071 3 3205580165384 1 0
-0.008395731 -72.156 0 44 3205580165384 1 0
-3.1229513 -31.76469 -0.37158337 6 3205580167688 1 0
-0.0028072763 -10.723005 -1.6682503 22 3205580167688 1 0
-0.5519483 -11.191987 -1.4263258 10 3205580169992 1 0
3.6287076 -74.818794 0.43535882 71 3205580169992 1 0
-2.170678 -43.88561 -0.25537547 14 3205580172296 1 0
-0.009176797 -16.603949 -1.7885207 2 3205580172296 1 0
-2.0020573 -20.272818 -1.9016356 3 3205580174600 1 0
-0.050469633 -72.29241 1.6822042 44 3205580174600 1 0
-6.8761115 -69.52406 0.8133392 58 3205580176904 1 0
-0.013582146 -16.100677 -1.1258695 7 3205580176904 1 1
4.4259267 -92.36687 2.6912234 34 3205580179208 1 0
-0.8130369 -16.293459 -1.3317736 2 3205580179208 1 1
-3.3697302 -67.333466 1.1767808 39 3205580181512 1 0
0.7617125 -15.945066 -1.0230649 8 3205580181512 1 1
-3.3151743 -33.370914 -1.953006 4 3205580183816 1 0
-0.09242681 -72.213585 4.205544 56 3205580183816 1 0
-3.530083 -70.12896 2.860745 87 3205580186120 1 0
-0.023099858 -16.20641 -0.75492096 1 3205580186120 1 1
-0.82593375 -16.360685 -0.858519 2 3205580188424 1 1
0 0 0 1 3205580188424 1 0
0 0 0 8 3205580190728 1 0
0.76089007 -16.124666 -0.6576668 1 3205580190728 1 1
0 0 0 9 3205580193032 1 0
-4.136383 -41.392483 -1.4526566 24 3205580193032 1 0
0 0 0 29 3205580195336 1 0
-0.19496012 -3.732525 -1.7428777 1 3205580216072 1 0
1.3892237 -30.475706 -0.53250784 4 3205580216072 1 0
-3.404575 -64.99934 -1.8942592 23 3205580218376 1 0
-0.033212982 -16.547487 -0.3850515 4 3205580195336 1 1
-0.021507183 -6.213105 -1.7393003 6 3205580218376 1 0
-0.46619374 -8.875747 -1.7776071 4 3205580220680 1 0
-0.2590696 -71.82353 0 21 3205580220680 1 0
-4.235969 -41.594025 -0.48673698 4 3205580222984 1 0
-0.040267196 -10.730835 -1.6694801 18 3205580222984 1 0
-0.5905937 -11.182067 -1.4253157 11 3205580225288 1 0
3.368778 -74.85897 0.43552157 71 3205580225288 1 0
-2.3156037 -43.721985 -0.25446883 7 3205580227592 1 0
-0.06713534 -16.603815 -1.7885207 2 3205580227592 1 0
-2.0760524 -20.297401 -1.9046098 3 3205580229896 1 0
-0.27944988 -66.713356 1.5523958 17 3205580229896 1 0
-7.1179385 -69.49168 0.8132461 58 3205580232200 1 0
-0.87182003 -16.326351 -1.3347028 4 3205580234504 1 1
-0.069835804 -16.112503 -1.1267066 7 3205580232200 1 1
3.5908992 -80.842026 2.3550532 43 3205580234504 1 0
-3.7486634 -70.00903 1.2237628 65 3205580236808 1 0
-3.433275 -33.375027 -1.9539362 9 3205580239112 1 0
0.7067554 -15.96358 -1.0240881 6 3205580236808 1 1
-0.34329855 -71.96125 4.190893 28 3205580239112 1 0
-0.07969029 -16.210226 -0.75510705 3 3205580241416 1 1
-3.7681966 -69.99249 2.8556972 58 3205580241416 1 0
-0.8858374 -16.409555 -0.8612405 2 3205580243720 1 1
0 0 0 1 3205580243720 1 0
0 0 0 8 3205580246024 1 0
0.70041305 -16.031395 -0.65375894 1 3205580246024 1 1
-4.2824903 -41.393696 -1.453215 24 3205580248328 1 0
0 0 0 9 3205580248328 1 0
0 0 0 29 3205580250632 1 0
-0.09143598 -16.631247 -0.3870056 5 3205580250632 1 1
-0.20778614 -3.7282023 -1.7411872 1 3205580271368 1 0
2.0108626 -47.77842 -0.8347137 16 3205580271368 1 0
-0.0431145 -6.201437 -1.7360654 5 3205580273672 1 0
-3.6314445 -64.98706 -1.8942592 23 3205580273672 1 0
-0.49717304 -8.874064 -1.7776071 3 3205580275976 1 0
-0.5015457 -70.662224 0 20 3205580275976 1 0
-4.376104 -41.531254 -0.4861782 4 3205580278280 1 0
-0.07775318 -10.734581 -1.670095 26 3205580278280 1 0
-0.6298459 -11.183899 -1.4258208 10 3205580280584 1 0
3.1140857 -75.030136 0.43645146 72 3205580280584 1 0
-2.4582863 -43.537918 -0.25344592 7 3205580282888 1 0
-0.12518294 -16.61541 -1.7898059 2 3205580282888 1 0
-2.1468909 -20.290031 -1.9046098 3 3205580285192 1 0
-0.5127819 -66.77196 1.5537916 35 3205580285192 1 0
-7.362152 -69.482315 0.81343234 58 3205580287496 1 0
-0.12617217 -16.124132 -1.1275437 7 3205580287496 1 1
-0.9301632 -16.34709 -1.3366556 4 3205580289800 1 1
3.3381126 -81.57316 2.3759985 42 3205580289800 1 0
-3.9905121 -69.9516 1.2229948 64 3205580292104 1 0
0.651841 -15.985892 -1.0253673 6 3205580292104 1 1
-3.5620067 -33.477993 -1.9606804 9 3205580294408 1 0
-0.5550337 -67.18387 3.9127562 28 3205580294408 1 0
-4.0106626 -69.94699 2.8543944 87 3205580296712 1 0
-0.13617328 -16.197863 -0.7545487 3 3205580296712 1 1
-0.9486139 -16.502073 -0.86626476 2 3205580299016 1 1
0 0 0 1 3205580299016 1 0
0 0 0 8 3205580301320 1 0
0.64444876 -16.033743 -0.65375894 1 3205580301320 1 1
-4.428656 -41.394394 -1.4537734 32 3205580303624 1 0
0 0 0 9 3205580303624 1 0
0 0 0 29 3205580305928 1 0
-0.15042384 -16.734795 -0.38942498 2 3205580305928 1 1
-0.22122747 -3.734692 -1.7445682 1 3205580326664 1 0
1.842993 -47.75717 -0.834225 8 3205580326664 1 0
-3.9483328 -66.49067 -1.9384768 23 3205580328968 1 0
-0.06484174 -6.208952 -1.7382219 6 3205580328968 1 0
-0.5283793 -8.876191 -1.7783916 3 3205580331272 1 0
-0.7471834 -70.56404 0 41 3205580331272 1 0
-4.5110893 -41.42427 -0.4851072 27 3205580333576 1 0
-0.11530823 -10.742148 -1.6713248 23 3205580333576 1 0
-0.6691181 -11.185593 -1.4263258 11 3205580335880 1 0
2.8545935 -75.1045 0.43682343 72 3205580335880 1 0
-2.6066556 -43.46918 -0.2530972 6 3205580338184 1 0
-2.2168374 -20.274496 -1.9038663 3 3205580340488 1 0
-0.18331233 -16.626802 -1.7910911 2 3205580338184 1 0
-0.74947447 -67.09365 1.5613289 18 3205580340488 1 0
-7.5911508 -69.33294 0.81198883 58 3205580342792 1 0
-0.18250029 -16.127583 -1.1278226 6 3205580342792 1 1
-0.9893829 -16.379559 -1.3395847 4 3205580345096 1 1
3.042283 -81.28865 2.3673878 42 3205580345096 1 0
-4.232731 -69.905304 1.2224363 64 3205580347400 1 0
0.59618455 -15.992059 -1.0256231 6 3205580347400 1 1
-3.6797178 -33.473293 -1.9611454 9 3205580349704 1 0
-0.8386783 -71.36215 4.1562424 28 3205580349704 1 0
-4.2540708 -69.92059 2.853906 58 3205580352008 1 0
-0.1930463 -16.225256 -0.75585157 1 3205580352008 1 1
0 0 0 1 3205580354312 1 0
-1.0059679 -16.494675 -0.8660554 2 3205580354312 1 1
0 0 0 8 3205580356616 1 0
0.59214085 -16.135744 -0.65782964 1 3205580356616 1 1
-4.578392 -41.426365 -1.4554486 24 3205580358920 1 0
0 0 0 9 3205580358920 1 0
0 0 0 29 3205580361224 1 0
-0.86878705 -69.61573 -1.6200451 20 3205580361224 1 0
-0.23403563 -3.730279 -1.7428777 1 3205580381960 1 0
1.0719764 -30.544538 -0.5334852 4 3205580381960 1 0
-2.5949676 -41.26498 -1.2033008 17 3205580384264 1 0
-0.086568296 -6.212539 -1.7393003 7 3205580384264 1 0
-0.55960655 -8.878207 -1.7791761 3 3205580386568 1 0
-0.9910155 -70.385025 0 61 3205580386568 1 0
-7.3789835 -65.630005 -0.76887023 10 3205580388872 1 0
-0.15291707 -10.749585 -1.6725546 21 3205580388872 1 0
-0.70891136 -11.195069 -1.4278411 11 3205580391176 1 0
2.495697 -72.31172 0.42052683 32 3205580391176 1 0
-4.1047525 -64.672775 -0.37663525 15 3205580393480 1 0
-0.23557705 -16.228403 -1.7482523 2 3205580393480 1 0
-2.2898288 -20.286423 -1.9057251 3 3205580395784 1 0
-0.9752284 -66.51485 1.5479294 35 3205580395784 1 0
-7.8322234 -69.29807 0.8118957 58 3205580398088 1 0
-0.2389131 -16.134827 -1.1283808 3 3205580398088 1 1
-1.0475693 -16.39192 -1.3408865 2 3205580400392 1 1
2.5460498 -75.037025 2.185048 70 3205580400392 1 0
-4.4762087 -69.88212 1.2222967 64 3205580402696 1 0
0.5406278 -16.002022 -1.0261347 6 3205580402696 1 1
-3.801041 -33.499924 -1.963471 9 3205580405000 1 0
-1.0824783 -71.01141 4.13601 28 3205580405000 1 0
-4.495547 -69.86543 2.8522778 87 3205580407304 1 0
-0.24968185 -16.224483 -0.75585157 3 3205580407304 1 1
-1.0653385 -16.518967 -0.8675208 2 3205580409608 1 1
0 0 0 1 3205580409608 1 0
0 0 0 8 3205580411912 1 0
0.6088905 -18.338673 -0.7475485 1 3205580411912 1 1
-4.71255 -41.31878 -1.4522378 24 3205580414216 1 0
0 0 0 9 3205580414216 1 0
0 0 0 29 3205580416520 1 0
-1.1114668 -69.592285 -1.6195798 20 3205580416520 1 0
-0.24777418 -3.740291 -1.7479491 1 3205580437256 1 0
0.96673906 -30.592066 -0.53425306 4 3205580437256 1 0
-2.7429664 -41.315514 -1.2050463 8 3205580439560 1 0
-0.10825358 -6.212199 -1.7393003 5 3205580439560 1 0
-0.5908543 -8.880113 -1.7799605 3 3205580441864 1 0
-1.2236981 -69.64125 0 60 3205580441864 1 0
-7.596511 -65.504524 -0.76770616 21 3205580444168 1 0
-0.1905092 -10.752937 -1.6731696 23 3205580444168 1 0
2.2489715 -72.50391 0.42159623 32 3205580446472 1 0
-0.7485143 -11.200445 -1.4288512 12 3205580446472 1 0
-4.326201 -64.59419 -0.3762633 14 3205580448776 1 0
-0.29150724 -16.18772 -1.7439684 3 3205580448776 1 0
-2.361088 -20.28226 -1.9060969 3 3205580451080 1 0
-1.2156769 -66.966835 1.5585374 35 3205580451080 1 0
-8.070367 -69.238525 0.8115232 57 3205580453384 1 0
-0.29567072 -16.157833 -1.1300548 5 3205580453384 1 1
-1.1066585 -16.416006 -1.3431647 2 3205580455688 1 1
2.2735236 -74.69777 2.1749246 69 3205580455688 1 0
-4.7174196 -69.826164 1.2215986 64 3205580457992 1 0
0.48500872 -16.011791 -1.0266464 6 3205580457992 1 1
-3.9212027 -33.514214 -1.9650989 9 3205580460296 1 0
-1.2578651 -67.13844 3.9106631 28 3205580460296 1 0
-4.738313 -69.83337 2.8516264 87 3205580462600 1 0
-0.3064652 -16.231504 -0.7562238 3 3205580462600 1 1
-1.1243489 -16.535072 -0.8685675 2 3205580464904 1 1
0 0 0 1 3205580464904 1 0
0 0 0 8 3205580467208 1 0
0.5448728 -18.340687 -0.7475485 1 3205580467208 1 1
-4.8422785 -41.179 -1.4479103 24 3205580469512 1 0
0 0 0 9 3205580469512 1 0
0 0 0 9 3205580471816 1 0
-0.26032424 -3.7321706 -1.7445682 1 3205580492552 1 0
0 0 0 29 3205580471816 1 0
0.8626437 -30.691202 -0.5359285 4 3205580492552 1 0
-4.506669 -64.47533 -1.880994 22 3205580494856 1 0
-0.13009866 -6.2194858 -1.7414569 5 3205580494856 1 0
-0.62184805 -8.877996 -1.7799605 3 3205580497160 1 0
-1.4863266 -70.56435 0 41 3205580497160 1 0
-4.902386 -41.0213 -0.480963 4 3205580499464 1 0
-0.22812662 -10.756159 -1.6737845 23 3205580499464 1 0
-0.7873282 -11.193806 -1.4283462 12 3205580501768 1 0
1.9678075 -71.491714 0.41566807 31 3205580501768 1 0
-4.5389953 -64.39915 -0.37521714 14 3205580504072 1 0
-0.34809664 -16.190578 -1.7443967 3 3205580504072 1 0
-2.4328208 -20.281805 -1.9068406 3 3205580506376 1 0
-1.4301294 -66.07063 1.5377866 34 3205580506376 1 0
-8.322974 -69.30127 0.8125942 38 3205580508680 1 0
-0.35511288 -16.296328 -1.1398208 6 3205580508680 1 1
-1.1662105 -16.443857 -1.3457683 2 3205580510984 1 1
2.006197 -74.46144 2.1678267 68 3205580510984 1 0
-4.959145 -69.78135 1.22111 64 3205580513288 1 0
0.42932805 -16.021368 -1.0271581 6 3205580513288 1 1
-4.052024 -33.615295 -1.971843 9 3205580515592 1 0
-1.5054362 -67.728485 3.945314 28 3205580515592 1 0
-4.979203 -69.776535 2.8499982 58 3205580517896 1 0
-0.3633006 -16.238325 -0.7565961 3 3205580517896 1 1
0 0 0 59 3205580520200 1 0
0 0 0 1 3205580520200 1 0
0 0 0 8 3205580522504 1 0
0.48587596 -18.534252 -0.7553643 1 3205580522504 1 1
-4.9691653 -41.022945 -1.4430244 23 3205580524808 1 0
0 0 0 29 3205580527112 1 0
0 0 0 1 3205580527112 1 0
-0.27414498 -3.7420857 -1.7496396 1 3205580547296 1 0
1.7103944 -69.488365 -1.2132913 19 3205580547296 1 0
0 0 0 9 3205580524808 1 0
-3.148419 -42.89039 -1.2515911 18 3205580549600 1 0
-0.15171392 -6.2151427 -1.7403785 5 3205580549600 1 0
-1.7285088 -70.39078 0 61 3205580551904 1 0
-0.65312195 -8.8796835 -1.780745 5 3205580551904 1 0
-9.839526 -79.96344 -0.93794537 28 3205580554208 1 0
-0.26596403 -10.767151 -1.6756293 23 3205580554208 1 0
-0.8272737 -11.202861 -1.4298613 10 3205580556512 1 0
1.7157443 -71.39418 0.41506362 30 3205580556512 1 0
-3.18204 -43.00571 -0.25063297 6 3205580558816 1 0
-0.4049083 -16.201193 -1.7456819 3 3205580558816 1 0
-1.6816529 -66.89675 1.5571415 35 3205580561120 1 0
-2.5036025 -20.27319 -1.9068406 3 3205580561120 1 0
-10.004817 -80.91832 0.9492139 28 3205580563424 1 0
-0.4168366 -16.48646 -1.153214 10 3205580563424 1 1
-1.2271541 -16.487396 -1.3496739 1 3205580565728 1 1
1.7377361 -74.10424 2.1572375 67 3205580565728 1 0
-5.2015076 -69.74766 1.2208307 64 3205580568032 1 0
0.37367943 -16.03474 -1.0279256 6 3205580568032 1 1
-4.1732726 -33.63265 -1.9737035 9 3205580570336 1 0
-1.8048847 -70.17385 4.0881033 28 3205580570336 1 0
-5.2218432 -69.74677 2.8495097 58 3205580572640 1 0
-0.4204973 -16.25693 -0.7575267 3 3205580572640 1 1
-2.3719432 -31.619644 -1.6617713 44 3205580574944 1 0
0 0 0 1 3205580574944 1 0
0 0 0 8 3205580577248 1 0
0.36842722 -16.214361 -0.6607606 1 3205580577248 1 1
-5.094033 -40.858578 -1.4378593 23 3205580579552 1 0
0 0 0 29 3205580581856 1 0
0 0 0 9 3205580579552 1 0
-1.7997738 -68.049774 -1.5840337 38 3205580581856 1 0
-0.28554067 -3.7194185 -1.7394967 1 3205580602592 1 0
-3.3011703 -42.927025 -1.2529875 27 3205580604896 1 0
0 0 0 21 3205580602592 1 0
-0.17321013 -6.2107277 -1.7393003 5 3205580604896 1 0
-0.68385565 -8.87737 -1.780745 4 3205580607200 1 0
-1.9704801 -70.3244 0 20 3205580607200 1 0
-0.30341068 -10.778023 -1.6774739 21 3205580609504 1 0
-5.1587377 -40.76409 -0.47835538 4 3205580609504 1 0
-0.8654166 -11.195999 -1.4293563 10 3205580611808 1 0
1.4728996 -71.50762 0.41569132 31 3205580611808 1 0
-3.3163517 -42.831078 -0.24967982 6 3205580614112 1 0
-0.46039343 -16.20369 -1.7461103 3 3205580614112 1 0
-2.5760965 -20.292208 -1.9094429 3 3205580616416 1 0
-2.0063019 -70.28834 1.6362362 20 3205580616416 1 0
-10.276962 -80.86808 0.94902766 85 3205580618720 1 0
-0.47270417 -16.484953 -1.153214 11 3205580618720 1 1
0 0 0 100 3205580621024 1 0
-5.433948 -69.705864 1.2204119 64 3205580623328 1 0
1.4802939 -73.74191 2.1465323 99 3205580621024 1 0
0.32012293 -16.05187 -1.0289489 5 3205580623328 1 1
-4.2887874 -33.642265 -1.9750988 9 3205580625632 1 0
-2.0392725 -70.15545 4.0874057 28 3205580625632 1 0
-5.452559 -69.709076 2.8486955 87 3205580627936 1 0
-2.4792807 -31.643463 -1.6634461 38 3205580630240 1 0
-0.47720695 -16.343306 -0.7616214 3 3205580627936 1 1
0 0 0 1 3205580630240 1 0
0 0 0 8 3205580632544 1 0
0.3138059 -16.159546 -0.65848094 1 3205580632544 1 1
-5.213081 -40.722656 -1.4336714 23 3205580634848 1 0
0 0 0 9 3205580634848 1 0
0 0 0 29 3205580637152 1 0
-0.93893385 -31.589495 -0.73539436 4 3205580637152 1 0
-0.29751298 -3.7221167 -1.7411872 3 3205580657888 1 0
0.55299896 -30.758343 -0.5369756 34 3205580657888 1 0
-3.431531 -42.852623 -1.2511257 9 3205580660192 1 0
-0.19316974 -6.2217 -1.7425351 5 3205580660192 1 0
-0.71168584 -8.871246 -1.7799605 5 3205580662496 1 0
-2.1945684 -70.35378 0 20 3205580662496 1 0
-9.924855 -76.4694 -0.8977138 13 3205580664800 1 0
-0.33773953 -10.777001 -1.6774739 23 3205580664800 1 0
1.2789419 -73.51563 0.4273384 33 3205580667104 1 0
-0.90219206 -11.205038 -1.4308715 10 3205580667104 1 0
-5.145634 -63.791725 -0.3719625 14 3205580669408 1 0
-0.51310337 -16.222 -1.7482523 2 3205580669408 1 0
-2.6400607 -20.271936 -1.9083276 3 3205580671712 1 0
-2.0958238 -65.95685 1.5355533 17 3205580671712 1 0
-10.544884 -80.877945 0.9495399 57 3205580674016 1 0
-0.5176392 -16.216122 -1.1345193 10 3205580674016 1 1
-1.8604943 -22.940115 -1.8788685 15 3205580676320 1 0
1.235737 -73.49049 2.139085 97 3205580676320 1 0
-5.660735 -69.67177 1.2201326 64 3205580678624 1 0
-4.401419 -33.643826 -1.976029 9 3205580680928 1 0
0.26772475 -16.060814 -1.0294605 6 3205580678624 1 1
-2.2688315 -70.11644 4.085545 28 3205580680928 1 0
-5.679431 -69.650856 2.847067 58 3205580683232 1 0
-0.5312928 -16.345634 -0.76180756 3 3205580683232 1 1
-2.587453 -31.674881 -1.6655395 38 3205580685536 1 0
0 0 0 1 3205580685536 1 0
0 0 0 8 3205580687840 1 0
0.2608822 -16.216448 -0.6607606 1 3205580687840 1 1
-5.3341722 -40.59005 -1.429623 23 3205580690144 1 0
0 0 0 9 3205580690144 1 0
0 0 0 29 3205580692448 1 0
-2.2124412 -66.8693 -1.5568624 36 3205580692448 1 0
-0.3102023 -3.717443 -1.7394967 1 3205580713184 1 0
0.44678763 -30.840065 -0.53837186 12 3205580713184 1 0
-2.6575098 -31.791613 -0.9284535 5 3205580715488 1 0
-0.21488635 -6.220988 -1.7425351 6 3205580715488 1 0
-0.74297523 -8.872617 -1.780745 4 3205580717792 1 0
-2.316028 -66.767845 0 17 3205580717792 1 0
-10.171105 -76.27966 -0.89589775 13 3205580720096 1 0
-0.375769 -10.787607 -1.6793187 24 3205580720096 1 0
-0.94129944 -11.20182 -1.4308715 9 3205580722400 1 0
1.017645 -73.183685 0.4253856 66 3205580722400 1 0
-5.351837 -63.578068 -0.37082335 14 3205580724704 1 0
-0.5832672 -16.605642 -1.7898059 2 3205580724704 1 0
-2.7145038 -20.29023 -1.91093 3 3205580727008 1 0
-2.33591 -66.22888 1.542067 34 3205580727008 1 0
-10.839348 -80.93182 0.9506109 85 3205580729312 1 0
-0.5743821 -16.218204 -1.1347983 6 3205580729312 1 1
-1.940895 -22.937454 -1.8791939 20 3205580731616 1 0
-5.9018736 -69.62767 1.2197138 64 3205580733920 1 0
0.21171302 -16.065641 -1.0297164 5 3205580733920 1 1
-4.5241494 -33.66783 -1.9783546 9 3205580736224 1 0
0.9746188 -73.150536 2.129078 64 3205580731616 1 0
-2.5129974 -70.092125 4.084615 28 3205580736224 1 0
-5.9221845 -69.626625 2.8469043 58 3205580738528 1 0
-0.5882027 -16.339687 -0.7616214 3 3205580738528 1 1
-2.701055 -31.701477 -1.6674236 39 3205580740832 1 0
0 0 0 1 3205580740832 1 0
0 0 0 8 3205580743136 1 0
0.2026638 -16.089375 -0.65555006 1 3205580743136 1 1
-5.4549723 -40.41668 -1.4241787 15 3205580745440 1 0
0 0 0 9 3205580745440 1 0
0 0 0 29 3205580747744 1 0
-2.4361968 -66.59742 -1.5507209 35 3205580747744 1 0
-0.32380486 -3.7235606 -1.7428777 1 3205580768480 1 0
0.34445393 -31.325335 -0.5468188 8 3205580768480 1 0
-2.759446 -31.67858 -0.9254281 5 3205580770784 1 0
-0.23660034 -6.2202 -1.7425351 6 3205580770784 1 0
-0.7742828 -8.873878 -1.7815294 4 3205580773088 1 0
0 0 0 23 3205580775392 1 0
-2.5333571 -66.34765 0 17 3205580773088 1 0
-0.41387662 -10.798079 -1.6811634 22 3205580775392 1 0
-0.9803954 -11.198466 -1.4308715 10 3205580777696 1 0
0.75959754 -72.93881 0.42394423 66 3205580777696 1 0
-5.531452 -63.07686 -0.36801037 13 3205580780000 1 0
-0.6444512 -16.68696 -1.798802 2 3205580780000 1 0
-2.7847714 -20.276686 -1.9105582 3 3205580782304 1 0
-2.5560796 -65.936615 1.5354604 34 3205580782304 1 0
-11.109257 -80.80236 0.9495399 85 3205580784608 1 0
-0.6317665 -16.236036 -1.1361934 5 3205580784608 1 1
-2.0233998 -22.958338 -1.8814721 20 3205580786912 1 0
0.71667534 -72.88961 2.1213982 94 3205580786912 1 0
-6.143125 -69.58672 1.2193648 64 3205580789216 1 0
0.15578683 -16.08225 -1.0307397 6 3205580789216 1 1
-4.658559 -33.774464 -1.9855639 9 3205580791520 1 0
-2.7574923 -70.07894 4.0843825 28 3205580791520 1 0
-6.164133 -69.59358 2.846416 87 3205580793824 1 0
-2.8148746 -31.727665 -1.6693077 39 3205580796128 1 0
-0.64586604 -16.353504 -0.76236594 3 3205580793824 1 1
0 0 0 1 3205580796128 1 0
0 0 0 8 3205580798432 1 0
0.15923613 -17.488766 -0.7125402 1 3205580798432 1 1
-5.3058515 -38.30268 -1.3503313 21 3205580800736 1 0
0 0 0 29 3205580803040 1 0
0 0 0 9 3205580800736 1 0
0 0 0 9 3205580803040 1 0
-0.3361472 -3.7151866 -1.7394967 2 3205580823776 1 0
0.23900792 -31.846252 -0.5558941 9 3205580823776 1 0
-0.2581968 -6.2154856 -1.7414569 6 3205580826080 1 0
-0.8053828 -8.871109 -1.7815294 5 3205580828384 1 0
-2.8727646 -31.696608 -0.9262426 5 3205580826080 1 0
-2.758738 -66.16651 0 17 3205580828384 1 0
0 0 0 28 3205580830688 1 0
-0.45213246 -10.804456 -1.6823932 21 3205580830688 1 0
-1.019805 -11.194946 -1.4308715 10 3205580832992 1 0
0.5002751 -72.56505 0.42175895 65 3205580832992 1 0
-5.9498067 -65.204 -0.38054085 15 3205580835296 1 0
-0.70330226 -16.684582 -1.798802 2 3205580835296 1 0
-2.8569734 -20.27066 -1.91093 3 3205580837600 1 0
-2.965904 -70.10629 1.6327933 20 3205580837600 1 0
-11.393118 -80.746666 0.94935364 57 3205580839904 1 0
-0.6906175 -16.26559 -1.1384257 2 3205580839904 1 1
-2.107047 -22.974833 -1.8834249 20 3205580842208 1 0
0.4559632 -72.56784 2.1119728 62 3205580842208 1 0
-6.3887143 -69.544525 1.2190157 64 3205580844512 1 0
0.09864469 -16.090685 -1.0312513 6 3205580844512 1 1
-3.001713 -69.941 4.0769405 28 3205580846816 1 0
-4.7811193 -33.773464 -1.9864941 9 3205580846816 1 0
-6.4085526 -69.52735 2.8446248 58 3205580849120 1 0
-2.9331496 -31.769098 -1.6720291 39 3205580851424 1 0
-0.7052861 -16.375046 -0.7634827 3 3205580849120 1 1
0 0 0 1 3205580851424 1 0
0 0 0 8 3205580853728 1 0
0.09708607 -17.58914 -0.71661097 1 3205580853728 1 1
-5.452985 -38.350655 -1.3527045 21 3205580856032 1 0
0 0 0 9 3205580856032 1 0
0 0 0 29 3205580858336 1 0
0 0 0 3 3205580858336 1 0
-0.34976178 -3.7139297 -1.7394967 2 3205580879072 1 0
0 0 0 72 3205580879072 1 0
0 0 0 28 3205580881376 1 0
-0.28088558 -6.214502 -1.7414569 6 3205580881376 1 0
-0.8383713 -8.875932 -1.7830985 4 3205580883680 1 0
-3.0013003 -66.2 0 17 3205580883680 1 0
-5.7661476 -39.99575 -0.47043946 30 3205580885984 1 0
-0.4916175 -10.810644 -1.6836231 24 3205580885984 1 0
0.23774035 -72.326385 0.42036408 64 3205580888288 1 0
-1.0601786 -11.1911955 -1.4308715 11 3205580888288 1 0
-6.571999 -69.271774 -0.4044162 19 3205580890592 1 0
-0.7637818 -16.693867 -1.8000872 2 3205580890592 1 0
-2.9340413 -20.291842 -1.9139043 3 3205580892896 1 0
-3.076296 -67.035286 1.561515 36 3205580892896 1 0
-0.748757 -16.267012 -1.1387047 2 3205580895200 1 1
-11.691089 -80.77681 0.9501918 57 3205580895200 1 0
-2.1908367 -22.991024 -1.8853775 20 3205580897504 1 0
0.1976642 -72.28912 2.1038275 30 3205580897504 1 0
-6.632565 -69.50161 1.2186667 64 3205580899808 1 0
0.041795738 -16.098917 -1.0317631 6 3205580899808 1 1
-4.6768208 -32.21917 -1.8960297 18 3205580902112 1 0
-3.2469423 -69.91006 4.075778 28 3205580902112 1 0
-6.6514583 -69.496506 2.844299 87 3205580904416 1 0
-0.7626795 -16.372473 -0.7634827 3 3205580904416 1 1
-3.0486 -31.806383 -1.6745412 39 3205580906720 1 0
0 0 0 1 3205580906720 1 0
0.03573957 -17.489454 -0.7125402 1 3205580909024 1 1
-5.5966578 -38.406708 -1.3553568 21 3205580911328 1 0
0 0 0 8 3205580909024 1 0
0 0 0 9 3205580911328 1 0
0 0 0 29 3205580913632 1 0
-2.0783193 -44.091095 -1.0271142 22 3205580913632 1 0
-0.3617238 -3.7091413 -1.7378063 3 3205580934368 1 0
0 0 0 7 3205580934368 1 0
-6.1396875 -62.86214 -1.8381727 44 3205580936672 1 0
-0.30191067 -6.2212286 -1.7436135 6 3205580936672 1 0
-0.86678386 -8.861379 -1.780745 5 3205580938976 1 0
-3.1931865 -65.60233 0 16 3205580938976 1 0
-4.744571 -32.149586 -0.3783352 6 3205580941280 1 0
-0.5280855 -10.816838 -1.6848528 26 3205580941280 1 0
-1.097997 -11.191535 -1.4313766 10 3205580943584 1 0
-0.004184298 -71.92278 0.41801608 31 3205580943584 1 0
-6.7858114 -69.062256 -0.40332356 19 3205580945888 1 0
-0.8199384 -16.695185 -1.8005155 2 3205580945888 1 0
-3.001034 -20.27399 -1.9131607 3 3205580948192 1 0
-3.2759244 -66.50534 1.5494182 35 3205580948192 1 0
-11.969449 -80.78051 0.950704 57 3205580950496 1 0
-0.8047055 -16.288311 -1.1403788 3 3205580950496 1 1
-2.269969 -22.99937 -1.8866794 23 3205580952800 1 0
-0.046039276 -71.94153 2.093704 30 3205580952800 1 0
-0.012659777 -16.118925 -1.0330422 6 3205580955104 1 1
-6.866371 -69.46684 1.2184572 64 3205580955104 1 0
-4.76426 -32.05699 -1.8874252 13 3205580957408 1 0
-3.482645 -69.874725 4.074383 28 3205580957408 1 0
-0.8190758 -16.385752 -0.76422715 3 3205580959712 1 1
-6.8854666 -69.45363 2.8434849 87 3205580959712 1 0
-3.1595943 -31.823648 -1.6760067 39 3205580962016 1 0
0 0 0 1 3205580962016 1 0
0 0 0 8 3205580964320 1 0
-4.7981234 -32.15618 -1.1353505 15 3205580966624 1 0
-0.022326574 -16.330437 -0.6653198 1 3205580964320 1 1
0 0 0 9 3205580966624 1 0
0 0 0 29 3205580968928 1 0
-3.3177361 -65.606384 -1.5285745 17 3205580968928 1 0
-0.37539786 -3.7150698 -1.7411872 1 3205580989664 1 0
-0.2109611 -71.10085 -1.2410755 21 3205580989664 1 0
-6.3719616 -62.96762 -1.8418963 22 3205580991968 1 0
-0.32342485 -6.21629 -1.7425351 5 3205580991968 1 0
-0.8985015 -8.866104 -1.782314 3 3205580994272 1 0
-3.4765582 -66.63337 0 17 3205580994272 1 0
-4.8579607 -32.14074 -0.37842834 26 3205580996576 1 0
-0.5664596 -10.826771 -1.6866976 24 3205580996576 1 0
-1.1378585 -11.19553 -1.4323868 10 3205580998880 1 0
-0.24977654 -70.38237 0.40906572 58 3205580998880 1 0
-7.024007 -69.01029 -0.40316084 19 3205581001184 1 0
-0.87841946 -16.696192 -1.800944 2 3205581001184 1 0
-3.0705912 -20.255516 -1.9124172 3 3205581003488 1 0
-3.5451314 -67.196335 1.5657954 36 3205581003488 1 0
-12.254952 -80.76196 0.95098335 57 3205581005792 1 0
-0.86303306 -16.313295 -1.142332 3 3205581005792 1 1
-2.3538866 -23.027 -1.8896085 23 3205581008096 1 0
-0.28221533 -68.32249 1.9883962 23 3205581008096 1 0
-7.107592 -69.43051 1.2182478 64 3205581010400 1 0
-0.06895939 -16.126766 -1.0335538 6 3205581010400 1 1
-4.889348 -32.127018 -1.8925414 13 3205581012704 1 0
-3.725894 -69.85018 4.0736847 28 3205581012704 1 0
-7.1262307 -69.41327 2.8428338 58 3205581015008 1 0
-0.87733483 -16.402742 -0.7651578 3 3205581015008 1 1
-3.2739286 -31.844213 -1.6776814 39 3205581017312 1 0
0 0 0 1 3205581017312 1 0
0 0 0 8 3205581019616 1 0
-0.07888375 -16.238337 -0.6615747 1 3205581019616 1 1
-5.884801 -38.517292 -1.3606616 21 3205581021920 1 0
0 0 0 9 3205581021920 1 0
0 0 0 29 3205581024224 1 0
-3.5780315 -66.1734 -1.542067 17 3205581024224 1 0
-0.38760948 -3.7065256 -1.7378063 2 3205581044960 1 0
-0.4578826 -70.90372 -1.2376548 20 3205581044960 1 0
-4.3450637 -41.491444 -1.2141225 26 3205581047264 1 0
-0.3455489 -6.2228155 -1.7446917 6 3205581047264 1 0
-0.9298536 -8.866815 -1.7830985 5 3205581049568 1 0
-3.7091308 -66.62083 0 17 3205581049568 1 0
-9.495033 -61.369606 -0.72295785 9 3205581051872 1 0
-0.6049095 -10.836566 -1.6885424 23 3205581051872 1 0
-1.1777612 -11.199382 -1.4333969 11 3205581054176 1 0
-0.49556795 -70.397064 0.40915874 29 3205581054176 1 0
-7.265274 -68.98933 -0.4031841 19 3205581056480 1 0
-0.9364719 -16.689054 -1.8005155 2 3205581056480 1 0
-3.1559336 -20.339128 -1.9213398 3 3205581058784 1 0
-3.9380255 -69.99834 1.6313975 20 3205581058784 1 0
-12.5417 -80.75031 0.9513559 57 3205581061088 1 0
-0.92176956 -16.342056 -1.1445643 2 3205581061088 1 1
-0.5084539 -66.71381 1.9416186 21 3205581063392 1 0
-2.4359286 -23.034502 -1.8909104 23 3205581063392 1 0
-7.3473797 -69.38142 1.2178289 64 3205581065696 1 0
-5.2835555 -33.92081 -1.9992846 9 3205581068000 1 0
-3.968561 -69.81681 4.072522 28 3205581068000 1 0
-7.3663745 -69.3681 2.8420196 58 3205581070304 1 0
-0.93458575 -16.39958 -0.7651578 1 3205581070304 1 1
-3.389712 -31.876284 -1.6799842 39 3205581072608 1 0
-0.1253139 -16.13441 -1.0340655 5 3205581065696 1 1
0 0 0 1 3205581072608 1 0
0 0 0 8 3205581074912 1 0
-0.13593267 -16.281925 -0.66336584 1 3205581074912 1 1
-6.024156 -38.528114 -1.3617784 22 3205581077216 1 0
0 0 0 9 3205581077216 1 0
0 0 0 29 3205581079520 1 0
-2.5188758 -43.75169 -1.019763 7 3205581079520 1 0
-0.40093493 -3.7087543 -1.7394967 1 3205581100256 1 0
-0.70227665 -70.58975 -1.2322097 20 3205581100256 1 0
-4.494905 -41.51972 -1.2154025 26 3205581102560 1 0
-0.3673137 -6.2215686 -1.7446917 6 3205581102560 1 0
-0.96177334 -8.8713 -1.7846674 3 3205581104864 1 0
-3.9426272 -66.607414 0 17 3205581104864 1 0
-9.71241 -61.34773 -0.7230975 19 3205581107168 1 0
-0.6436713 -10.846211 -1.690387 22 3205581107168 1 0
-1.2176018 -11.199112 -1.4339019 10 3205581109472 1 0
-0.7431753 -70.37889 0.40906572 29 3205581109472 1 0
-7.5371294 -69.22572 -0.40471843 38 3205581111776 1 0
-0.9967494 -16.709467 -1.8030859 2 3205581111776 1 0
-3.2284226 -20.33178 -1.9217116 3 3205581114080 1 0
-12.833255 -80.74094 0.95177495 57 3205581116384 1 0
-4.1846786 -69.97201 1.6311183 20 3205581114080 1 0
-0.98155063 -16.370554 -1.1467965 2 3205581116384 1 1
-2.5211256 -23.057417 -1.893514 23 3205581118688 1 0
-0.7462338 -66.80354 1.9442949 21 3205581118688 1 0
-0.1828695 -16.14983 -1.0350888 5 3205581120992 1 1
-5.4282827 -34.05162 -2.0081217 9 3205581123296 1 0
-7.5927544 -69.342926 1.2176195 64 3205581120992 1 0
-4.2103353 -69.68664 4.065778 28 3205581123296 1 0
-7.613144 -69.33341 2.8416939 58 3205581125600 1 0
-0.99458635 -16.420069 -0.7662746 1 3205581125600 1 1
0 0 0 1 3205581127904 1 0
-3.5089803 -31.9116 -1.6824963 40 3205581127904 1 0
0 0 0 8 3205581130208 1 0
-0.19473483 -16.3173 -0.6648313 1 3205581130208 1 1
-6.1783214 -38.604908 -1.3652683 22 3205581132512 1 0
0 0 0 9 3205581132512 1 0
0 0 0 29 3205581134816 1 0
-1.925148 -31.464626 -0.7335333 4 3205581134816 1 0
-0.4145255 -3.70726 -1.7394967 1 3205581155552 1 0
-0.9563141 -70.24279 -1.2262061 20 3205581155552 1 0
-0.38963223 -6.212492 -1.7425351 6 3205581157856 1 0
-4.622582 -41.284424 -1.2090026 8 3205581157856 1 0
-0.9934077 -8.859919 -1.7830985 5 3205581160160 1 0
