# .PCD v.7 - Point Cloud Data file format
VERSION .7
FIELDS x y z rgb timestamp_ns device_id active
SIZE 4 4 4 4 8 1 1
TYPE F F F F F U U
COUNT 1 1 1 1 1 1 1
WIDTH 947
HEIGHT 1
VIEWPOINT 0 0 0 1 0 0 0
POINTS 947               
DATA ascii
-20.03839 32.78953 1.1183565 4 3205822264616 1 0
-9.518258 19.670841 0.3814398 29 3205822266920 1 0
-9.418765 15.417554 -1.1578873 51 3205822266920 1 0
-6.075734 14.304854 -0.9051083 6 3205822269224 1 0
-10.18105 18.663677 1.2381285 42 3205822269224 1 0
-9.314445 19.264635 0.87178713 27 3205822271528 1 0
-12.606163 23.117739 -1.2265605 25 3205822271528 1 0
-8.411269 17.403421 -1.0130148 26 3205822273832 1 0
-10.447249 19.16559 2.6801505 36 3205822273832 1 0
-9.446682 19.553373 1.7727691 8 3205822276136 1 0
-6.0626483 14.298313 -0.5423382 4 3205822278440 1 0
-11.104762 18.202341 -0.86869335 42 3205822276136 1 0
-9.337061 17.141394 5.230215 7 3205822278440 1 0
-10.071228 20.862368 4.223778 39 3205822280744 1 0
-1.7931321 3.7275178 -1.9288298 3 3205822301480 1 0
0 0 0 88 3205822301480 1 0
-9.785413 17.971031 -0.47614995 22 3205822280744 1 0
-12.179495 25.327858 -0.8179095 22 3205822303784 1 0
-3.5249972 6.4971943 -2.0692606 5 3205822303784 1 0
-5.0282445 10.460377 -2.3212442 1 3205822306088 1 0
-10.227234 18.857147 0 40 3205822306088 1 0
0 0 0 12 3205822308392 1 0
-7.8009214 14.388463 -2.5463414 8 3205822308392 1 0
-7.0079174 14.589604 -2.0601923 4 3205822310696 1 0
-10.618032 17.493385 0.118935004 13 3205822310696 1 0
-8.710453 18.14083 -0.11695895 31 3205822313000 1 0
-8.614315 15.89977 -1.9478811 38 3205822313000 1 0
-6.0120654 14.274234 -1.445838 7 3205822315304 1 0
-10.226829 18.882603 0.49969226 24 3205822315304 1 0
-8.818881 16.288656 -1.2952383 1 3205822317608 1 0
-8.092102 19.220606 0.24278644 21 3205822317608 1 0
-7.068714 14.738138 -1.3343774 1 3205822319912 1 0
-20.021545 33.029137 1.1240582 4 3205822319912 1 0
-9.003028 18.77815 0.36349872 32 3205822322216 1 0
-9.336311 15.406979 -1.1545615 52 3205822322216 1 0
-6.004183 14.278735 -0.90208507 6 3205822324520 1 0
-10.15193 18.77038 1.2427797 9 3205822324520 1 0
-9.297121 19.406036 0.87667197 19 3205822326824 1 0
-12.5079975 23.134666 -1.2250714 68 3205822326824 1 0
-8.323067 17.379364 -1.0098746 23 3205822329128 1 0
-10.659878 19.723259 2.7527847 22 3205822329128 1 0
-9.132356 19.076359 1.7265542 27 3205822331432 1 0
-10.985895 18.152975 -0.8644598 42 3205822331432 1 0
-5.9838066 14.253479 -0.53982544 4 3205822333736 1 0
-9.44484 17.487316 5.3254604 20 3205822333736 1 0
-10.000372 20.90515 4.225213 27 3205822336040 1 0
-9.801237 18.153505 -0.48005816 7 3205822336040 1 0
-10.813497 17.932814 -0.3655232 30 3205822356776 1 0
-1.7832298 3.740299 -1.9322107 2 3205822356776 1 0
-12.180644 25.557816 -0.8239603 4 3205822359080 1 0
-3.5005186 6.5060415 -2.0681822 6 3205822359080 1 0
-4.996914 10.488415 -2.3235977 1 3205822361384 1 0
-10.171097 18.910198 0 38 3205822361384 1 0
-10.621414 25.433378 -0.3208748 34 3205822363688 1 0
-7.7041693 14.328408 -2.5309687 8 3205822363688 1 0
-6.9351993 14.567201 -2.0536263 3 3205822365992 1 0
-11.05268 18.352398 0.12451444 5 3205822365992 1 0
-9.283727 19.507164 -0.12556058 42 3205822368296 1 0
-8.602637 16.010006 -1.957734 57 3205822368296 1 0
-5.944427 14.250765 -1.4413766 6 3205822370600 1 0
-10.08031 18.76626 0.495691 24 3205822370600 1 0
-8.15986 19.569502 0.24683753 28 3205822372904 1 0
-8.753362 16.301317 -1.293843 1 3205822372904 1 0
-6.930786 14.578686 -1.3177791 1 3205822375208 1 0
-20.027586 33.296387 1.1308073 4 3205822375208 1 0
-8.936939 18.805265 0.36342892 40 3205822377512 1 0
-9.27937 15.432025 -1.1540499 12 3205822377512 1 0
-5.939991 14.262311 -0.8997595 8 3205822379816 1 0
-10.195312 19.005547 1.2560354 9 3205822379816 1 0
-9.272028 19.52428 0.8805799 30 3205822382120 1 0
-12.400696 23.124372 -1.2222795 58 3205822382120 1 0
-7.0218916 14.7914 -0.85810035 6 3205822384424 1 0
-11.763195 21.942863 3.0569706 20 3205822384424 1 0
-9.0538435 19.07845 1.7239505 16 3205822386728 1 0
-10.874798 18.107948 -0.8605519 42 3205822386728 1 0
-5.9155154 14.225691 -0.53801066 6 3205822389032 1 0
-9.540612 17.808712 5.4134593 12 3205822389032 1 0
-10.494476 22.129969 4.465567 9 3205822391336 1 0
-9.758674 18.221798 -0.48098868 61 3205822391336 1 0
-1.766169 3.7363594 -1.9271393 3 3205822412072 1 0
-10.066318 21.303478 -0.68572205 6 3205822414376 1 0
-3.478877 6.517639 -2.0681822 4 3205822414376 1 0
-10.809423 18.061232 -0.36740807 30 3205822412072 1 0
-4.965303 10.512094 -2.3251667 1 3205822416680 1 0
-10.102407 18.933382 0 36 3205822416680 1 0
-10.544105 25.48717 -0.32110763 18 3205822418984 1 0
-6.8644123 14.54367 -2.0470605 3 3205822421288 1 0
-11.003538 18.40987 0.12465393 28 3205822421288 1 0
-9.216571 19.534561 -0.12553734 42 3205822423592 1 0
-8.567622 16.073853 -1.9620179 50 3205822423592 1 0
-5.8797846 14.230166 -1.4372871 6 3205822425896 1 0
-7.6339774 14.312196 -2.5235898 8 3205822418984 1 0
-9.981474 18.732967 0.49392298 37 3205822425896 1 0
-7.990095 19.34548 0.24367115 28 3205822428200 1 0
-8.74157 16.4117 -1.3002607 4 3205822428200 1 0
-19.990944 33.490807 1.1351126 9 3205822430504 1 0
-6.861159 14.558714 -1.3138735 1 3205822430504 1 0
-8.800006 18.679804 0.3604271 32 3205822432808 1 0
0 0 0 4 3205822432808 1 0
-5.877919 14.249135 -0.89766645 6 3205822435112 1 0
-10.68794 20.086994 1.3251046 35 3205822435112 1 0
-9.306099 19.769003 0.8901868 20 3205822437416 1 0
-9.473768 17.811317 -0.93974257 12 3205822437416 1 0
-6.940896 14.7501545 -0.85433215 18 3205822439720 1 0
-10.814282 20.338707 2.8283436 28 3205822439720 1 0
-8.992115 19.116434 1.7246014 19 3205822442024 1 0
-10.808883 18.138067 -0.8602263 38 3205822442024 1 0
-5.8607693 14.231041 -0.5374522 6 3205822444328 1 0
-9.470623 17.824158 5.4082828 30 3205822444328 1 0
-10.428659 22.187153 4.469872 35 3205822446632 1 0
-9.45422 17.799534 -0.4689849 26 3205822446632 1 0
-1.7531159 3.7425017 -1.9271393 4 3205822467368 1 0
-10.823903 18.22953 -0.37006083 29 3205822467368 1 0
-12.724927 27.175613 -0.8732978 5 3205822469672 1 0
-3.4578595 6.5331726 -2.0692606 5 3205822469672 1 0
-10.097712 19.085352 0 42 3205822471976 1 0
-4.9217744 10.5152235 -2.3220286 1 3205822471976 1 0
-9.046128 22.085556 -0.27784938 38 3205822474280 1 0
-7.5688763 14.31097 -2.5186706 8 3205822474280 1 0
-6.848481 14.643221 -2.057667 4 3205822476584 1 0
-10.942752 18.455366 0.12470042 8 3205822476584 1 0
-9.069691 19.400265 -0.12446795 25 3205822478888 1 0
-8.548041 16.174294 -1.9705857 46 3205822478888 1 0
-5.8128676 14.21031 -1.4331975 7 3205822481192 1 0
-9.9469595 18.828236 0.4955049 31 3205822481192 1 0
-7.9230456 19.37736 0.24371772 17 3205822483496 1 0
-8.728114 16.527237 -1.3069572 7 3205822483496 1 0
-6.831377 14.629931 -1.3181045 1 3205822485800 1 0
-19.98197 33.747322 1.1413962 4 3205822485800 1 0
-8.430734 18.062275 0.34793118 15 3205822488104 1 0
-9.172086 15.49603 -1.1540499 1 3205822488104 1 0
-5.8074822 14.2219305 -0.89464325 4 3205822490408 1 0
-10.107652 19.160734 1.2616167 25 3205822490408 1 0
-9.666225 20.725746 0.9317082 9 3205822492712 1 0
-12.269114 23.266754 -1.2252575 50 3205822492712 1 0
-6.852632 14.698866 -0.84993595 20 3205822495016 1 0
-10.735889 20.366734 2.8268814 20 3205822495016 1 0
-8.994249 19.300322 1.7382706 22 3205822497320 1 0
-10.770223 18.22143 -0.862343 36 3205822497320 1 0
-5.7945175 14.214986 -0.5360563 6 3205822499624 1 0
-9.3831215 17.813625 5.394824 24 3205822499624 1 0
-9.503218 20.408772 4.104677 11 3205822501928 1 0
-9.377043 17.808681 -0.46833354 35 3205822501928 1 0
-1.7393872 3.748902 -1.9271393 3 3205822522664 1 0
-10.367401 17.607382 -0.3566574 7 3205822522664 1 0
-3.4303598 6.538955 -2.0671039 4 3205822524968 1 0
-4.886654 10.540237 -2.3235977 1 3205822527272 1 0
-15.5879135 33.60944 -1.0782115 7 3205822524968 1 0
-9.974097 19.019358 0 32 3205822527272 1 0
-10.391504 25.636105 -0.32203892 7 3205822529576 1 0
-7.5111804 14.32795 -2.516826 10 3205822529576 1 0
-6.716799 14.498807 -2.0339286 40 3205822531880 1 0
-10.875574 18.495033 0.12470042 4 3205822531880 1 0
-9.022762 19.483864 -0.12479341 36 3205822534184 1 0
-8.529893 16.28271 -1.9800103 42 3205822534184 1 0
-5.7449265 14.19066 -1.429108 7 3205822536488 1 0
-9.900969 18.906647 0.49662152 22 3205822536488 1 0
-7.8529587 19.405869 0.24371772 3 3205822538792 1 0
0 0 0 75 3205822538792 1 0
0 0 0 33 3205822541096 1 0
-19.965395 33.998463 1.147447 5 3205822541096 1 0
-8.464692 18.306683 0.35204995 26 3205822543400 1 0
-9.17485 15.628778 -1.1614689 1 3205822543400 1 0
-5.7413898 14.205679 -0.8923177 4 3205822545704 1 0
-9.99064 19.104918 1.2555703 18 3205822545704 1 0
-9.638795 20.861856 0.93626744 3 3205822548008 1 0
-9.18873 17.577665 -0.923922 50 3205822548008 1 0
-6.7765484 14.67252 -0.8470051 24 3205822550312 1 0
-10.019385 19.173466 2.6562643 7 3205822550312 1 0
-10.739454 18.318384 -0.8651111 32 3205822552616 1 0
-11.363394 24.613317 2.2131138 12 3205822552616 1 0
-5.7348523 14.213301 -0.53521866 6 3205822554920 1 0
-9.312431 17.833248 5.390683 22 3205822554920 1 0
-9.925107 21.514404 4.3199196 15 3205822557224 1 0
-9.428387 18.061705 -0.4741028 28 3205822557224 1 0
0 0 0 88 3205822577960 1 0
-1.7278048 3.7582445 -1.9288298 4 3205822577960 1 0
-15.554226 33.84519 -1.0840297 7 3205822580264 1 0
-3.4093387 6.554282 -2.0681822 5 3205822580264 1 0
-4.8532605 10.564289 -2.3251667 1 3205822582568 1 0
-9.8396435 18.922606 0 28 3205822582568 1 0
-6.864371 17.104765 -0.21456845 19 3205822584872 1 0
-6.653326 14.493122 -2.029888 36 3205822587176 1 0
-7.432266 14.297808 -2.5069873 10 3205822584872 1 0
-10.85583 18.60858 0.12521186 2 3205822587176 1 0
-8.930381 19.460384 -0.12444469 25 3205822589480 1 0
-8.515762 16.39325 -1.9898632 39 3205822589480 1 0
-5.688568 14.1918955 -1.4272491 6 3205822591784 1 0
-9.741749 18.759668 0.49187583 20 3205822591784 1 0
-6.854916 17.108557 0.21456845 15 3205822594088 1 0
-9.107697 17.5446 -1.3822943 48 3205822594088 1 0
-6.640173 14.4855795 -1.3008552 30 3205822596392 1 0
-19.951233 34.242985 1.1533815 5 3205822596392 1 0
-8.470246 18.484638 0.35491213 16 3205822598696 1 0
-9.113229 15.646315 -1.1604456 1 3205822598696 1 0
-5.6749983 14.180731 -0.889527 4 3205822601000 1 0
-10.138532 19.550163 1.2825468 31 3205822601000 1 0
0 0 0 99 3205822603304 1 0
-9.091946 17.537956 -0.9201995 52 3205822603304 1 0
-6.7016354 14.641016 -0.843865 29 3205822605608 1 0
-9.932151 19.165155 2.6504145 25 3205822605608 1 0
-12.4235525 21.356874 -1.0066097 25 3205822607912 1 0
-5.6569886 14.158409 -0.5324267 6 3205822610216 1 0
-11.216704 24.514008 2.2007463 12 3205822607912 1 0
-9.323017 18.00194 5.432094 10 3205822610216 1 0
-10.222106 22.35665 4.482069 22 3205822612520 1 0
-9.433442 18.221327 -0.4774527 26 3205822612520 1 0
-1.7108223 3.7540572 -1.9237583 3 3205822633256 1 0
-10.40376 17.947428 -0.36210254 38 3205822633256 1 0
0 0 0 15 3205822635560 1 0
-3.3875375 6.5655766 -2.0681822 4 3205822635560 1 0
-4.8082943 10.558977 -2.3204598 1 3205822637864 1 0
-9.783898 18.969494 0 38 3205822637864 1 0
0 0 0 28 3205822640168 1 0
-7.371821 14.297945 -2.502683 10 3205822640168 1 0
0 0 0 31 3205822642472 1 0
-6.5801554 14.4611225 -2.022312 36 3205822642472 1 0
-8.807127 19.36278 -0.12363103 44 3205822644776 1 0
0 0 0 4 3205822644776 1 0
-5.617345 14.1517 -1.4213006 7 3205822647080 1 0
-9.757399 18.945162 0.4958771 24 3205822647080 1 0
-8.71638 21.968374 0.27514863 23 3205822649384 1 0
-9.0083885 17.497118 -1.3761557 54 3205822649384 1 0
-6.5665207 14.453458 -1.2959733 13 3205822651688 1 0
-8.584642 18.902811 0.36238176 42 3205822653992 1 0
-19.925627 34.465878 1.1586177 5 3205822651688 1 0
-9.070254 15.694323 -1.1617248 1 3205822653992 1 0
-5.615141 14.170182 -0.8876666 6 3205822656296 1 0
-10.061263 19.5631 1.2811514 18 3205822656296 1 0
-9.037432 19.915207 0.8910009 14 3205822658600 1 0
-6.6319656 14.620087 -0.8413528 22 3205822660904 1 0
-8.999448 17.504768 -0.91684926 56 3205822658600 1 0
-9.881386 19.227097 2.6543143 17 3205822660904 1 0
-10.44977 23.0453 2.0656812 7 3205822663208 1 0
-12.392594 21.471813 -1.0100291 12 3205822663208 1 0
-5.596799 14.147923 -0.53130996 6 3205822665512 1 0
-9.132581 17.782803 5.3565187 12 3205822665512 1 0
0 0 0 40 3205822667816 1 0
-9.402023 18.31401 -0.47903457 24 3205822667816 1 0
-1.6991997 3.7633102 -1.9254488 3 3205822688552 1 0
-10.400858 18.087646 -0.3641968 40 3205822688552 1 0
-12.304979 27.263079 -0.87050515 73 3205822690856 1 0
-3.3681073 6.58422 -2.0703387 5 3205822690856 1 0
-4.7826986 10.600724 -2.325951 1 3205822693160 1 0
-9.712159 18.992846 0 38 3205822693160 1 0
-7.321867 14.32359 -2.502683 10 3205822695464 1 0
-6.5116982 14.444212 -2.016756 31 3205822697768 1 0
-10.889863 27.68094 -0.34629893 34 3205822695464 1 0
-10.477392 18.245298 0.12228266 28 3205822697768 1 0
-8.734554 19.382463 -0.123561285 31 3205822700072 1 0
-7.5404305 14.761755 -1.785522 30 3205822700072 1 0
-5.5548043 14.13786 -1.4179547 7 3205822702376 1 0
-9.620284 18.840208 0.49224806 37 3205822702376 1 0
-8.635257 21.987497 0.27500895 14 3205822704680 1 0
-8.914602 17.464483 -1.3711332 54 3205822704680 1 0
-6.486574 14.410853 -1.2901151 7 3205822706984 1 0
0 0 0 99 3205822706984 1 0
-8.576043 19.060314 0.3648251 28 3205822709288 1 0
-9.015416 15.725888 -1.1617248 1 3205822709288 1 0
-5.548146 14.145086 -0.8848759 4 3205822711592 1 0
-9.956635 19.526953 1.2765003 18 3205822711592 1 0
-9.000637 20.019537 0.89425755 25 3205822713896 1 0
-8.907443 17.475557 -0.91368514 54 3205822713896 1 0
-6.477732 14.413609 -0.82816416 6 3205822716200 1 0
-9.725891 19.088137 2.6304278 17 3205822716200 1 0
0 0 0 76 3205822718504 1 0
-10.379482 18.129711 -0.85110784 3 3205822718504 1 0
-5.5342617 14.133872 -0.53005356 6 3205822720808 1 0
-9.077464 17.828346 5.36066 18 3205822720808 1 0
-10.502361 23.396112 4.6757874 10 3205822723112 1 0
-9.330782 18.332462 -0.47866237 22 3205822723112 1 0
-10.440697 18.30449 -0.3678269 22 3205822744296 1 0
-1.6875333 3.7725277 -1.9271393 3 3205822744296 1 0
-12.185257 27.251116 -0.8687597 73 3205822746600 1 0
-3.3398767 6.5856304 -2.0671039 5 3205822746600 1 0
-4.745666 10.617354 -2.325951 1 3205822748904 1 0
-9.633142 19.001657 0 40 3205822748904 1 0
-10.767049 27.651695 -0.34546077 37 3205822751208 1 0
-7.26825 14.3420105 -2.5014532 11 3205822751208 1 0
-6.500074 14.553807 -2.0288777 22 3205822753512 1 0
-10.518568 18.465967 0.12351479 26 3205822753512 1 0
-8.750007 19.59911 -0.12474692 31 3205822755816 1 0
-7.4583116 14.72767 -1.7782394 26 3205822755816 1 0
-5.4909854 14.120045 -1.4142369 7 3205822758120 1 0
-8.568598 22.043602 0.2753349 16 3205822760424 1 0
-9.574328 18.91292 0.49327162 18 3205822758120 1 0
-8.822957 17.434969 -1.3663898 30 3205822760424 1 0
-6.4167476 14.389714 -1.2862096 7 3205822762728 1 0
-10.669618 18.756508 0.62800646 30 3205822762728 1 0
-9.012601 20.218885 0.3863963 16 3205822765032 1 0
-9.039397 15.896062 -1.171958 1 3205822765032 1 0
-5.4842854 14.127141 -0.88255036 6 3205822767336 1 0
-9.442931 21.200872 0.9455487 21 3205822769640 1 0
-8.806743 17.428087 -0.9095904 58 3205822769640 1 0
-6.409508 14.395991 -0.8258614 4 3205822771944 1 0
-9.890215 19.565153 1.2767329 21 3205822767336 1 0
-9.85253 19.504692 2.6830754 31 3205822771944 1 0
0 0 0 8 3205822774248 1 0
-10.272715 18.089373 -0.8475256 3 3205822774248 1 0
-5.470446 14.115829 -0.52865756 6 3205822776552 1 0
-9.098747 18.025484 5.410353 26 3205822776552 1 0
0 0 0 13 3205822778856 1 0
-1.6728857 3.775081 -1.9254488 4 3205822799592 1 0
-9.268535 18.36849 -0.4787554 5 3205822778856 1 0
-10.418096 18.413921 -0.3692929 42 3205822799592 1 0
-12.096536 27.308105 -0.86922514 39 3205822801896 1 0
-3.3168683 6.5972486 -2.0671039 4 3205822801896 1 0
-4.7022233 10.619509 -2.3228133 2 3205822804200 1 0
-8.923702 17.755672 0 27 3205822804200 1 0
-10.663269 27.67045 -0.34522796 37 3205822806504 1 0
-7.209271 14.349635 -2.4983785 11 3205822806504 1 0
-6.4797363 14.645353 -2.0384743 19 3205822808808 1 0
-10.513075 18.607048 0.12421222 20 3205822808808 1 0
-8.694483 19.658798 -0.1249329 27 3205822811112 1 0
-7.3800917 14.700301 -1.7718135 26 3205822811112 1 0
-8.909165 17.752481 0.46219206 18 3205822813416 1 0
-8.501652 22.09951 0.27566084 23 3205822815720 1 0
-7.3968325 14.744342 -1.153493 8 3205822815720 1 0
-6.3423147 14.357324 -1.2813277 8 3205822818024 1 0
-5.428789 14.105674 -1.4108909 6 3205822813416 1 0
-10.647306 18.870247 0.6305664 32 3205822818024 1 0
-8.954893 20.279491 0.38695475 38 3205822820328 1 0
-9.001504 15.958811 -1.1742604 1 3205822820328 1 0
-5.419185 14.105195 -0.87999225 4 3205822822632 1 0
-9.789657 19.535295 1.2725469 31 3205822822632 1 0
-9.417271 21.343401 0.9504336 28 3205822824936 1 0
-8.729747 17.42657 -0.9079153 64 3205822824936 1 0
-6.335038 14.363455 -0.82272124 6 3205822827240 1 0
-9.6955 19.361467 2.6587017 27 3205822827240 1 0
-10.30437 23.37234 2.0852087 11 3205822829544 1 0
-5.4154134 14.119909 -0.5280992 6 3205822831848 1 0
-9.001191 17.98803 5.389648 24 3205822831848 1 0
-9.318696 21.153305 4.214451 14 3205822834152 1 0
-8.882342 17.756975 -0.46200597 21 3205822834152 1 0
-10.15851 18.034584 -0.843292 5 3205822829544 1 0
-1.659698 3.7808974 -1.9254488 2 3205822854888 1 0
-10.328312 18.404835 -0.3683854 30 3205822854888 1 0
0 0 0 18 3205822857192 1 0
-3.2955375 6.612234 -2.0681822 6 3205822857192 1 0
-4.6667013 10.63945 -2.3235977 2 3205822859496 1 0
-9.478847 19.025482 0 38 3205822859496 1 0
-10.58942 27.7673 -0.34597299 25 3205822861800 1 0
-7.1432796 14.342871 -2.4928443 10 3205822861800 1 0
-6.4174256 14.642443 -2.0349388 16 3205822864104 1 0
-8.4010935 19.176104 -0.121678226 10 3205822866408 1 0
-10.354198 18.476143 0.12309633 31 3205822864104 1 0
-7.302154 14.672566 -1.7653878 25 3205822866408 1 0
-5.362508 14.079875 -1.4064296 5 3205822868712 1 0
-9.525775 19.147575 0.49764508 30 3205822868712 1 0
-8.4358425 22.158957 0.27603337 42 3205822871016 1 0
-7.3364363 14.752208 -1.152098 2 3205822871016 1 0
-6.271383 14.331895 -1.2770967 8 3205822873320 1 0
-10.575514 18.896832 0.6302173 13 3205822873320 1 0
-9.547589 21.827602 0.41585594 13 3205822875624 1 0
-5.358563 14.094166 -0.87813175 6 3205822877928 1 0
-9.031497 16.143417 -1.185517 1 3205822875624 1 0
-9.297894 21.273603 0.9458744 28 3205822880232 1 0
-9.835106 19.798231 1.2874305 21 3205822877928 1 0
-8.688412 17.496302 -0.90996265 66 3205822880232 1 0
-6.264072 14.337894 -0.81999975 6 3205822882536 1 0
-9.640215 19.420086 2.662114 27 3205822882536 1 0
-8.625571 19.750982 1.7594254 8 3205822884840 1 0
-5.34056 14.071452 -0.5255864 6 3205822887144 1 0
-10.038965 17.96875 -0.83857 7 3205822884840 1 0
-8.970968 18.085104 5.409318 22 3205822887144 1 0
-9.246374 21.189312 4.2151685 17 3205822889448 1 0
-8.836293 17.820116 -0.46284345 26 3205822889448 1 0
-1.6479356 3.7899923 -1.9271393 3 3205822910184 1 0
-9.9022255 17.790787 -0.3554008 20 3205822910184 1 0
-15.402624 35.437 -1.1245236 8 3205822912488 1 0
-3.2724848 6.6236734 -2.0681822 5 3205822912488 1 0
-9.175302 18.577736 0 24 3205822914792 1 0
-4.6312523 10.659205 -2.324382 2 3205822914792 1 0
-10.498685 27.818832 -0.34615925 31 3205822917096 1 0
-7.0847344 14.349843 -2.4897697 9 3205822917096 1 0
-6.341418 14.606334 -2.0268576 19 3205822919400 1 0
-10.294066 18.518866 0.12314282 31 3205822919400 1 0
0 0 0 67 3205822921704 1 0
-7.2303114 14.654904 -1.7602471 25 3205822921704 1 0
-5.304109 14.072189 -1.4038272 9 3205822924008 1 0
-9.4066515 19.072704 0.49485353 33 3205822924008 1 0
-8.345469 22.150414 0.2755677 33 3205822926312 1 0
-7.2768264 14.759461 -1.1507028 1 3205822926312 1 0
-6.2047095 14.3131 -1.2735168 8 3205822928616 1 0
-10.438785 18.803677 0.62591195 21 3205822928616 1 0
0 0 0 72 3205822930920 1 0
-8.980023 16.181238 -1.1860286 1 3205822930920 1 0
-5.297702 14.078762 -0.8760388 6 3205822933224 1 0
-9.705628 19.70635 1.279291 28 3205822933224 1 0
-9.299923 21.47757 0.95352733 26 3205822935528 1 0
-8.660456 17.590359 -0.9133129 60 3205822935528 1 0
-6.2041316 14.333469 -0.8185344 6 3205822937832 1 0
-9.593349 19.491966 2.6674762 25 3205822937832 1 0
-12.543072 22.631018 -1.0541557 6 3205822940136 1 0
-9.35793 21.62792 1.9237816 16 3205822940136 1 0
-5.2801914 14.05579 -0.52433 6 3205822942440 1 0
0 0 0 9 3205822942440 1 0
-9.187161 21.249353 4.220908 12 3205822944744 1 0
0 0 0 107 3205822944744 1 0
-1.636793 3.7987657 -1.9288298 3 3205822965480 1 0
-9.825773 17.792017 -0.3547725 16 3205822965480 1 0
-6.4166293 14.898053 -0.47208118 2 3205822967784 1 0
-3.2538428 6.641431 -2.0703387 5 3205822967784 1 0
-4.591071 10.663763 -2.3220286 1 3205822970088 1 0
-8.951515 18.277699 0 26 3205822970088 1 0
-10.4365635 27.936152 -0.34718367 2 3205822972392 1 0
-7.036796 14.373411 -2.4897697 8 3205822972392 1 0
-6.2721367 14.58008 -2.0202916 18 3205822974696 1 0
-10.259103 18.602234 0.123468295 33 3205822974696 1 0
-8.428385 19.600302 -0.12400299 40 3205822977000 1 0
-7.158421 14.63262 -1.754678 25 3205822977000 1 0
-5.2414865 14.048884 -1.3997377 10 3205822979304 1 0
-9.321437 19.061092 0.4937369 33 3205822979304 1 0
-8.28901 22.227106 0.27617306 11 3205822981608 1 0
-7.190288 14.708597 -1.1448432 1 3205822981608 1 0
-6.1406446 14.297323 -1.2702621 10 3205822983912 1 0
-10.313553 18.72672 0.6221883 31 3205822983912 1 0
-9.250483 21.546633 0.40929383 42 3205822986216 1 0
-8.942581 16.242983 -1.1883311 1 3205822986216 1 0
-5.233237 14.051728 -0.8732481 7 3205822988520 1 0
-9.34267 19.132708 1.239989 36 3205822988520 1 0
-10.050179 20.589197 -1.0672379 24 3205822990824 1 0
0 0 0 29 3205822990824 1 0
-6.1332736 14.303104 -0.81560355 6 3205822993128 1 0
-9.591373 19.656523 2.6855128 23 3205822993128 1 0
-9.285681 21.663376 1.9241071 27 3205822995432 1 0
-12.537056 22.80325 -1.0601804 16 3205822995432 1 0
-5.222368 14.047526 -0.52335286 6 3205822997736 1 0
-8.812099 18.072819 5.387577 14 3205822997736 1 0
-9.101931 21.251759 4.2151685 28 3205823000040 1 0
-10.190034 20.906555 -0.54119366 25 3205823000040 1 0
-1.6206771 3.7977874 -1.9254488 4 3205823020776 1 0
-9.700208 17.710453 -0.3524688 18 3205823020776 1 0
-6.3928246 14.986559 -0.4741757 6 3205823023080 1 0
-3.227275 6.645818 -2.0681822 5 3205823023080 1 0
-4.5492043 10.6689005 -2.3196752 1 3205823025384 1 0
-8.88242 18.298038 0 33 3205823025384 1 0
-18.878077 51.075165 -0.6339268 7 3205823027688 1 0
-6.9762278 14.376552 -2.4860804 8 3205823027688 1 0
-6.197875 14.547128 -2.0127156 11 3205823029992 1 0
-8.36305 19.636963 -0.124049485 46 3205823032296 1 0
-10.209462 18.666006 0.123654276 28 3205823029992 1 0
-7.0812726 14.603841 -1.7482523 22 3205823032296 1 0
-5.1786237 14.029732 -1.3960199 7 3205823034600 1 0
-9.211239 19.003551 0.49141058 31 3205823034600 1 0
-10.509615 28.485006 0.35346985 19 3205823036904 1 0
-7.1406417 14.737198 -1.1451223 1 3205823036904 1 0
-6.0750947 14.281985 -1.2670076 10 3205823039208 1 0
-10.154208 18.590666 0.6164866 22 3205823039208 1 0
-9.125136 21.461016 0.40705994 49 3205823041512 1 0
-8.966173 16.42125 -1.1990759 1 3205823041512 1 0
-5.1689687 14.028693 -0.87069 6 3205823043816 1 0
-9.303662 19.222713 1.2437099 24 3205823043816 1 0
-10.867754 25.580063 1.1323137 12 3205823046120 1 0
-8.434699 17.433775 -0.90214545 12 3205823046120 1 0
-6.0692563 14.291336 -0.81371945 6 3205823048424 1 0
-9.175732 21.614922 1.916947 27 3205823050728 1 0
-9.541716 19.729198 2.690875 26 3205823048424 1 0
-12.564526 23.043375 -1.0692989 43 3205823050728 1 0
-5.1595016 14.0281515 -0.52195686 6 3205823053032 1 0
-8.775859 18.159128 5.4041414 4 3205823053032 1 0
-9.00618 21.232683 4.2051234 20 3205823055336 1 0
-9.219406 19.084007 -0.49317858 50 3205823055336 1 0
-1.6074104 3.8034215 -1.9254488 3 3205823076072 1 0
-6.35292 15.038248 -0.4751066 12 3205823078376 1 0
-3.200716 6.6501017 -2.0660255 6 3205823078376 1 0
-9.640237 17.747719 -0.35253862 30 3205823076072 1 0
-4.5180387 10.699168 -2.3228133 2 3205823080680 1 0
-8.995383 18.696592 0 26 3205823080680 1 0
-6.9208627 14.39013 -2.4842355 9 3205823082984 1 0
-18.38101 50.269245 -0.6231239 7 3205823082984 1 0
-6.1192923 14.502868 -2.0036242 11 3205823085288 1 0
-10.3750105 19.126965 0.12646724 24 3205823085288 1 0
-7.00958 14.585456 -1.7431116 22 3205823087592 1 0
-8.297563 19.673407 -0.124095984 31 3205823087592 1 0
-5.1173244 14.014054 -1.392674 9 3205823089896 1 0
-9.170823 19.089657 0.49280638 33 3205823089896 1 0
-7.071882 14.726063 -1.142332 1 3205823092200 1 0
-11.146549 30.539177 0.3784749 37 3205823092200 1 0
-6.0050845 14.255342 -1.2627766 10 3205823094504 1 0
-10.070209 18.590841 0.61532295 25 3205823094504 1 0
-8.149962 19.354889 0.36657035 20 3205823096808 1 0
-8.840371 16.32608 -1.1898661 1 3205823096808 1 0
-5.1103954 14.020389 -0.86906207 6 3205823099112 1 0
-9.284864 19.355885 1.2502215 15 3205823099112 1 0
-10.767547 25.592056 1.131174 12 3205823101416 1 0
-9.9753 20.802973 -1.0746828 20 3205823101416 1 0
-6.002299 14.271932 -0.8114167 4 3205823103720 1 0
-9.505395 19.830408 2.7001371 28 3205823103720 1 0
-9.07087 21.576992 1.9107633 29 3205823106024 1 0
-5.1036687 14.027293 -0.5212589 6 3205823108328 1 0
-12.499221 23.115217 -1.0706015 60 3205823106024 1 0
-8.031447 16.767931 4.981749 12 3205823108328 1 0
-9.008207 21.445393 4.2409973 12 3205823110632 1 0
-9.511936 19.866287 -0.5125335 38 3205823110632 1 0
-9.627541 17.872808 -0.35435367 16 3205823131368 1 0
-1.5955238 3.8123534 -1.9271393 3 3205823131368 1 0
-6.3266206 15.123037 -0.47708476 14 3205823133672 1 0
-3.1808002 6.668187 -2.0681822 5 3205823133672 1 0
-4.4821773 10.7184925 -2.3235977 2 3205823135976 1 0
-8.671822 18.186298 0 22 3205823135976 1 0
-11.139294 30.797148 -0.38126877 6 3205823138280 1 0
-6.867188 14.407064 -2.4830058 8 3205823138280 1 0
-10.200173 18.962275 0.12514213 34 3205823140584 1 0
-9.136817 21.876217 -0.13778885 39 3205823142888 1 0
-6.939813 14.570339 -1.7383993 21 3205823142888 1 0
-6.07475 14.538785 -2.0056446 9 3205823140584 1 0
-5.053492 13.990627 -1.3885844 7 3205823145192 1 0
-9.128199 19.1721 0.4941091 31 3205823145192 1 0
-10.222211 28.313148 0.35044315 42 3205823147496 1 0
-6.958702 14.620952 -1.132287 1 3205823147496 1 0
-5.9399385 14.239422 -1.2595221 8 3205823149800 1 0
-10.196352 18.98163 0.62707555 22 3205823149800 1 0
-8.056185 19.320467 0.3653836 36 3205823152104 1 0
0 0 0 94 3205823152104 1 0
-5.049234 14.0043335 -0.8669691 6 3205823154408 1 0
-9.2755375 19.510796 1.2581284 54 3205823154408 1 0
-10.690445 25.659 1.1324766 20 3205823156712 1 0
-8.266479 17.394796 -0.89712006 4 3205823156712 1 0
-10.063033 21.183155 2.8795288 24 3205823159016 1 0
-5.9324794 14.244859 -0.8086952 6 3205823159016 1 0
-9.035335 21.704218 1.9192252 20 3205823161320 1 0
-12.395792 23.11644 -1.0686475 40 3205823161320 1 0
-5.0506124 14.033738 -0.5208401 6 3205823163624 1 0
-7.996064 16.84473 4.996243 10 3205823163624 1 0
-11.316614 27.206493 5.372456 9 3205823165928 1 0
0 0 0 3 3205823165928 1 0
-1.5835944 3.8212485 -1.9288298 3 3205823186664 1 0
-9.5387125 17.85692 -0.35337633 15 3205823186664 1 0
-6.284504 15.170887 -0.47789928 6 3205823188968 1 0
-3.1575043 6.6792493 -2.0681822 5 3205823188968 1 0
-4.4477367 10.741321 -2.3251667 2 3205823191272 1 0
-9.295309 19.670301 0 68 3205823191272 1 0
0 0 0 20 3205823193576 1 0
-6.8202324 14.438095 -2.4842355 8 3205823193576 1 0
-5.9526644 14.387573 -1.981906 4 3205823195880 1 0
-10.148981 19.025997 0.12532811 30 3205823195880 1 0
-9.123074 22.059525 -0.138742 49 3205823198184 1 0
-6.8634467 14.540528 -1.7319735 21 3205823198184 1 0
-8.946888 18.961538 0.48787457 22 3205823200488 1 0
-4.9939055 13.978178 -1.3856102 7 3205823200488 1 0
-10.091035 28.258257 0.34932563 34 3205823202792 1 0
-5.8734555 14.219537 -1.255942 8 3205823205096 1 0
-6.89741 14.623499 -1.130613 1 3205823202792 1 0
-10.013487 18.798317 0.6198611 25 3205823205096 1 0
-7.997853 19.370651 0.36580244 24 3205823207400 1 0
-12.358491 23.208729 -1.6851532 68 3205823207400 1 0
-4.9882474 13.988022 -0.8648761 6 3205823209704 1 0
-9.122279 19.362434 1.2465006 27 3205823209704 1 0
-8.166553 17.340405 -0.8928392 10 3205823212008 1 0
-10.609959 25.718328 1.1334535 8 3205823212008 1 0
-5.8690143 14.2322445 -0.8068111 6 3205823214312 1 0
-9.36334 19.8891 2.6991622 18 3205823214312 1 0
-9.723673 18.286285 -0.8437805 22 3205823216616 1 0
-4.970762 13.964663 -0.5176293 6 3205823218920 1 0
-9.0370035 21.923605 1.9358236 27 3205823216616 1 0
-7.9470844 16.893517 5.0024543 7 3205823218920 1 0
-10.029873 21.329056 -0.5484518 5 3205823221224 1 0
-1.5661175 3.8166914 -1.9237583 3 3205823241960 1 0
-12.299076 29.861982 5.888321 11 3205823221224 1 0
-9.461346 17.861834 -0.35281786 22 3205823241960 1 0
-6.222406 15.170536 -0.47720113 6 3205823244264 1 0
-3.1341703 6.6902304 -2.0681822 4 3205823244264 1 0
-8.8126745 18.818745 0 30 3205823246568 1 0
-4.408727 10.753152 -2.324382 2 3205823246568 1 0
-10.717226 30.289711 -0.37405127 16 3205823248872 1 0
-5.860289 14.305452 -1.967764 4 3205823251176 1 0
-10.089988 19.07545 0.12542109 34 3205823251176 1 0
-6.771468 14.465394 -2.4848504 7 3205823248872 1 0
-9.038438 22.07273 -0.13862577 47 3205823253480 1 0
-6.787373 14.510362 -1.7255477 21 3205823253480 1 0
-4.9331408 13.961728 -1.3822641 7 3205823255784 1 0
-8.865401 18.96005 0.4870371 31 3205823255784 1 0
-9.994997 28.300852 0.34941876 11 3205823258088 1 0
-6.8361845 14.625797 -1.1289388 1 3205823258088 1 0
-5.808693 14.203052 -1.2526875 10 3205823260392 1 0
-9.79281 18.539717 0.610203 20 3205823260392 1 0
-8.824604 21.58633 0.40705994 26 3205823262696 1 0
-9.263502 17.54381 -1.2714759 28 3205823262696 1 0
-4.9247804 13.963924 -0.862318 4 3205823265000 1 0
-9.010715 19.300083 1.2404542 24 3205823265000 1 0
0 0 0 14 3205823267304 1 0
-12.301748 26.359161 -1.3549863 8 3205823267304 1 0
-5.8011794 14.208267 -0.804299 6 3205823269608 1 0
-9.298893 19.932457 2.7006247 23 3205823269608 1 0
-9.008628 22.073133 1.9462382 20 3205823271912 1 0
-12.3235855 23.372112 -1.0764633 20 3205823271912 1 0
-4.9100394 13.947992 -0.516373 6 3205823274216 1 0
-7.773794 16.676022 4.929985 7 3205823274216 1 0
-12.264601 30.07599 5.9220424 16 3205823276520 1 0
-12.698403 27.250437 -0.69956917 8 3205823276520 1 0
-1.5541497 3.8254936 -1.9254488 3 3205823297256 1 0
-9.636981 18.347961 -0.3617535 40 3205823297256 1 0
-6.1272907 15.088438 -0.473943 6 3205823299560 1 0
-3.110798 6.70113 -2.0681822 5 3205823299560 1 0
-4.3667393 10.757573 -2.3220286 2 3205823301864 1 0
-8.75535 18.867535 0 30 3205823301864 1 0
-10.581047 30.240105 -0.3729803 29 3205823304168 1 0
-6.717607 14.481772 -2.4836206 7 3205823304168 1 0
-5.7954044 14.289051 -1.9627132 2 3205823306472 1 0
-10.0289135 19.121181 0.12549084 34 3205823306472 1 0
-6.918998 17.06649 -0.1070322 24 3205823308776 1 0
-6.7166114 14.490666 -1.720407 23 3205823308776 1 0
-8.799165 18.990883 0.4870371 17 3205823311080 1 0
-4.8712378 13.941265 -1.3785465 9 3205823311080 1 0
-9.966043 28.5357 0.35188666 11 3205823313384 1 0
-7.1121016 15.355618 -1.1833488 2 3205823313384 1 0
-5.7396283 14.175202 -1.2484565 8 3205823315688 1 0
-9.728035 18.573788 0.610203 23 3205823315688 1 0
-6.9066315 17.064493 0.3213337 24 3205823317992 1 0
-9.174433 17.522993 -1.2676384 51 3205823317992 1 0
-4.862857 13.943324 -0.8599924 6 3205823320296 1 0
-8.941613 19.327795 1.2402216 15 3205823320296 1 0
-12.641747 31.26062 1.3737893 12 3205823322600 1 0
-7.998336 17.295448 -0.8876277 6 3205823322600 1 0
-5.7350807 14.187693 -0.8019962 6 3205823324904 1 0
-9.127637 19.744965 2.6708884 22 3205823324904 1 0
-8.840416 21.878963 1.9263853 23 3205823327208 1 0
-9.156909 17.51431 -0.80519 9 3205823327208 1 0
-4.850808 13.934844 -0.51525617 6 3205823329512 1 0
-7.717157 16.706562 4.9310203 7 3205823329512 1 0
-8.36613 20.722515 4.074543 8 3205823331816 1 0
-12.638409 27.370838 -0.70152324 4 3205823331816 1 0
-1.5434923 3.8376222 -1.9288298 6 3205823352552 1 0
-9.534081 18.307 -0.3602875 34 3205823352552 1 0
-6.0358076 15.013281 -0.47091755 6 3205823354856 1 0
-3.0825586 6.7014494 -2.0649474 6 3205823354856 1 0
-4.327699 10.769111 -2.3212442 2 3205823357160 1 0
-8.681081 18.87981 0 20 3205823357160 1 0
-10.471501 30.265516 -0.3728406 35 3205823359464 1 0
-6.663714 14.49795 -2.4823909 7 3205823359464 1 0
-5.73662 14.2871 -1.9596828 20 3205823361768 1 0
-9.915969 19.067354 0.12490965 36 3205823361768 1 0
-8.919879 22.22438 -0.13918371 34 3205823364072 1 0
-6.6460705 14.470655 -1.7152663 26 3205823364072 1 0
-4.8095384 13.920541 -1.3748287 9 3205823366376 1 0
-8.707793 18.966969 0.4856413 17 3205823366376 1 0
-9.887264 28.630804 0.3526317 34 3205823368680 1 0
0 0 0 49 3205823368680 1 0
-5.6737957 14.154446 -1.2448764 8 3205823370984 1 0
-9.915591 19.093758 0.62614465 19 3205823370984 1 0
-8.669227 21.636272 0.4068505 49 3205823373288 1 0
-9.0764265 17.484053 -1.2625219 48 3205823373288 1 0
-4.806345 13.937564 -0.85859704 6 3205823375592 1 0
-10.323433 22.520634 1.442778 22 3205823375592 1 0
-11.252112 28.106203 1.2334306 9 3205823377896 1 0
-6.860995 14.973052 -0.7672052 17 3205823377896 1 0
-5.6691966 14.166831 -0.7996934 6 3205823380200 1 0
-9.020632 19.693687 2.6596766 22 3205823380200 1 0
-8.860232 22.150293 1.94754 20 3205823382504 1 0
-9.073645 17.503588 -0.80323607 43 3205823382504 1 0
-4.7969327 13.936571 -0.5146978 6 3205823384808 1 0
-8.2806 20.718706 4.0680857 13 3205823387112 1 0
-15.582407 34.058483 -0.8715303 5 3205823387112 1 0
-1.5300871 3.8429866 -1.9288298 3 3205823407296 1 0
-7.772959 16.982836 5.004525 12 3205823384808 1 0
-9.482965 18.365044 -0.36077616 26 3205823407296 1 0
-5.94936 14.948815 -0.46824124 6 3205823409600 1 0
-3.0607448 6.715674 -2.0660255 5 3205823409600 1 0
-4.288632 10.780507 -2.3204598 2 3205823411904 1 0
-8.893728 19.521524 0 26 3205823411904 1 0
-6.60979 14.513928 -2.481161 7 3205823414208 1 0
-5.7043014 14.351286 -1.9657437 20 3205823416512 1 0
-9.847518 19.098297 0.1248864 30 3205823416512 1 0
-10.386505 30.362434 -0.37358564 32 3205823414208 1 0
0 0 0 19 3205823418816 1 0
-6.5757513 14.450329 -1.7101257 42 3205823418816 1 0
-4.7519054 13.910862 -1.3722262 7 3205823421120 1 0
-8.646501 19.00817 0.48592046 21 3205823421120 1 0
-9.8260355 28.778698 0.3540286 11 3205823423424 1 0
-6.6033716 14.522228 -1.1155455 31 3205823423424 1 0
-5.6125894 14.144519 -1.2422727 10 3205823425728 1 0
-8.828102 22.257507 0.41795024 55 3205823428032 1 0
-9.66219 18.765665 0.6142757 31 3205823425728 1 0
-8.984284 17.455292 -1.2581728 50 3205823428032 1 0
-4.7434897 13.912681 -0.8560389 6 3205823430336 1 0
-10.442916 22.99283 1.4706846 11 3205823430336 1 0
-6.7822585 14.938698 -0.76422715 24 3205823432640 1 0
0 0 0 43 3205823432640 1 0
-5.604999 14.149396 -0.7976 4 3205823434944 1 0
-9.127392 20.11189 2.7118366 23 3205823434944 1 0
-8.750569 22.099537 1.94038 33 3205823437248 1 0
-8.97595 17.464062 -0.79997945 45 3205823437248 1 0
-4.7405286 13.930525 -0.51386017 6 3205823439552 1 0
-8.224152 20.787735 4.075978 8 3205823441856 1 0
-12.413998 27.385561 -0.6996622 4 3205823441856 1 0
-7.514168 16.570015 4.8751154 5 3205823439552 1 0
-1.5140047 3.8415587 -1.9254488 4 3205823462592 1 0
-9.424269 18.408712 -0.36098558 28 3205823462592 1 0
-3.0389183 6.7298055 -2.0671039 5 3205823464896 1 0
-5.857682 14.869007 -0.46509945 6 3205823464896 1 0
-4.2496943 10.7917 -2.3196752 2 3205823467200 1 0
-8.794547 19.483051 0 26 3205823467200 1 0
-10.297779 30.447536 -0.374191 9 3205823469504 1 0
-6.5529013 14.522359 -2.4787014 7 3205823469504 1 0
-5.645872 14.348791 -1.9627132 11 3205823471808 1 0
-9.66846 18.911459 0.12344505 30 3205823471808 1 0
-10.885274 27.675776 -0.17284632 11 3205823474112 1 0
-6.50618 14.429451 -1.704985 46 3205823474112 1 0
-4.6924562 13.8932 -1.3688803 9 3205823476416 1 0
-8.339373 18.501942 0.47224176 27 3205823476416 1 0
-9.725707 28.808537 0.35398206 34 3205823478720 1 0
-6.5238748 14.479371 -1.1105231 14 3205823478720 1 0
-5.549429 14.126594 -1.2390182 8 3205823481024 1 0
-9.583176 18.770231 0.61334485 21 3205823481024 1 0
-8.750352 22.283892 0.41788042 57 3205823483328 1 0
-8.886336 17.411297 -1.2528002 50 3205823483328 1 0
-4.6857038 13.8985405 -0.8541785 4 3205823485632 1 0
-9.061358 20.133453 1.2858026 6 3205823485632 1 0
-10.945473 27.896704 1.2208928 18 3205823487936 1 0
-6.485362 14.415162 -0.7363085 8 3205823487936 1 0
-5.545143 14.13864 -0.7959252 4 3205823490240 1 0
-8.982354 19.972658 2.6889253 31 3205823490240 1 0
-8.697293 22.184803 1.9452618 23 3205823492544 1 0
-8.8966255 17.455275 -0.7981883 32 3205823492544 1 0
-4.670343 13.878311 -0.5113474 6 3205823494848 1 0
-7.6401052 17.000666 4.994172 22 3205823494848 1 0
-8.166727 20.848402 4.082435 27 3205823497152 1 0
-12.388507 27.57694 -0.7034774 4 3205823497152 1 0
-1.5025754 3.8499353 -1.9271393 3 3205823517888 1 0
-9.451897 18.614597 -0.36440626 26 3205823517888 1 0
-5.776373 14.806403 -0.4625395 5 3205823520192 1 0
-3.0165846 6.7398458 -2.0671039 6 3205823520192 1 0
-4.2153096 10.809387 -2.3204598 2 3205823522496 1 0
-12.110232 36.20154 -0.44441 12 3205823524800 1 0
-8.729891 19.512108 0 34 3205823522496 1 0
-6.4998665 14.533185 -2.4768567 9 3205823524800 1 0
-5.746643 14.74825 -2.0147357 6 3205823527104 1 0
-10.78618 27.693085 -0.17273007 34 3205823529408 1 0
-9.585795 18.904173 0.12318932 33 3205823527104 1 0
-6.4453125 14.4219 -1.7015579 15 3205823529408 1 0
-4.6350017 13.874687 -1.3655343 7 3205823531712 1 0
-8.266555 18.503937 0.47159037 13 3205823531712 1 0
-9.660523 28.931683 0.3550996 27 3205823534016 1 0
-6.430265 14.39891 -1.1027104 6 3205823534016 1 0
-5.4895444 14.11148 -1.2360891 8 3205823536320 1 0
-8.968159 17.71039 0.577738 16 3205823536320 1 0
-8.689453 22.346334 0.4185087 16 3205823538624 1 0
-8.796099 17.376562 -1.2481953 50 3205823538624 1 0
-4.626957 13.876121 -0.85185295 6 3205823540928 1 0
-10.112151 22.668772 1.4455686 48 3205823540928 1 0
-10.865931 27.966375 1.2223582 23 3205823543232 1 0
-6.4245057 14.407395 -0.73481953 4 3205823543232 1 0
-5.4808736 14.112268 -0.7934131 6 3205823545536 1 0
-8.953251 20.08574 2.7001371 23 3205823545536 1 0
-8.423127 21.69693 1.9000232 13 3205823547840 1 0
-8.858526 17.523916 -0.79997945 26 3205823547840 1 0
-4.612933 13.859586 -0.51009107 5 3205823550144 1 0
-8.104662 20.893713 4.086023 22 3205823552448 1 0
-7.497223 16.83179 4.937232 8 3205823550144 1 0
-12.223794 27.453478 -0.69929 4 3205823552448 1 0
-1.4871866 3.8481338 -1.9237583 3 3205823573184 1 0
-8.933203 17.738552 -0.3466746 22 3205823573184 1 0
-5.6910067 14.732318 -0.45963043 5 3205823575488 1 0
-2.9909961 6.7428136 -2.0649474 6 3205823575488 1 0
-4.181952 10.830746 -2.3220286 2 3205823577792 1 0
-10.296524 31.12698 -0.38168785 27 3205823580096 1 0
-8.753745 19.74232 0 31 3205823577792 1 0
-6.446197 14.544101 -2.475012 8 3205823580096 1 0
-5.713983 14.811981 -2.0207965 16 3205823582400 1 0
-9.494998 18.882807 0.122840606 20 3205823582400 1 0
-10.702344 27.755602 -0.17289281 42 3205823584704 1 0
-6.3802986 14.407295 -1.697274 22 3205823584704 1 0
-4.5727654 13.845 -1.3610729 7 3205823587008 1 0
-8.632484 19.500978 0.49624932 35 3205823587008 1 0
-9.606718 29.101265 0.3567759 19 3205823589312 1 0
-6.3648667 14.384314 -1.09992 7 3205823589312 1 0
-5.4253163 14.089314 -1.232509 10 3205823591616 1 0
-9.47602 18.873783 0.6146248 18 3205823591616 1 0
-10.74284 27.911406 0.5220364 37 3205823593920 1 0
-4.567646 13.857921 -0.84975994 4 3205823596224 1 0
-10.077204 22.802256 1.4518477 22 3205823596224 1 0
-8.741521 17.417482 -1.2489629 20 3205823593920 1 0
-10.791602 28.063663 1.2249634 28 3205823598528 1 0
-6.3469377 14.367506 -0.73165536 4 3205823598528 1 0
-5.4186807 14.097757 -0.791529 6 3205823600832 1 0
-8.838179 20.015177 2.686488 18 3205823600832 1 0
-8.68874 22.615768 1.9778076 31 3205823603136 1 0
-8.822115 17.604883 -0.8022591 26 3205823603136 1 0
-4.555379 13.849154 -0.50911385 5 3205823605440 1 0
-7.3381157 16.63184 4.8709745 10 3205823605440 1 0
-11.70137 30.4851 5.9536114 11 3205823607744 1 0
-12.118621 27.478214 -0.6988247 4 3205823607744 1 0
-1.4730725 3.8535588 -1.9237583 3 3205823628480 1 0
-9.252068 18.540567 -0.36168367 42 3205823628480 1 0
-5.592945 14.637212 -0.45602322 5 3205823630784 1 0
-2.9679096 6.7572145 -2.0660255 5 3205823630784 1 0
-4.139744 10.838552 -2.3204598 2 3205823633088 1 0
-8.461598 19.272251 0 30 3205823633088 1 0
0 0 0 22 3205823635392 1 0
-6.3918943 14.563731 -2.474397 7 3205823635392 1 0
-5.528945 14.487726 -1.9738249 5 3205823637696 1 0
-9.346544 18.75583 0.12179446 19 3205823637696 1 0
-10.608266 27.80882 -0.17298579 42 3205823640000 1 0
-6.309332 14.386417 -1.6921334 22 3205823640000 1 0
-8.572289 19.553715 0.49680763 24 3205823642304 1 0
-9.486835 29.085878 0.3561706 31 3205823644608 1 0
-6.295952 14.3667 -1.0968508 7 3205823644608 1 0
-4.517022 13.842341 -1.3592141 6 3205823642304 1 0
-5.3610873 14.071224 -1.2292545 10 3205823646912 1 0
-9.888158 19.870197 0.64592624 19 3205823646912 1 0
-10.665477 28.005262 0.5230835 37 3205823649216 1 0
-7.3340063 14.74275 -1.0552994 10 3205823649216 1 0
-4.511421 13.8511305 -0.8483646 6 3205823651520 1 0
-9.987276 22.815636 1.4504523 26 3205823651520 1 0
-10.956126 28.792366 1.2550869 20 3205823653824 1 0
-6.2821217 14.35672 -0.7299803 4 3205823653824 1 0
-5.350976 14.068049 -0.7888075 6 3205823656128 1 0
-8.757122 20.020445 2.6830754 21 3205823656128 1 0
-8.601572 22.623474 1.9758549 7 3205823658432 1 0
-10.258054 20.649254 -0.9393612 17 3205823658432 1 0
-7.2835946 16.66422 4.873045 12 3205823660736 1 0
-4.4999967 13.84203 -0.5082763 5 3205823660736 1 0
-10.41815 27.42417 5.3487797 9 3205823663040 1 0
-15.480482 35.431316 -0.8997252 5 3205823663040 1 0
-1.462852 3.8652036 -1.9271393 4 3205823683776 1 0
-9.254395 18.700186 -0.3641968 32 3205823683776 1 0
-5.477672 14.479995 -0.4505542 5 3205823686080 1 0
-2.9423125 6.7599983 -2.063869 4 3205823686080 1 0
-4.106238 10.859677 -2.3220286 2 3205823688384 1 0
-8.406656 19.322456 0 36 3205823688384 1 0
-9.727304 30.109577 -0.36837044 25 3205823690688 1 0
-6.339775 14.577875 -2.4731672 7 3205823690688 1 0
-5.3552265 14.175937 -1.9288734 4 3205823692992 1 0
-9.2708 18.76216 0.12163173 21 3205823692992 1 0
-11.597719 30.714764 -0.19081675 26 3205823695296 1 0
-6.247863 14.378536 -1.6887063 22 3205823695296 1 0
-4.458882 13.823522 -1.3558681 7 3205823697600 1 0
-8.500912 19.571774 0.49652848 28 3205823697600 1 0
-9.542002 29.59779 0.3620377 36 3205823699904 1 0
-6.224563 14.336893 -1.0929444 7 3205823699904 1 0
-9.352872 18.957405 0.6152066 24 3205823702208 1 0
-5.297284 14.048509 -1.2256744 8 3205823702208 1 0
-11.295286 29.9692 0.5590355 28 3205823704512 1 0
0 0 0 4 3205823704512 1 0
-4.4536595 13.836255 -0.84650415 6 3205823706816 1 0
-9.893941 22.817097 1.4483593 26 3205823706816 1 0
-10.855974 28.830276 1.2550869 15 3205823709120 1 0
-6.214699 14.338143 -0.7279329 4 3205823709120 1 0
-5.289173 14.052996 -0.7869234 6 3205823711424 1 0
-8.676136 20.025389 2.6796632 26 3205823711424 1 0
0 0 0 18 3205823713728 1 0
-10.141472 20.595446 -0.93529046 30 3205823713728 1 0
-4.4488034 13.85017 -0.5079971 5 3205823716032 1 0
-7.4827633 17.285437 5.0469713 12 3205823716032 1 0
-11.673779 31.059643 6.049753 17 3205823718336 1 0
-12.695125 29.338457 -0.74386215 4 3205823718336 1 0
-9.143535 18.647797 -0.36252138 30 3205823739072 1 0
-5.357421 14.320184 -0.44496882 5 3205823741376 1 0
-2.9221385 6.781328 -2.0671039 5 3205823741376 1 0
-1.4474046 3.8671439 -1.9254488 3 3205823739072 1 0
-4.0610704 10.8599 -2.3188908 2 3205823743680 1 0
-8.429422 19.569765 0 12 3205823743680 1 0
-9.629697 30.182922 -0.36883608 3 3205823745984 1 0
-5.320311 14.239919 -1.9349343 15 3205823748288 1 0
-6.2834945 14.593616 -2.4719374 6 3205823745984 1 0
-8.922854 18.224545 0.11793535 16 3205823748288 1 0
-11.165725 29.89855 -0.18549304 55 3205823750592 1 0
-6.176784 14.357275 -1.6835656 28 3205823750592 1 0
-4.399119 13.80922 -1.3528938 9 3205823752896 1 0
-9.343118 21.725782 0.5503128 16 3205823752896 1 0
-6.15537 14.318973 -1.0898751 9 3205823755200 1 0
-9.595146 30.135162 0.36818418 12 3205823755200 1 0
-5.2368245 14.041377 -1.2233962 10 3205823757504 1 0
-9.29848 19.019754 0.6161375 31 3205823757504 1 0
-10.608966 28.458218 0.5301343 21 3205823759808 1 0
-7.189624 14.711577 -1.0494153 1 3205823759808 1 0
-4.3942456 13.821721 -0.8446437 6 3205823762112 1 0
-9.890679 23.03596 1.459987 31 3205823762112 1 0
-11.544894 30.996359 1.3475738 17 3205823764416 1 0
-6.1427674 14.312599 -0.7255133 4 3205823764416 1 0
-5.229103 14.045626 -0.785458 6 3205823766720 1 0
-8.842356 20.61089 2.7537596 24 3205823766720 1 0
-8.19239 22.014954 1.9175979 10 3205823769024 1 0
-10.06261 20.62075 -0.934802 37 3205823769024 1 0
-4.3764515 13.793538 -0.5053447 5 3205823771328 1 0
-7.457656 17.397219 5.071818 5 3205823771328 1 0
-11.593423 31.182104 6.0655375 17 3205823773632 1 0
-12.634814 29.486336 -0.74646765 4 3205823773632 1 0
-1.432638 3.8687732 -1.9237583 3 3205823794368 1 0
-9.566133 19.683184 -0.38199827 36 3205823794368 1 0
-5.270135 14.237479 -0.44182703 5 3205823796672 1 0
-2.8985481 6.791445 -2.0671039 6 3205823796672 1 0
-4.0193706 10.862857 -2.3165374 2 3205823798976 1 0
0 0 0 10 3205823801280 1 0
-8.372618 19.62458 0 28 3205823798976 1 0
-6.234703 14.618824 -2.4725523 6 3205823801280 1 0
-5.2892895 14.30648 -1.9415002 13 3205823803584 1 0
-8.996477 18.535746 0.11974867 15 3205823803584 1 0
-8.16553 22.095034 -0.13690543 32 3205823805888 1 0
-4.3437233 13.797521 -1.3502914 10 3205823808192 1 0
-6.1105247 14.338058 -1.6788534 24 3205823805888 1 0
-9.170382 21.52568 0.5444505 45 3205823808192 1 0
-9.26846 29.454046 0.35947666 20 3205823810496 1 0
-6.088049 14.295695 -1.0865269 9 3205823810496 1 0
-5.17699 14.025307 -1.2204671 10 3205823812800 1 0
-9.307495 19.202135 0.6210247 25 3205823812800 1 0
-10.403924 28.197283 0.52461934 42 3205823815104 1 0
-7.1331935 14.72128 -1.0483919 1 3205823815104 1 0
-10.0496025 23.623775 1.4951031 32 3205823817408 1 0
-10.664625 28.927164 1.2560638 10 3205823819712 1 0
-4.336013 13.798247 -0.8423181 9 3205823817408 1 0
-6.0809903 14.299887 -0.72383815 4 3205823819712 1 0
-5.1686845 14.025408 -0.7833646 6 3205823822016 1 0
-9.041107 21.268545 2.8376057 17 3205823822016 1 0
-8.614394 23.384895 2.0344372 7 3205823824320 1 0
-10.039738 20.747398 -0.93903553 20 3205823824320 1 0
-4.3191237 13.769706 -0.50394875 5 3205823826624 1 0
-7.8687162 18.52405 5.3927536 24 3205823826624 1 0
-11.473648 31.17187 6.05621 41 3205823828928 1 0
-22.514776 53.02219 -1.3404222 11 3205823828928 1 0
-1.4204769 3.8732548 -1.9237583 4 3205823849664 1 0
-9.592831 19.89687 -0.38555858 22 3205823849664 1 0
-5.1921463 14.163945 -0.43903434 5 3205823851968 1 0
-2.8740973 6.793464 -2.0649474 6 3205823851968 1 0
-3.9835582 10.871863 -2.315753 2 3205823854272 1 0
-8.081752 25.923613 -0.31612524 20 3205823856576 1 0
-6.177335 14.613125 -2.468248 6 3205823856576 1 0
-9.29189 21.972017 0 42 3205823854272 1 0
-5.2353005 14.300975 -1.9384698 15 3205823858880 1 0
-8.789643 18.258093 0.11777262 19 3205823858880 1 0
-8.105464 22.151217 -0.13709141 15 3205823861184 1 0
-6.0520267 14.328317 -1.6754262 22 3205823861184 1 0
-4.2884974 13.777249 -1.3469454 10 3205823863488 1 0
-9.155271 21.684118 0.5477074 30 3205823863488 1 0
-9.519834 30.599148 0.37307343 33 3205823865792 1 0
-6.0245833 14.274927 -1.0834576 10 3205823865792 1 0
-5.116217 14.000909 -1.2168871 8 3205823868096 1 0
-9.355748 19.462986 0.6284719 21 3205823868096 1 0
-10.432342 28.561762 0.5307626 12 3205823870400 1 0
-7.014096 14.597027 -1.037903 1 3205823870400 1 0
-4.288265 13.804799 -0.841853 6 3205823872704 1 0
-9.982754 23.68244 1.4967309 20 3205823872704 1 0
-11.358248 31.12481 1.3498534 11 3205823875008 1 0
-5.107089 14.001191 -0.7810618 6 3205823877312 1 0
-8.613002 20.449547 2.7245111 34 3205823877312 1 0
-8.550115 23.450912 2.0376918 26 3205823879616 1 0
-12.185303 25.396658 -1.1476196 15 3205823879616 1 0
-4.2848735 13.822261 -0.5053447 18 3205823881920 1 0
-9.411809 22.36431 6.5015345 9 3205823881920 1 0
-11.4294615 31.376627 6.0884967 29 3205823884224 1 0
-6.016679 14.279382 -0.7217908 4 3205823875008 1 0
0 0 0 21 3205823884224 1 0
-8.933608 18.696096 -0.36168367 36 3205823904960 1 0
-5.123591 14.129359 -0.43740526 5 3205823907264 1 0
-1.4069481 3.8781896 -1.9237583 3 3205823904960 1 0
-3.942911 10.878327 -2.314184 2 3205823909568 1 0
