# .PCD v.7 - Point Cloud Data file format
VERSION .7
FIELDS x y z rgb timestamp_ns device_id active
SIZE 4 4 4 4 8 1 1
TYPE F F F F F U U
COUNT 1 1 1 1 1 1 1
WIDTH 979
HEIGHT 1
VIEWPOINT 0 0 0 1 0 0 0
POINTS 979               
DATA ascii
23.030565 24.121174 -1.7478116 18 3207941549240 1 0
22.663507 26.186548 4.252265 18 3207941549240 1 0
64.292625 67.316605 7.5991163 28 3207941551544 1 0
20.224546 25.808392 -1.3358501 5 3207941551544 1 0
25.613031 24.312233 -1.2332087 30 3207941553848 1 0
20.507904 23.681236 8.394019 14 3207941553848 1 0
22.470655 23.51317 5.9299345 16 3207941556152 1 0
20.459557 23.618116 -0.7271127 8 3207941556152 1 0
0 0 0 4 3207941576888 1 0
20.274181 25.782402 -0.57250875 4 3207941576888 1 0
23.534336 24.55174 -0.9897763 12 3207941579192 1 0
4.2848964 4.931309 -1.8287992 0 3207941579192 1 0
6.3738866 6.647595 -1.8419336 5 3207941581496 1 0
21.907915 25.205873 0 46 3207941581496 1 0
23.224096 21.959057 -0.37209558 9 3207941583800 1 0
7.8549175 9.034854 -1.8625618 3 3207941583800 1 0
10.446828 10.889412 -1.9207922 4 3207941586104 1 0
39.98606 50.791935 0.37570536 42 3207941586104 1 0
21.901304 22.82285 -0.18384245 12 3207941588408 1 0
11.586539 13.3195915 -1.9016151 7 3207941588408 1 0
14.666229 13.855835 -1.8834186 4 3207941590712 1 0
21.92116 25.192978 0.7770819 37 3207941590712 1 0
22.070202 20.844925 0.3534233 19 3207941593016 1 0
17.410557 20.003569 -1.8544061 9 3207941593016 1 0
15.718849 16.366669 -1.8525063 7 3207941595320 1 0
37.988197 48.199333 1.7860425 12 3207941595320 1 0
21.736391 22.625952 0.54765654 50 3207941597624 1 0
17.638197 22.372942 -1.8258598 9 3207941597624 1 0
22.356642 21.097937 -1.7902167 12 3207941599928 1 0
63.233067 72.58979 5.606462 28 3207941599928 1 0
22.29017 23.189564 1.3104488 22 3207941602232 1 0
20.408773 23.422165 -1.4471179 4 3207941602232 1 0
21.943504 25.17648 4.10066 11 3207941604536 1 0
64.412926 66.97489 7.5857725 28 3207941606840 1 0
23.026031 23.948492 -1.7411126 18 3207941604536 1 0
20.22252 25.621855 -1.3298254 5 3207941606840 1 0
20.653242 23.682903 8.419901 10 3207941609144 1 0
25.61268 24.143906 -1.2291603 18 3207941609144 1 0
26.497074 27.535736 6.967404 15 3207941611448 1 0
0 0 0 4 3207941632184 1 0
20.419926 23.40883 -0.72283226 8 3207941611448 1 0
20.349636 25.702486 -0.5722295 4 3207941632184 1 0
27.408321 28.403635 -1.148727 24 3207941634488 1 0
4.3063335 4.92284 -1.8309559 0 3207941634488 1 0
6.393268 6.6235065 -1.8411491 4 3207941636792 1 0
21.933796 25.06654 0 32 3207941636792 1 0
22.306017 20.950407 -0.3562637 9 3207941639096 1 0
7.8746185 8.996689 -1.8601022 3 3207941639096 1 0
10.461144 10.831571 -1.9167516 4 3207941641400 1 0
21.805386 22.57094 -0.1824011 28 3207941643704 1 0
40.038963 50.510563 0.37461272 62 3207941641400 1 0
11.618027 13.265714 -1.8994733 7 3207941643704 1 0
14.701081 13.795581 -1.8819315 4 3207941646008 1 0
21.96088 25.06805 0.77550006 27 3207941646008 1 0
22.186934 20.814281 0.35416833 11 3207941648312 1 0
15.760129 16.299204 -1.8508791 7 3207941650616 1 0
17.48307 19.950834 -1.8549641 9 3207941648312 1 0
38.255013 48.20241 1.7909297 12 3207941650616 1 0
17.741053 22.34756 -1.828674 9 3207941652920 1 0
21.807219 22.54657 0.5475169 41 3207941652920 1 0
22.40179 20.997475 -1.7881237 12 3207941655224 1 0
22.296532 23.039059 1.3062152 27 3207941657528 1 0
62.66507 71.44743 5.534602 28 3207941655224 1 0
20.535631 23.406784 -1.4504682 4 3207941657528 1 0
23.021275 23.781015 -1.734623 18 3207941659832 1 0
23.969568 27.312817 4.46188 6 3207941659832 1 0
65.43138 67.57106 7.678528 28 3207941662136 1 0
20.252594 25.480772 -1.3260803 5 3207941662136 1 0
20.60405 23.464108 8.367102 14 3207941664440 1 0
25.627934 23.993383 -1.2259495 18 3207941664440 1 0
27.911074 28.807024 7.313227 16 3207941666744 1 0
20.484152 23.320724 -0.722274 12 3207941666744 1 0
0 0 0 4 3207941687480 1 0
0 0 0 7 3207941687480 1 0
27.289963 28.084126 -1.1396507 16 3207941689784 1 0
4.318399 4.9019976 -1.8287992 0 3207941689784 1 0
6.413615 6.598337 -1.8403647 5 3207941692088 1 0
23.513903 21.930904 -0.37433067 6 3207941694392 1 0
22.018517 24.986824 0 13 3207941692088 1 0
7.900748 8.963216 -1.8588723 3 3207941694392 1 0
10.4878235 10.78361 -1.9147314 4 3207941696696 1 0
40.284912 50.45802 0.37526363 42 3207941696696 1 0
21.805943 22.41441 -0.18175016 37 3207941699000 1 0
11.651109 13.210165 -1.8973314 7 3207941699000 1 0
14.746234 13.741465 -1.8815597 4 3207941701304 1 0
21.963593 24.895283 0.77252233 23 3207941701304 1 0
22.054594 20.545862 0.35090882 38 3207941703608 1 0
17.547325 19.883703 -1.8544061 9 3207941703608 1 0
15.814147 16.241236 -1.8505536 7 3207941705912 1 0
38.580315 48.265343 1.7982605 12 3207941705912 1 0
21.807653 22.39009 0.5455622 40 3207941708216 1 0
17.818953 22.285496 -1.828674 9 3207941708216 1 0
22.454487 20.900105 -1.7864958 12 3207941710520 1 0
62.966957 71.28812 5.539253 28 3207941710520 1 0
22.170399 22.74928 1.2941658 32 3207941712824 1 0
21.040508 23.814054 -1.4802481 5 3207941712824 1 0
23.017708 23.611843 -1.7281333 18 3207941715128 1 0
22.190166 25.107899 4.114309 11 3207941715128 1 0
65.666855 67.342255 7.678528 28 3207941717432 1 0
20.236511 25.27888 -1.3192415 5 3207941717432 1 0
23.512787 21.859629 -1.1211114 14 3207941719736 1 0
20.765173 23.481768 8.399196 14 3207941719736 1 0
28.016956 28.715054 7.314662 8 3207941722040 1 0
0 0 0 19 3207941722040 1 0
0 0 0 4 3207941742776 1 0
0 0 0 7 3207941742776 1 0
0 0 0 65 3207941745080 1 0
4.340596 4.892657 -1.8309559 0 3207941745080 1 0
6.433865 6.5731063 -1.8395802 4 3207941747384 1 0
21.898512 24.67645 0 46 3207941747384 1 0
0 0 0 23 3207941749688 1 0
7.9214916 8.923759 -1.8564126 5 3207941749688 1 0
10.505967 10.727092 -1.9111959 4 3207941751992 1 0
40.55605 50.435543 0.37614706 63 3207941751992 1 0
21.797277 22.24958 -0.18102948 37 3207941754296 1 0
11.676022 13.145627 -1.8939042 8 3207941754296 1 0
14.80288 13.698022 -1.882675 4 3207941756600 1 0
22.06364 24.83341 0.7729876 27 3207941756600 1 0
22.061586 20.408997 0.3498844 27 3207941758904 1 0
17.616625 19.82233 -1.8544061 9 3207941758904 1 0
38.856373 48.2643 1.803264 26 3207941761208 1 0
15.884699 16.200169 -1.8521808 7 3207941761208 1 0
21.815664 22.24245 0.543817 40 3207941763512 1 0
17.896635 22.22316 -1.828674 9 3207941763512 1 0
22.445196 20.745705 -1.7799842 12 3207941765816 1 0
63.326885 71.1932 5.549021 28 3207941765816 1 0
22.160093 22.580473 1.2889553 26 3207941768120 1 0
21.240374 23.871809 -1.4884375 5 3207941768120 1 0
23.010443 23.440134 -1.7214342 18 3207941770424 1 0
22.343662 25.10443 4.126496 5 3207941770424 1 0
65.91549 67.12685 7.6801553 28 3207941772728 1 0
20.226791 25.086744 -1.3128912 5 3207941772728 1 0
23.624195 21.80996 -1.1227866 15 3207941775032 1 0
20.595194 23.126373 8.297739 14 3207941775032 1 0
24.639278 25.07749 6.4099255 13 3207941777336 1 0
20.59592 23.120417 -0.72050595 12 3207941777336 1 0
0 0 0 4 3207941798072 1 0
0 0 0 7 3207941798072 1 0
24.288752 24.649273 -1.0071143 26 3207941800376 1 0
4.362746 4.883252 -1.8331125 0 3207941800376 1 0
6.453922 6.5479083 -1.8387957 4 3207941802680 1 0
21.9655 24.579302 0 37 3207941802680 1 0
22.146912 20.369587 -0.35030347 24 3207941804984 1 0
7.9418626 8.88444 -1.853953 5 3207941804984 1 0
10.526319 10.673709 -1.9081655 4 3207941807288 1 0
43.826706 54.118256 0.40474167 56 3207941807288 1 0
11.702802 13.084466 -1.8909055 10 3207941809592 1 0
21.896475 22.196936 -0.18121547 33 3207941809592 1 0
14.847077 13.64422 -1.8823032 4 3207941811896 1 0
22.15522 20.354637 0.35025692 23 3207941814200 1 0
22.015795 24.608194 0.768335 41 3207941811896 1 0
17.743246 19.827032 -1.8605447 6 3207941814200 1 0
15.948615 16.15406 -1.8531573 7 3207941816504 1 0
39.16282 48.304565 1.8097804 27 3207941816504 1 0
17.962591 22.149328 -1.8276507 9 3207941818808 1 0
21.931065 22.207436 0.5447943 40 3207941818808 1 0
22.454197 20.61216 -1.7751006 17 3207941821112 1 0
63.809624 71.24405 5.5699506 28 3207941821112 1 0
23.062702 25.742567 -1.6099769 16 3207941823416 1 0
23.003036 23.273613 -1.7149446 18 3207941825720 1 0
22.135849 22.402416 1.2830935 36 3207941823416 1 0
23.94985 26.72537 4.406308 13 3207941825720 1 0
66.1627 66.92245 7.6824336 28 3207941828024 1 0
20.25897 24.952747 -1.3094718 4 3207941828024 1 0
25.745724 23.607458 -1.2198073 17 3207941830328 1 0
20.578012 22.950008 8.259434 14 3207941830328 1 0
21.981447 22.221575 5.6989074 5 3207941832632 1 0
20.719378 23.101246 -0.72208786 8 3207941832632 1 0
0 0 0 4 3207941853368 1 0
20.30809 24.935701 -0.5613392 13 3207941853368 1 0
23.469488 23.660051 -0.9698784 12 3207941855672 1 0
4.3557677 4.8429503 -1.8234078 0 3207941855672 1 0
6.4701695 6.5208073 -1.8372267 5 3207941857976 1 0
22.023165 24.479244 0 41 3207941857976 1 0
22.332897 20.403461 -0.35216606 12 3207941860280 1 0
7.96883 8.854943 -1.8533381 5 3207941860280 1 0
10.542397 10.618725 -1.90463 4 3207941862584 1 0
44.075745 54.055042 0.40536934 57 3207941862584 1 0
21.956675 22.109213 -0.18109924 20 3207941864888 1 0
11.733295 13.030382 -1.8887635 7 3207941864888 1 0
14.872244 13.575465 -1.8797008 4 3207941867192 1 0
21.905653 24.320154 0.7616352 27 3207941867192 1 0
22.173403 20.234093 0.3494653 23 3207941869496 1 0
17.791206 19.746426 -1.8585914 6 3207941869496 1 0
16.003033 16.100153 -1.8531573 7 3207941871800 1 0
44.122135 54.047703 2.0305192 52 3207941871800 1 0
18.03234 22.082277 -1.827139 9 3207941874104 1 0
22.503263 20.517115 -1.7734727 12 3207941876408 1 0
21.983477 22.110458 0.5442358 31 3207941874104 1 0
22.17234 22.287443 1.2808139 21 3207941878712 1 0
21.672676 24.02634 -1.5072361 15 3207941878712 1 0
23.000402 23.11308 -1.7088736 17 3207941881016 1 0
21.771978 24.12937 3.9904897 16 3207941881016 1 0
22.923574 25.420519 1.9934708 6 3207941876408 1 0
66.36525 66.67097 7.6795044 28 3207941883320 1 0
20.24783 24.765926 -1.3032843 4 3207941883320 1 0
25.770105 23.468184 -1.2171549 17 3207941885624 1 0
20.555355 22.767696 8.219058 33 3207941885624 1 0
20.860027 23.098402 -0.7242281 8 3207941887928 1 0
21.932468 22.020689 5.666621 15 3207941887928 1 0
0 0 0 4 3207941908664 1 0
20.389936 24.858477 -0.5611996 4 3207941908664 1 0
23.667788 23.693964 -0.97464925 18 3207941910968 1 0
4.3829894 4.839136 -1.827721 0 3207941910968 1 0
6.4901195 6.495408 -1.8364424 4 3207941913272 1 0
22.086994 24.378506 0 37 3207941913272 1 0
23.876251 21.661057 -0.3753085 32 3207941915576 1 0
7.983766 8.809501 -1.8496487 6 3207941915576 1 0
10.570982 10.573442 -1.9031147 4 3207941917880 1 0
0 0 0 12 3207941917880 1 0
11.754664 12.962831 -1.8849081 6 3207941920184 1 0
22.223223 22.22193 -0.18265682 12 3207941920184 1 0
14.898885 13.5047455 -1.8770984 4 3207941922488 1 0
21.947426 24.19615 0.7601464 31 3207941922488 1 0
22.255753 20.167313 0.34965158 23 3207941924792 1 0
17.720598 19.530537 -1.8440821 6 3207941924792 1 0
16.053495 16.038559 -1.8525063 7 3207941927096 1 0
44.488277 54.10955 2.0386646 26 3207941927096 1 0
22.131266 22.104244 0.5459811 23 3207941929400 1 0
18.099169 22.006865 -1.8261156 9 3207941929400 1 0
22.559942 20.425037 -1.7723099 12 3207941931704 1 0
0 0 0 9 3207941931704 1 0
22.320719 22.2805 1.2848846 15 3207941934008 1 0
22.998943 22.950825 -1.7028027 17 3207941936312 1 0
0 0 0 7 3207941936312 1 0
21.772532 23.968287 -1.5083529 15 3207941934008 1 0
66.49032 66.33191 7.667137 28 3207941938616 1 0
20.229994 24.568598 -1.2966083 4 3207941938616 1 0
25.771812 23.30569 -1.2133857 17 3207941940920 1 0
20.74387 22.815874 8.262539 14 3207941940920 1 0
0 0 0 100 3207941943224 1 0
20.99972 23.090532 -0.72627527 8 3207941943224 1 0
0 0 0 4 3207941963960 1 0
20.545357 24.870403 -0.5630844 4 3207941963960 1 0
23.91481 23.7747 -0.9813983 18 3207941966264 1 0
4.394663 4.818115 -1.8255644 0 3207941966264 1 0
6.5127535 6.4727135 -1.8364424 4 3207941968568 1 0
22.131517 24.256935 0 13 3207941968568 1 0
23.012667 20.731611 -0.36059418 15 3207941970872 1 0
8.006475 8.77282 -1.847804 4 3207941970872 1 0
10.5881195 10.516904 -1.8995792 4 3207941973176 1 0
21.900988 26.480019 0.1997206 40 3207941973176 1 0
22.019663 21.865198 -0.18035531 28 3207941975480 1 0
11.789114 12.909973 -1.8831944 6 3207941975480 1 0
14.934093 13.441999 -1.8756113 4 3207941977784 1 0
22.034449 24.122345 0.7602394 31 3207941977784 1 0
22.320068 20.084152 0.34955844 27 3207941980088 1 0
17.81289 19.495071 -1.8465934 9 3207941980088 1 0
16.103722 15.976808 -1.8518554 7 3207941982392 1 0
22.091867 21.911386 0.5431189 54 3207941984696 1 0
22.078337 26.662848 1.0074633 8 3207941982392 1 0
18.196247 21.968147 -1.8281623 9 3207941984696 1 0
22.619225 20.335485 -1.7713797 12 3207941987000 1 0
22.378487 22.182755 1.2837448 21 3207941989304 1 0
62.86878 68.745605 5.425301 28 3207941987000 1 0
22.99096 22.783241 -1.696313 17 3207941991608 1 0
21.818306 23.850866 -1.5057472 10 3207941989304 1 0
21.414587 23.402702 3.8949442 15 3207941991608 1 0
67.5343 66.90468 7.7605433 28 3207941993912 1 0
20.203377 24.362469 -1.2894439 4 3207941993912 1 0
25.748905 23.122107 -1.2084998 28 3207941996216 1 0
0 0 0 48 3207941996216 1 0
21.912292 21.695377 5.6221375 10 3207941998520 1 0
21.136911 23.079018 -0.72822934 8 3207941998520 1 0
0 0 0 4 3207942019256 1 0
20.568098 24.721672 -0.5613392 4 3207942019256 1 0
26.643827 26.303444 -1.089615 15 3207942021560 1 0
4.416666 4.808419 -1.827721 0 3207942021560 1 0
6.529724 6.44443 -1.8348733 4 3207942023864 1 0
21.872353 23.805456 0 63 3207942023864 1 0
23.078932 20.645823 -0.36050105 15 3207942026168 1 0
8.034374 8.741909 -1.8471891 4 3207942026168 1 0
10.607816 10.463161 -1.8965487 4 3207942028472 1 0
21.826883 26.203638 0.19820951 25 3207942028472 1 0
22.087309 21.779778 -0.18028556 12 3207942030776 1 0
11.820646 12.854106 -1.8810526 7 3207942030776 1 0
14.963107 13.373863 -1.8733807 4 3207942033080 1 0
22.01564 23.933445 0.75670344 27 3207942033080 1 0
22.404951 20.019442 0.34979126 19 3207942035384 1 0
17.86462 19.415157 -1.8449192 9 3207942035384 1 0
0 0 0 43 3207942037688 1 0
16.159393 15.920498 -1.8518554 7 3207942037688 1 0
21.97161 21.640493 0.538302 49 3207942039992 1 0
18.270262 21.901432 -1.8279065 9 3207942039992 1 0
22.466654 20.056953 -1.753938 8 3207942042296 1 0
0 0 0 9 3207942042296 1 0
22.421604 22.07086 1.2817909 26 3207942044600 1 0
21.868942 23.739296 -1.5035137 10 3207942044600 1 0
22.984934 22.618795 -1.6900327 17 3207942046904 1 0
21.568789 23.40664 3.908106 31 3207942046904 1 0
68.443825 67.33396 7.838002 28 3207942049208 1 0
20.3754 24.396093 -1.29498 14 3207942049208 1 0
25.769787 22.978874 -1.2057078 28 3207942051512 1 0
20.449553 22.179083 8.083436 13 3207942051512 1 0
27.85245 27.384863 7.121661 15 3207942053816 1 0
21.295965 23.090343 -0.7309279 8 3207942053816 1 0
0 0 0 4 3207942074552 1 0
0 0 0 7 3207942074552 1 0
4.4281926 4.7873178 -1.8255644 0 3207942076856 1 0
6.546577 6.4161067 -1.8333044 4 3207942079160 1 0
23.312174 22.854221 -0.95009685 11 3207942076856 1 0
21.9363 23.70841 0 27 3207942079160 1 0
22.570742 20.049812 -0.35146758 12 3207942081464 1 0
8.048733 8.696406 -1.8434995 5 3207942081464 1 0
10.627266 10.40941 -1.8935183 4 3207942083768 1 0
21.864233 26.062937 0.1977213 14 3207942083768 1 0
21.95743 21.501053 -0.17861173 44 3207942086072 1 0
11.86004 12.806931 -1.8801957 6 3207942086072 1 0
14.959062 13.2766075 -1.8670604 4 3207942088376 1 0
22.063723 23.818312 0.75549376 27 3207942088376 1 0
22.468712 19.935804 0.34969813 23 3207942090680 1 0
17.91601 19.335117 -1.843245 9 3207942090680 1 0
16.203468 15.852842 -1.8505536 7 3207942092984 1 0
21.881184 21.40147 0.53425306 52 3207942095288 1 0
21.934788 26.116169 0.992569 33 3207942092984 1 0
18.341465 21.83141 -1.8273948 9 3207942095288 1 0
22.560434 19.9996 -1.7557985 12 3207942097592 1 0
22.822796 24.609018 1.9546338 19 3207942097592 1 0
22.272724 21.771751 1.2689273 30 3207942099896 1 0
21.851128 23.55443 -1.4966271 5 3207942099896 1 0
22.983755 22.460255 -1.6841711 17 3207942102200 1 0
21.709774 23.395231 3.9188306 16 3207942102200 1 0
54.394085 53.139687 6.2077837 28 3207942104504 1 0
20.267485 24.095428 -1.2827678 9 3207942104504 1 0
20.603086 22.189676 8.11346 13 3207942106808 1 0
23.497406 20.805815 -1.0959837 13 3207942106808 1 0
27.967579 27.306715 7.1266837 23 3207942109112 1 0
0 0 0 4 3207942129296 1 0
20.35587 24.122057 -0.5509376 4 3207942129296 1 0
23.443377 22.82291 -0.95219135 5 3207942131600 1 0
21.452635 23.097908 -0.7335333 8 3207942109112 1 0
6.563312 6.3877444 -1.8317355 3 3207942133904 1 0
4.4422507 4.7690125 -1.824486 0 3207942131600 1 0
23.11452 20.388948 -0.35882476 27 3207942136208 1 0
21.653534 23.23954 0 43 3207942133904 1 0
8.065565 8.653801 -1.840425 5 3207942136208 1 0
21.99896 26.038399 0.19811651 15 3207942138512 1 0
10.646471 10.355651 -1.8904878 4 3207942138512 1 0
21.972126 21.365717 -0.17812353 36 3207942140816 1 0
11.891109 12.750911 -1.8780538 6 3207942140816 1 0
14.987387 13.20851 -1.8648298 4 3207942143120 1 0
22.018524 23.603716 0.75112027 30 3207942143120 1 0
22.628197 19.936575 0.35109508 11 3207942145424 1 0
17.969782 19.257874 -1.8418499 9 3207942145424 1 0
16.24441 15.782294 -1.8489263 7 3207942147728 1 0
21.98192 25.987547 0.9905909 28 3207942147728 1 0
21.941412 21.311028 0.533904 35 3207942150032 1 0
18.402088 21.74897 -1.8258598 9 3207942150032 1 0
22.660082 19.947111 -1.758124 12 3207942152336 1 0
22.993052 24.619673 1.9618431 19 3207942152336 1 0
22.133503 21.48509 1.2567152 35 3207942154640 1 0
21.941399 23.48677 -1.4971855 5 3207942154640 1 0
22.976017 22.296434 -1.6778908 16 3207942156944 1 0
21.80757 23.336712 3.9217556 10 3207942156944 1 0
54.550632 52.921734 6.2045293 28 3207942159248 1 0
20.310137 23.975742 -1.2801626 14 3207942159248 1 0
23.608917 20.757982 -1.0977986 9 3207942161552 1 0
21.640947 23.144905 8.4903 10 3207942161552 1 0
27.986446 27.134964 7.1073117 23 3207942163856 1 0
21.620543 23.116343 -0.736511 8 3207942163856 1 0
20.349298 23.944193 -0.5484942 4 3207942184592 1 0
28.872541 27.912745 -1.1687413 8 3207942186896 1 0
4.4746823 4.7703333 -1.8309559 0 3207942186896 1 0
6.58839 6.3675213 -1.83252 4 3207942189200 1 0
21.698942 23.125893 0 35 3207942189200 1 0
0 0 0 22 3207942191504 1 0
8.084904 8.614067 -1.8379654 8 3207942191504 1 0
10.659721 10.2963705 -1.8864473 4 3207942193808 1 0
0 0 0 4 3207942184592 1 0
22.170073 26.05589 0.19883719 10 3207942193808 1 0
21.98327 21.227762 -0.17761208 32 3207942196112 1 0
11.932824 12.706426 -1.8776255 7 3207942196112 1 0
15.009425 13.135132 -1.8618556 4 3207942198416 1 0
21.898172 23.311031 0.7442344 35 3207942198416 1 0
22.721733 19.878534 0.35146758 34 3207942200720 1 0
18.039627 19.197939 -1.842129 9 3207942200720 1 0
16.259233 15.686741 -1.8443699 7 3207942203024 1 0
21.997309 25.822392 0.98721635 20 3207942203024 1 0
22.027182 21.245413 0.53418326 30 3207942205328 1 0
18.475306 21.681562 -1.825604 9 3207942205328 1 0
22.744606 19.881031 -1.7592868 8 3207942207632 1 0
63.40939 67.42188 5.390185 28 3207942207632 1 0
22.984234 24.431536 -1.5625151 10 3207942209936 1 0
22.14506 21.346678 1.2531329 25 3207942209936 1 0
22.97317 22.138485 -1.6720291 16 3207942212240 1 0
21.926989 23.300926 3.92858 10 3207942212240 1 0
54.720676 52.717163 6.202902 28 3207942214544 1 0
20.297728 23.7922 -1.2741379 9 3207942214544 1 0
25.918663 22.628885 -1.2015198 40 3207942216848 1 0
20.524414 21.797758 8.022355 9 3207942216848 1 0
27.579245 26.55401 6.9803185 15 3207942219152 1 0
21.846415 23.195017 -0.7414428 8 3207942219152 1 0
0 0 0 4 3207942239888 1 0
20.456161 23.90036 -0.5491225 4 3207942239888 1 0
28.869051 27.714666 -1.1646687 8 3207942242192 1 0
4.486051 4.749052 -1.8287992 0 3207942242192 1 0
6.6078386 6.3416724 -1.8317355 4 3207942244496 1 0
21.771627 23.040968 0 26 3207942244496 1 0
0 0 0 84 3207942246800 1 0
8.112396 8.582743 -1.8373505 4 3207942246800 1 0
10.693032 10.256041 -1.8859422 4 3207942249104 1 0
21.813965 25.455286 0.1948386 29 3207942249104 1 0
21.994486 21.089191 -0.17710063 32 3207942251408 1 0
15.037716 13.066329 -1.8596249 4 3207942253712 1 0
21.873243 23.1202 0.74060535 43 3207942253712 1 0
11.9639015 12.649813 -1.8754835 7 3207942251408 1 0
18.09105 19.11654 -1.8404548 6 3207942256016 1 0
22.73462 19.748104 0.35058287 23 3207942256016 1 0
16.28889 15.60412 -1.8414408 7 3207942258320 1 0
22.005495 25.647062 0.9834928 41 3207942258320 1 0
21.981277 21.050768 0.53125125 26 3207942260624 1 0
18.554892 21.618755 -1.8258598 9 3207942260624 1 0
22.911814 19.883612 -1.7667285 12 3207942262928 1 0
22.87506 24.14956 1.9371922 6 3207942262928 1 0
22.293324 21.336555 1.2572037 20 3207942265232 1 0
23.060331 24.33771 -1.5617707 16 3207942265232 1 0
22.971416 21.978827 -1.6661675 16 3207942267536 1 0
25.809225 27.230543 4.6066613 14 3207942267536 1 0
54.828655 52.44348 6.193789 28 3207942269840 1 0
20.23442 23.546497 -1.2648566 9 3207942269840 1 0
25.866875 22.420424 -1.1953776 22 3207942272144 1 0
20.674376 21.799578 8.050307 18 3207942272144 1 0
23.834507 22.783714 6.011727 11 3207942274448 1 0
0 0 0 21 3207942274448 1 0
0 0 0 4 3207942295184 1 0
20.413038 23.67378 -0.54563206 4 3207942295184 1 0
27.82096 26.513996 -1.1184728 23 3207942297488 1 0
4.5060134 4.7354336 -1.8298776 0 3207942297488 1 0
6.6138153 6.30137 -1.8270286 5 3207942299792 1 0
21.678766 22.77622 0 43 3207942299792 1 0
22.97865 19.839012 -0.3534233 9 3207942302096 1 0
8.146151 8.5561695 -1.8379654 6 3207942302096 1 0
10.706968 10.195514 -1.8819016 4 3207942304400 1 0
21.777569 25.228071 0.19369946 19 3207942304400 1 0
22.032444 20.974188 -0.17679842 24 3207942306704 1 0
11.99281 12.589474 -1.8729132 6 3207942306704 1 0
15.063261 12.994231 -1.8570225 4 3207942309008 1 0
22.02755 23.117064 0.7430247 39 3207942309008 1 0
22.853308 19.708761 0.3513279 23 3207942311312 1 0
18.115005 19.00574 -1.8359904 9 3207942311312 1 0
21.855854 25.290491 0.97278744 33 3207942313616 1 0
16.33261 15.535225 -1.8401389 7 3207942313616 1 0
18.625961 21.547003 -1.8253481 9 3207942315920 1 0
22.029455 20.948145 0.53062296 51 3207942315920 1 0
22.996782 19.815878 -1.7678914 12 3207942318224 1 0
0 0 0 12 3207942318224 1 0
22.414328 21.302334 1.2598089 20 3207942320528 1 0
23.05723 24.164223 -1.5558146 16 3207942320528 1 0
22.964018 21.818716 -1.6600965 16 3207942322832 1 0
25.199638 26.402185 4.4813795 13 3207942322832 1 0
54.984608 52.227863 6.19086 28 3207942325136 1 0
25.871614 22.26816 -1.1920272 22 3207942327440 1 0
20.266457 23.418596 -1.2617629 9 3207942325136 1 0
20.608286 21.579786 7.995438 13 3207942327440 1 0
23.8016 22.595758 5.983745 16 3207942329744 1 0
0 0 0 3 3207942329744 1 0
0 0 0 4 3207942350480 1 0
0 0 0 7 3207942350480 1 0
28.893225 27.35323 -1.1579196 8 3207942352784 1 0
4.5217266 4.7204323 -1.8298776 0 3207942352784 1 0
6.629069 6.273915 -1.8254597 3 3207942355088 1 0
21.862434 22.816528 0 35 3207942355088 1 0
0 0 0 15 3207942357392 1 0
8.150051 8.50325 -1.8324312 49 3207942357392 1 0
10.723718 10.14328 -1.8788712 4 3207942359696 1 0
21.811987 25.097717 0.19325775 28 3207942359696 1 0
21.974758 20.779285 -0.17577551 28 3207942362000 1 0
12.015679 12.529105 -1.8699144 6 3207942362000 1 0
15.091711 12.930593 -1.8551636 4 3207942364304 1 0
22.07464 23.01118 0.7420011 26 3207942364304 1 0
22.968142 19.673334 0.35207292 27 3207942366608 1 0
18.148504 18.912968 -1.8329211 9 3207942366608 1 0
16.358856 15.455384 -1.8372098 7 3207942368912 1 0
21.864956 25.129124 0.969413 28 3207942368912 1 0
22.042017 20.818607 0.5292268 38 3207942371216 1 0
18.698717 21.483894 -1.8253481 9 3207942371216 1 0
23.042566 19.719658 -1.7662635 12 3207942373520 1 0
22.93071 23.87575 1.92789 12 3207942373520 1 0
22.419699 21.16299 1.2560638 25 3207942375824 1 0
23.056116 23.999336 -1.5502309 16 3207942375824 1 0
22.962608 21.669153 -1.6546535 16 3207942378128 1 0
25.842287 26.89166 4.5793624 21 3207942378128 1 0
55.121822 52.001724 6.1863036 28 3207942380432 1 0
25.93238 22.166616 -1.1913292 16 3207942382736 1 0
20.732805 21.56214 8.015108 13 3207942382736 1 0
22.315563 21.040155 5.592004 10 3207942385040 1 0
20.270067 23.261955 -1.2570409 4 3207942380432 1 0
23.59059 24.5271 -0.79187727 9 3207942385040 1 0
0 0 0 4 3207942405776 1 0
20.394712 23.329535 -0.540885 13 3207942405776 1 0
23.363121 21.964064 -0.9332243 16 3207942408080 1 0
4.5408163 4.707425 -1.8309559 0 3207942408080 1 0
6.650838 6.2508335 -1.8254597 4 3207942410384 1 0
21.78608 22.579197 0 43 3207942410384 1 0
24.17898 20.589752 -0.3697208 6 3207942412688 1 0
8.160285 8.45502 -1.8281268 47 3207942412688 1 0
21.890831 25.013033 0.19318801 14 3207942414992 1 0
21.973509 20.6348 -0.17519432 36 3207942417296 1 0
10.744305 10.092515 -1.8763458 4 3207942414992 1 0
12.050599 12.478942 -1.8686293 7 3207942417296 1 0
15.099793 12.847524 -1.8507023 4 3207942419600 1 0
21.864891 22.635826 0.73232365 46 3207942419600 1 0
23.20629 19.739336 0.3546805 27 3207942421904 1 0
18.166319 18.801647 -1.8281777 9 3207942421904 1 0
16.374014 15.363679 -1.8329788 7 3207942424208 1 0
21.885212 24.978743 0.9665039 32 3207942424208 1 0
22.025686 20.660902 0.5271325 38 3207942426512 1 0
18.777456 21.425724 -1.8258598 9 3207942426512 1 0
22.812317 23.590551 1.9111459 6 3207942428816 1 0
23.06419 19.601994 -1.7627751 12 3207942428816 1 0
22.418856 21.018064 1.2519931 20 3207942431120 1 0
23.03505 23.814299 -1.5433443 15 3207942431120 1 0
22.951702 21.51166 -1.6485826 16 3207942433424 1 0
0 0 0 12 3207942433424 1 0
25.935534 24.301548 2.901457 7 3207942435728 1 0
20.296234 23.132896 -1.2537843 4 3207942435728 1 0
26.001255 22.073433 -1.19105 22 3207942438032 1 0
20.749321 21.43346 7.993367 9 3207942438032 1 0
22.475624 21.047958 5.6142454 15 3207942440336 1 0
26.399591 27.26249 -0.8830688 11 3207942440336 1 0
0 0 0 4 3207942461072 1 0
20.485174 23.276787 -0.541234 13 3207942461072 1 0
28.92971 27.01675 -1.1519852 8 3207942463376 1 0
4.545702 4.6812544 -1.8266426 0 3207942463376 1 0
6.668753 6.2259703 -1.8246753 6 3207942465680 1 0
21.76083 22.403215 0 35 3207942465680 1 0
24.241465 20.503763 -0.36962768 3 3207942467984 1 0
0 0 0 6 3207942467984 1 0
10.7635 10.042981 -1.8738204 4 3207942470288 1 0
21.963804 24.92766 0.19309501 14 3207942470288 1 0
22.027939 20.547375 -0.1750781 32 3207942472592 1 0
12.072961 12.418511 -1.8656306 7 3207942472592 1 0
15.127664 12.783867 -1.8488435 4 3207942474896 1 0
21.857182 22.476233 0.72953206 29 3207942474896 1 0
23.35206 19.728199 0.3558912 27 3207942477200 1 0
18.232304 18.743235 -1.8284566 9 3207942477200 1 0
16.390764 15.275723 -1.8290733 7 3207942479504 1 0
21.974663 24.91075 0.9667366 28 3207942479504 1 0
22.083723 20.575397 0.52685326 38 3207942481808 1 0
18.84716 21.359112 -1.825604 9 3207942481808 1 0
22.904673 19.33312 -1.745566 8 3207942484112 1 0
0 0 0 9 3207942484112 1 0
22.393581 20.851927 1.2466197 39 3207942486416 1 0
23.032162 23.650055 -1.5377606 15 3207942486416 1 0
22.95461 21.368101 -1.6435584 16 3207942488720 1 0
25.913202 24.115173 2.8897407 14 3207942491024 1 0
0 0 0 3 3207942488720 1 0
20.449104 23.147406 -1.2583435 13 3207942491024 1 0
26.055155 21.966398 -1.1900729 22 3207942493328 1 0
0 0 0 48 3207942493328 1 0
22.484194 20.911892 5.598461 10 3207942495632 1 0
27.333105 28.033733 -0.9110776 5 3207942495632 1 0
0 0 0 4 3207942516368 1 0
20.60344 23.247042 -0.54221135 4 3207942516368 1 0
28.853802 26.757915 -1.1452361 16 3207942518672 1 0
4.553936 4.6570964 -1.8234078 0 3207942518672 1 0
6.6875687 6.1999874 -1.8238908 4 3207942520976 1 0
21.83051 22.31854 0 43 3207942520976 1 0
24.248568 20.365002 -0.3686498 21 3207942523280 1 0
8.228887 8.4104 -1.8305864 23 3207942523280 1 0
10.783937 9.991864 -1.8712951 4 3207942525584 1 0
21.968386 24.758091 0.19237435 14 3207942525584 1 0
22.0291 20.405123 -0.17452015 40 3207942527888 1 0
15.159991 12.720743 -1.8473563 4 3207942530192 1 0
21.899132 22.362658 0.7283224 34 3207942530192 1 0
23.619965 19.81365 0.35891786 27 3207942532496 1 0
12.10789 12.367768 -1.8643454 7 3207942527888 1 0
18.27528 18.656673 -1.8262244 9 3207942532496 1 0
16.414726 15.191337 -1.8258188 7 3207942534800 1 0
21.888878 24.639597 0.9591731 40 3207942534800 1 0
22.146603 20.490036 0.5266438 29 3207942537104 1 0
18.93486 21.308113 -1.8268832 9 3207942537104 1 0
22.935293 19.22227 -1.7427753 12 3207942539408 1 0
22.91536 23.373177 1.9062623 12 3207942539408 1 0
22.457428 20.765491 1.2461313 24 3207942541712 1 0
23.019453 23.47252 -1.5314324 15 3207942541712 1 0
22.955729 21.220057 -1.6383247 15 3207942544016 1 0
25.486708 25.980774 4.468705 13 3207942544016 1 0
25.970871 24.000221 2.8868115 14 3207942546320 1 0
20.53775 23.084843 -1.258832 4 3207942546320 1 0
26.162327 21.900974 -1.1914688 22 3207942548624 1 0
20.66414 21.052467 7.9043336 13 3207942548624 1 0
24.323782 24.773674 -0.8078823 10 3207942550928 1 0
0 0 0 4 3207942571664 1 0
20.719082 23.21377 -0.5431189 4 3207942571664 1 0
28.263527 26.103676 7.0147576 15 3207942550928 1 0
4.5701647 4.641172 -1.8234078 0 3207942573968 1 0
28.99997 26.705786 -1.1473306 16 3207942573968 1 0
6.7033987 6.1712923 -1.8223219 4 3207942576272 1 0
21.89144 22.225103 0 30 3207942576272 1 0
22.141596 18.464056 -0.33563572 19 3207942578576 1 0
8.238776 8.361917 -1.8262821 66 3207942578576 1 0
10.798309 9.935353 -1.8677596 4 3207942580880 1 0
22.057339 24.684238 0.1923976 14 3207942580880 1 0
22.109026 20.336227 -0.17458989 32 3207942583184 1 0
12.1426115 12.316932 -1.8630602 6 3207942583184 1 0
15.201243 12.665198 -1.8469845 4 3207942585488 1 0
21.920902 22.229132 0.72646135 29 3207942585488 1 0
22.109306 18.415333 0.3349838 24 3207942587792 1 0
18.334688 18.587086 -1.8256664 9 3207942587792 1 0
16.458849 15.125854 -1.8248425 7 3207942590096 1 0
22.235662 20.42884 0.52706265 29 3207942592400 1 0
21.862787 24.437887 0.95428586 36 3207942590096 1 0
19.009125 21.241888 -1.8268832 9 3207942592400 1 0
0 0 0 13 3207942594704 1 0
23.06414 23.361244 1.9118435 6 3207942594704 1 0
23.019827 23.309578 -1.5260347 15 3207942597008 1 0
22.500338 20.659943 1.244503 19 3207942597008 1 0
25.649786 25.965086 4.4813795 20 3207942599312 1 0
22.94138 21.058762 -1.6320444 15 3207942599312 1 0
26.048615 23.904028 2.8861606 14 3207942601616 1 0
20.634207 23.030872 -1.2598089 4 3207942601616 1 0
22.177547 18.433962 -1.0070599 100 3207942603920 1 0
25.357605 25.654385 9.6653385 12 3207942603920 1 0
22.49043 20.626743 5.564022 9 3207942606224 1 0
0 0 0 4 3207942626960 1 0
24.457907 24.73696 -0.8094642 5 3207942606224 1 0
20.933662 23.290028 -0.54660934 4 3207942626960 1 0
28.921877 26.447899 -1.1405816 16 3207942629264 1 0
4.5917616 4.630661 -1.8255644 0 3207942629264 1 0
6.7277946 6.150502 -1.8231063 3 3207942631568 1 0
21.870296 22.049156 0 35 3207942631568 1 0
22.168943 18.356043 -0.33507693 47 3207942633872 1 0
8.240077 8.30505 -1.820133 69 3207942633872 1 0
10.821207 9.886894 -1.8657392 4 3207942636176 1 0
21.969454 24.413828 0.1908865 33 3207942636176 1 0
22.303919 20.372227 -0.17556629 20 3207942638480 1 0
12.179928 12.2688265 -1.8622035 6 3207942638480 1 0
15.230017 12.599365 -1.8451257 4 3207942640784 1 0
22.032175 22.18653 0.727578 25 3207942640784 1 0
22.164207 18.330399 0.3348441 94 3207942643088 1 0
18.410706 18.534296 -1.8267826 9 3207942643088 1 0
16.496822 15.0548725 -1.8232151 7 3207942645392 1 0
21.873022 24.278248 0.95102775 32 3207942645392 1 0
22.283201 20.329535 0.5265042 29 3207942647696 1 0
22.213158 18.354565 -1.6781247 73 3207942650000 1 0
40.772873 41.010773 3.3678772 25 3207942650000 1 0
22.62843 20.632439 1.2475967 29 3207942652304 1 0
23.016525 23.144087 -1.520451 15 3207942652304 1 0
22.94685 20.91666 -1.6272296 15 3207942654608 1 0
19.093845 21.187265 -1.8279065 9 3207942647696 1 0
25.782265 25.917614 4.488692 20 3207942654608 1 0
25.713455 23.431648 2.8399456 7 3207942656912 1 0
20.746603 22.994314 -1.2617629 4 3207942656912 1 0
21.064098 21.162365 8.000614 13 3207942659216 1 0
22.195513 18.318266 -1.0049659 92 3207942659216 1 0
24.284653 22.11671 5.9887676 11 3207942661520 1 0
0 0 0 8 3207942661520 1 0
0 0 0 4 3207942682256 1 0
21.0202 23.222744 -0.546749 4 3207942682256 1 0
28.96943 26.306673 -1.1388363 16 3207942684560 1 0
4.596977 4.6037354 -1.8212512 2 3207942684560 1 0
6.7375174 6.116533 -1.8199685 3 3207942686864 1 0
22.037264 22.063562 0 30 3207942686864 1 0
22.210857 18.261251 -0.33475098 100 3207942689168 1 0
8.268836 8.276416 -1.820133 56 3207942689168 1 0
10.831857 9.828046 -1.8616987 4 3207942691472 1 0
21.978626 24.25464 0.19023556 38 3207942691472 1 0
22.234913 20.168755 -0.17447364 28 3207942693776 1 0
12.210989 12.215429 -1.86049 7 3207942693776 1 0
15.236427 12.516456 -1.8406644 4 3207942696080 1 0
22.1679 22.169834 0.72953206 17 3207942696080 1 0
22.208582 18.23882 0.33456472 73 3207942698384 1 0
18.468706 18.465216 -1.8262244 9 3207942698384 1 0
16.530678 14.982095 -1.8212624 7 3207942700688 1 0
21.945482 24.19118 0.9505623 28 3207942700688 1 0
22.417906 20.31217 0.52804 29 3207942702992 1 0
19.206541 21.166082 -1.831744 9 3207942702992 1 0
22.254152 18.260803 -1.6764969 58 3207942705296 1 0
0 0 0 9 3207942705296 1 0
22.793468 20.64099 1.2528073 20 3207942707600 1 0
23.010511 22.980745 -1.5148673 15 3207942707600 1 0
22.943872 20.771421 -1.6219959 15 3207942709904 1 0
25.409557 25.369675 4.4087453 19 3207942709904 1 0
25.784016 23.336163 2.8389692 7 3207942712208 1 0
20.913258 23.021347 -1.2671362 4 3207942712208 1 0
22.238913 18.22774 -1.0041283 88 3207942714512 1 0
21.070055 21.02536 7.9757676 30 3207942714512 1 0
23.710066 23.653234 -0.7793152 14 3207942716816 1 0
24.312609 21.992228 5.977288 5 3207942716816 1 0
0 0 0 4 3207942737552 1 0
21.215616 23.282984 -0.5498206 4 3207942737552 1 0
28.931814 26.097982 -1.133949 8 3207942739856 1 0
0 0 0 11 3207942739856 1 0
6.7635894 6.0994105 -1.8215374 3 3207942742160 1 0
21.911781 21.792913 0 42 3207942742160 1 0
22.2589 18.177378 -0.33456472 100 3207942744464 1 0
8.301842 8.254524 -1.8213629 29 3207942744464 1 0
10.846704 9.776133 -1.8586682 4 3207942746768 1 0
21.84328 23.945215 0.18837574 23 3207942746768 1 0
22.331387 20.121685 -0.17470613 32 3207942749072 1 0
12.240146 12.163656 -1.8587763 6 3207942749072 1 0
15.250077 12.4432 -1.8373183 4 3207942751376 1 0
22.156189 22.01165 0.7267405 38 3207942751376 1 0
22.256544 18.15496 0.33437848 73 3207942753680 1 0
18.524176 18.398245 -1.8256664 9 3207942753680 1 0
16.559528 14.908523 -1.8189842 7 3207942755984 1 0
21.942 24.026749 0.9469551 24 3207942755984 1 0
22.47325 20.227016 0.52776074 29 3207942758288 1 0
19.292778 21.119959 -1.8332789 9 3207942758288 1 0
22.289822 18.166723 -1.6746364 69 3207942760592 1 0
41.076458 40.763405 3.3702028 25 3207942760592 1 0
22.930134 20.626766 1.2565523 30 3207942762896 1 0
23.00717 22.825518 -1.5096558 15 3207942762896 1 0
22.932432 20.623104 -1.6163436 15 3207942765200 1 0
29.005814 28.768848 5.0161424 8 3207942765200 1 0
56.092518 50.4299 6.1576633 28 3207942767504 1 0
21.040731 23.007906 -1.2702299 4 3207942767504 1 0
21.068317 20.884653 7.9488506 13 3207942769808 1 0
23.428253 21.051435 5.7426734 15 3207942772112 1 0
22.283735 18.141273 -1.0034304 88 3207942769808 1 0
23.890627 23.675814 -0.7826651 19 3207942772112 1 0
0 0 0 4 3207942793296 1 0
21.323801 23.238253 -0.5505187 4 3207942793296 1 0
0 0 0 28 3207942795600 1 0
4.595358 4.5398192 -1.8083116 6 3207942795600 1 0
6.7790833 6.070432 -1.8199685 2 3207942797904 1 0
22.016495 21.744081 0 26 3207942797904 1 0
22.307076 18.086487 -0.3343319 100 3207942800208 1 0
0 0 0 13 3207942800208 1 0
10.875133 9.732602 -1.8576581 4 3207942802512 1 0
21.878717 23.815163 0.18795729 32 3207942802512 1 0
22.414143 20.053465 -0.17479911 40 3207942804816 1 0
12.274478 12.112029 -1.8574913 7 3207942804816 1 0
15.235161 12.341593 -1.8302546 4 3207942807120 1 0
22.06873 21.77032 0.72134346 41 3207942807120 1 0
22.295835 18.055885 0.33400595 77 3207942809424 1 0
18.583536 18.326921 -1.8251084 9 3207942809424 1 0
16.591526 14.831063 -1.816706 7 3207942811728 1 0
22.08397 24.010529 0.9493987 12 3207942811728 1 0
22.56591 20.165625 0.52824944 46 3207942814032 1 0
19.35695 21.039469 -1.8322556 6 3207942814032 1 0
22.332685 18.0696 -1.6730084 69 3207942816336 1 0
41.158875 40.555115 3.3650866 25 3207942816336 1 0
23.006618 20.547422 1.2567152 35 3207942818640 1 0
23.00028 22.656298 -1.5038859 15 3207942818640 1 0
24.17227 23.803833 4.165494 5 3207942820944 1 0
22.934563 20.477072 -1.6113194 15 3207942820944 1 0
56.249165 50.207237 6.15506 28 3207942823248 1 0
21.236809 23.05579 -1.2770689 4 3207942823248 1 0
24.712055 24.321236 9.290568 12 3207942825552 1 0
22.326998 18.043514 -1.0024531 84 3207942825552 1 0
23.503881 20.966963 5.7426734 15 3207942827856 1 0
24.03271 23.645752 -0.78452617 14 3207942827856 1 0
21.5405 23.310543 -0.5540092 4 3207942848592 1 0
0 0 0 4 3207942848592 1 0
23.416271 20.82773 -0.91204643 16 3207942850896 1 0
4.611177 4.523751 -1.8083116 6 3207942850896 1 0
6.7943697 6.0415187 -1.8183995 3 3207942853200 1 0
22.049425 21.625086 0 38 3207942853200 1 0
22.35761 17.998478 -0.33414567 100 3207942855504 1 0
8.345334 8.182347 -1.8182883 3 3207942855504 1 0
10.888277 9.676131 -1.8541226 4 3207942857808 1 0
21.834045 23.600649 0.18686464 27 3207942857808 1 0
22.519888 20.006983 -0.1750781 24 3207942860112 1 0
12.322364 12.0746765 -1.858348 7 3207942860112 1 0
15.253321 12.268369 -1.8272804 4 3207942862416 1 0
22.101738 21.651178 0.71994764 37 3207942862416 1 0
22.343142 17.965418 0.33377314 77 3207942864720 1 0
16.640213 14.770411 -1.8163805 7 3207942867024 1 0
21.925838 23.672226 0.93904245 34 3207942867024 1 0
22.654114 20.10266 0.5286683 38 3207942869328 1 0
19.386868 20.924921 -1.8281623 6 3207942869328 1 0
18.624588 18.239607 -1.8228762 9 3207942864720 1 0
22.380058 17.979029 -1.6718457 69 3207942871632 1 0
0 0 0 24 3207942871632 1 0
22.993536 22.492052 -1.4983022 15 3207942873936 1 0
23.38619 20.74013 1.2734866 20 3207942873936 1 0
22.9252 20.32534 -1.6056671 15 3207942876240 1 0
0 0 0 5 3207942876240 1 0
56.41811 50.0053 6.154409 28 3207942878544 1 0
21.434032 23.107517 -1.2840705 4 3207942878544 1 0
22.374256 17.95296 -1.0017551 84 3207942880848 1 0
23.036654 22.514568 8.631098 10 3207942880848 1 0
22.75509 20.1568 5.5424976 14 3207942883152 1 0
23.331383 22.795984 -0.75902975 13 3207942883152 1 0
0 0 0 4 3207942903888 1 0
21.648983 23.26449 -0.5547073 4 3207942903888 1 0
23.599863 20.843626 -0.9163518 33 3207942906192 1 0
4.624213 4.5049057 -1.8072332 7 3207942906192 1 0
6.8096237 6.012474 -1.8168306 3 3207942908496 1 0
21.993273 21.419289 0 46 3207942908496 1 0
22.395697 17.899858 -0.33377314 100 3207942910800 1 0
8.368359 8.1474695 -1.8170584 15 3207942910800 1 0
10.910366 9.627246 -1.8521023 4 3207942913104 1 0
21.698845 23.289528 0.18500483 27 3207942913104 1 0
22.530321 19.87451 -0.17461313 32 3207942915408 1 0
12.347773 12.0145 -1.8557776 7 3207942915408 1 0
15.249902 12.177105 -1.8217038 4 3207942917712 1 0
21.991798 21.391691 0.71389925 45 3207942917712 1 0
18.669044 18.154058 -1.820923 9 3207942920016 1 0
16.662617 14.684905 -1.813126 7 3207942922320 1 0
22.384745 17.868708 0.3334472 77 3207942920016 1 0
21.930614 23.509478 0.93566793 42 3207942922320 1 0
22.713453 20.011396 0.52838904 55 3207942924624 1 0
19.461155 20.855846 -1.8281623 6 3207942924624 1 0
22.75263 22.104729 1.8474256 17 3207942926928 1 0
41.886818 36.881123 2.2737458 21 3207942929232 1 0
22.428373 17.886717 -1.6706829 69 3207942926928 1 0
22.99631 22.334644 -1.4932768 15 3207942929232 1 0
0 0 0 3 3207942931536 1 0
28.927036 25.454424 3.1455505 8 3207942933840 1 0
21.53311 23.048046 -1.2850474 4 3207942933840 1 0
22.946802 20.198318 -1.6021082 15 3207942931536 1 0
22.422974 17.860012 -1.0010571 84 3207942936144 1 0
21.486942 20.849583 8.022355 13 3207942936144 1 0
22.827503 20.074755 5.5424976 9 3207942938448 1 0
23.513752 22.809301 -0.7622866 9 3207942938448 1 0
0 0 0 4 3207942959184 1 0
21.848986 23.307533 -0.5576393 13 3207942959184 1 0
26.36958 23.119055 -1.0206122 20 3207942961488 1 0
4.6433973 4.490672 -1.8083116 6 3207942961488 1 0
6.831441 5.9876738 -1.8168306 2 3207942963792 1 0
21.927225 21.20016 0 63 3207942963792 1 0
22.432175 17.79626 -0.33335406 100 3207942966096 1 0
8.403495 8.122604 -1.8182883 4 3207942966096 1 0
10.933082 9.577371 -1.850082 4 3207942968400 1 0
21.727966 23.152775 0.18453988 27 3207942968400 1 0
12.367971 11.947958 -1.8523506 7 3207942970704 1 0
22.646711 19.83297 -0.17496185 36 3207942970704 1 0
15.259041 12.095251 -1.8176142 4 3207942973008 1 0
22.002037 21.248976 0.71175903 41 3207942973008 1 0
22.432602 17.77641 0.33321437 80 3207942975312 1 0
18.71639 18.07079 -1.8192488 9 3207942975312 1 0
16.699625 14.612553 -1.8114986 7 3207942977616 1 0
21.918089 23.329512 0.93159527 38 3207942977616 1 0
22.756947 19.907297 0.52776074 42 3207942979920 1 0
22.475536 17.795269 -1.6695201 85 3207942982224 1 0
19.54021 20.792753 -1.828674 9 3207942979920 1 0
22.896393 22.088274 1.8527743 17 3207942982224 1 0
23.565456 20.603071 1.2752777 10 3207942984528 1 0
23.08935 20.181187 -1.6071326 15 3207942986832 1 0
24.427984 23.55278 4.166469 17 3207942986832 1 0
22.988174 22.170687 -1.4876931 15 3207942984528 1 0
21.74455 23.11278 -1.2928632 4 3207942989136 1 0
22.456442 17.759968 -0.9998008 84 3207942991440 1 0
21.394838 20.616901 7.9612737 4 3207942991440 1 0
24.864634 21.714695 6.0189013 17 3207942993744 1 0
56.67674 49.524345 6.1443195 28 3207942989136 1 0
28.917192 27.85803 -0.9343408 12 3207942993744 1 0
0 0 0 4 3207943014480 1 0
21.895964 23.202955 -0.5568714 9 3207943014480 1 0
26.434206 23.020788 -1.0201468 13 3207943016784 1 0
4.6499624 4.46721 -1.8050766 5 3207943016784 1 0
6.8483877 5.9623117 -1.8160461 2 3207943019088 1 0
21.948671 21.079906 0 46 3207943019088 1 0
22.478886 17.711384 -0.3331678 100 3207943021392 1 0
8.407752 8.072609 -1.813369 2 3207943021392 1 0
10.938118 9.517302 -1.8455364 3 3207943023696 1 0
21.747608 23.018902 0.18405168 18 3207943023696 1 0
12.382132 11.881645 -1.848495 5 3207943026000 1 0
15.280815 12.029135 -1.8153836 4 3207943028304 1 0
22.090618 21.191544 0.71231735 28 3207943028304 1 0
22.785503 19.81994 -0.1755198 24 3207943026000 1 0
18.713772 17.946907 -1.8131102 9 3207943030608 1 0
16.730782 14.540429 -1.8095459 7 3207943032912 1 0
22.479755 17.690882 0.3330281 77 3207943030608 1 0
22.920744 19.914165 0.52999467 38 3207943035216 1 0
19.596695 20.712059 -1.8273948 6 3207943035216 1 0
22.5106 17.699257 -1.6676596 73 3207943037520 1 0
22.619354 21.673504 1.8244025 49 3207943037520 1 0
22.043392 23.304802 0.9335734 27 3207943032912 1 0
42.92799 37.275097 2.3162444 46 3207943039824 1 0
22.98543 22.01786 -1.4826677 15 3207943039824 1 0
23.239347 20.17319 -1.6127849 15 3207943042128 1 0
28.984217 25.1527 3.1328576 8 3207943044432 1 0
24.416245 23.381636 4.15087 11 3207943042128 1 0
23.01886 24.300667 -1.363694 15 3207943044432 1 0
0 0 0 38 3207943046736 1 0
22.504438 17.673235 -0.99924237 80 3207943046736 1 0
22.831146 19.801384 5.5102115 9 3207943049040 1 0
27.816233 26.614298 -0.895817 11 3207943049040 1 0
23.492086 24.720907 -0.5952667 15 3207943069776 1 0
0 0 0 4 3207943069776 1 0
26.363186 22.79761 -1.0143287 19 3207943072080 1 0
4.6571665 4.4429746 -1.8018417 5 3207943072080 1 0
6.8632236 5.93324 -1.8144772 2 3207943074384 1 0
21.90923 20.895498 0 46 3207943074384 1 0
22.52482 17.620487 -0.33293498 100 3207943076688 1 0
8.415855 8.024119 -1.8090646 2 3207943076688 1 0
10.962265 9.47128 -1.8440211 3 3207943078992 1 0
21.753386 22.864605 0.183424 31 3207943078992 1 0
22.851522 19.737669 -0.17549655 48 3207943081296 1 0
12.39186 11.808172 -1.8437828 5 3207943081296 1 0
15.259953 11.926671 -1.807948 4 3207943083600 1 0
22.089176 21.042591 0.709898 40 3207943083600 1 0
22.503551 17.582754 0.33246934 70 3207943085904 1 0
18.747408 17.853956 -1.81032 9 3207943085904 1 0
16.769363 14.47152 -1.8082441 7 3207943088208 1 0
22.130121 23.233503 0.9338061 23 3207943088208 1 0
23.023428 19.862774 0.5307626 42 3207943090512 1 0
19.663366 20.637747 -1.8268832 6 3207943090512 1 0
22.55021 17.60337 -1.6660318 73 3207943092816 1 0
22.69487 21.594416 1.8244025 11 3207943092816 1 0
22.972399 21.852123 -1.4768978 15 3207943095120 1 0
23.403418 20.172792 -1.6192745 15 3207943097424 1 0
42.906494 36.99453 2.3081028 45 3207943095120 1 0
24.546621 23.342775 4.159157 17 3207943097424 1 0
22.995958 24.107382 -1.3573436 15 3207943099728 1 0
23.454386 20.21078 2.5275059 10 3207943099728 1 0
22.55023 17.582281 -0.9985444 88 3207943102032 1 0
21.091463 20.04539 7.7966647 12 3207943102032 1 0
22.879253 19.703592 5.505189 14 3207943104336 1 0
0 0 0 17 3207943104336 1 0
0 0 0 4 3207943125072 1 0
26.366768 22.640327 -1.0114197 33 3207943127376 1 0
23.91005 24.985493 -0.60364383 10 3207943125072 1 0
6.8809166 5.906692 -1.8136927 2 3207943129680 1 0
4.675443 4.42934 -1.80292 6 3207943127376 1 0
21.894909 20.736376 0 42 3207943129680 1 0
22.570396 17.529488 -0.33270216 100 3207943131984 1 0
8.438073 7.989259 -1.8078349 7 3207943131984 1 0
10.97719 9.417455 -1.8409907 3 3207943134288 1 0
21.788792 22.74232 0.18305203 27 3207943134288 1 0
22.94457 19.678614 -0.17568253 20 3207943136592 1 0
12.392561 11.726576 -1.8377854 5 3207943136592 1 0
15.263733 11.844032 -1.8034867 4 3207943138896 1 0
22.057913 20.866425 0.7065481 44 3207943138896 1 0
22.523705 17.472225 0.331864 70 3207943141200 1 0
18.800919 17.78018 -1.8094829 9 3207943141200 1 0
22.155733 23.098404 0.9314789 15 3207943143504 1 0
23.27486 19.9384 0.53495115 35 3207943145808 1 0
19.743576 20.577625 -1.8276507 6 3207943145808 1 0
16.807667 14.40252 -1.8069422 7 3207943143504 1 0
22.598896 17.514765 -1.6651015 73 3207943148112 1 0
55.121372 52.083187 4.4164724 28 3207943148112 1 0
22.97592 21.703207 -1.4722447 15 3207943150416 1 0
26.401098 22.60318 1.4159621 19 3207943150416 1 0
22.826752 21.556019 3.8549712 10 3207943152720 1 0
23.558664 20.163704 -1.6251361 10 3207943152720 1 0
26.547935 22.715513 2.852313 7 3207943155024 1 0
22.985832 23.928965 -1.3518074 15 3207943155024 1 0
22.592499 17.488777 -0.99770683 84 3207943157328 1 0
22.953875 19.628723 5.506624 14 3207943159632 1 0
21.155685 19.96634 7.7945943 12 3207943157328 1 0
23.28647 21.970932 -0.7449788 13 3207943159632 1 0
26.308859 27.300776 -0.66179526 18 3207943180368 1 0
0 0 0 4 3207943180368 1 0
26.6434 22.71677 -1.0189832 13 3207943182672 1 0
4.6880703 4.4103537 -1.8018417 6 3207943182672 1 0
6.898508 5.8800926 -1.8129083 2 3207943184976 1 0
22.61561 17.438383 -0.33246934 100 3207943187280 1 0
8.439994 7.935389 -1.8023006 44 3207943187280 1 0
22.045832 20.733812 0 29 3207943184976 1 0
10.994893 9.366215 -1.8384653 3 3207943189584 1 0
21.815275 22.611431 0.18261033 27 3207943189584 1 0
23.195837 19.754007 -0.17707738 20 3207943191888 1 0
12.407334 11.658736 -1.8339299 5 3207943191888 1 0
15.286054 11.776096 -1.8012561 4 3207943194192 1 0
22.13353 20.79204 0.70664114 32 3207943194192 1 0
22.559206 17.373972 0.33149147 84 3207943196496 1 0
18.848326 17.700787 -1.8080878 9 3207943196496 1 0
16.842655 14.330845 -1.8053149 7 3207943198800 1 0
21.84178 22.612558 0.9149555 41 3207943198800 1 0
19.831928 20.525806 -1.8291856 9 3207943201104 1 0
23.347363 19.859627 0.53502095 48 3207943201104 1 0
22.647236 17.426031 -1.6641713 65 3207943203408 1 0
0 0 0 24 3207943203408 1 0
26.415892 22.456522 1.4125426 19 3207943205712 1 0
22.972855 21.549067 -1.4672194 14 3207943205712 1 0
23.723263 20.161537 -1.6316258 10 3207943208016 1 0
22.910545 21.484356 3.8564334 15 3207943208016 1 0
23.64656 20.09043 2.5330389 16 3207943210320 1 0
22.64073 17.400064 -0.9971484 88 3207943212624 1 0
22.971964 23.748041 -1.3461083 15 3207943210320 1 0
21.278816 19.942572 7.814265 25 3207943212624 1 0
23.03125 19.55612 5.5087767 9 3207943214928 1 0
23.380531 21.905918 -0.7455371 18 3207943214928 1 0
26.548828 27.35802 -0.66542536 12 3207943235664 1 0
0 0 0 4 3207943235664 1 0
26.73136 22.63177 -1.0193323 33 3207943237968 1 0
4.6977434 4.3887715 -1.7996851 6 3207943237968 1 0
6.909839 5.8485756 -1.8105549 3 3207943240272 1 0
22.01808 20.564547 0 34 3207943240272 1 0
22.656532 17.345736 -0.33218995 100 3207943242576 1 0
8.447075 7.887367 -1.7979963 69 3207943242576 1 0
11.01183 9.315606 -1.83594 3 3207943244880 1 0
21.714386 22.352798 0.18112248 35 3207943244880 1 0
12.423851 11.594553 -1.8305027 5 3207943247184 1 0
