# .PCD v.7 - Point Cloud Data file format
VERSION .7
FIELDS x y z rgb timestamp_ns device_id active
SIZE 4 4 4 4 8 1 1
TYPE F F F F F U U
COUNT 1 1 1 1 1 1 1
WIDTH 966
HEIGHT 1
VIEWPOINT 0 0 0 1 0 0 0
POINTS 966               
DATA ascii
-50.624866 -63.97202 0 28 3204390802904 1 0
-26.75338 -27.737825 -0.44864735 8 3204390805208 1 0
-7.4011984 -9.349715 -1.8551829 2 3204390805208 1 0
-10.190503 -11.651456 -1.9702893 2 3204390807512 1 0
-33.44974 -46.768078 0.33418503 40 3204390807512 1 0
-33.55661 -38.356167 -0.29619837 9 3204390809816 1 0
-10.28712 -12.98765 -1.7846652 15 3204390809816 1 0
-13.230283 -13.705146 -1.7782059 20 3204390812120 1 0
-50.606148 -63.871967 1.8962251 28 3204390812120 1 0
-51.319115 -53.14559 0.8600898 23 3204390814424 1 0
-18.972519 -23.938791 -2.1359432 4 3204390814424 1 0
-16.66695 -19.034035 -2.0653558 25 3204390816728 1 0
-33.627075 -38.391617 0.89084065 20 3204390819032 1 0
-50.887558 -71.06152 2.5436764 38 3204390816728 1 0
-14.0799465 -19.655787 -1.5495633 2 3204390819032 1 1
-26.607687 -27.53062 -2.2297478 5 3204390821336 1 0
-52.529354 -66.22013 4.9225144 28 3204390821336 1 0
-33.50484 -38.229618 2.0710237 37 3204390823640 1 0
-31.201847 -39.32227 -2.338282 9 3204390823640 1 0
-23.559639 -26.87408 -1.8729992 44 3204390825944 1 0
-52.64762 -66.32959 10.397892 28 3204390825944 1 0
-54.17182 -61.774746 6.7073617 28 3204390828248 1 0
-14.1854515 -19.778757 -0.99162936 2 3204390828248 1 1
-25.838087 -26.70322 -1.2975633 19 3204390830552 1 0
0 0 0 9 3204390830552 1 0
0 0 0 29 3204390832856 1 0
-40.078156 -50.44837 -1.4992628 32 3204390832856 1 0
-2.516682 -2.8606486 -1.7766871 5 3204390853592 1 0
-33.651176 -46.761646 -1.0056076 20 3204390853592 1 0
-23.661861 -26.887953 -1.042372 7 3204390855896 1 0
-3.977491 -4.991742 -1.7867455 4 3204390855896 1 0
-6.100749 -6.9305005 -1.8466405 2 3204390858200 1 0
-52.358715 -65.69046 0 28 3204390858200 1 0
-48.94594 -50.39377 -0.81785595 23 3204390860504 1 0
-7.438718 -9.330005 -1.8564126 2 3204390860504 1 0
-10.236358 -11.621768 -1.9712995 2 3204390862808 1 0
-33.69463 -46.764618 0.3349987 13 3204390862808 1 0
0 0 0 66 3204390865112 1 0
-10.372075 -13.001404 -1.7915194 23 3204390865112 1 0
0 0 0 84 3204390867416 1 0
-51.25615 -52.710922 0.8559456 22 3204390869720 1 0
-52.447594 -65.72349 1.9566162 28 3204390867416 1 0
-19.055964 -23.87242 -2.1359432 4 3204390869720 1 0
-16.77548 -19.023584 -2.070563 21 3204390872024 1 0
-51.07682 -70.80239 2.5407672 38 3204390872024 1 0
-33.81644 -38.336987 0.8923066 20 3204390874328 1 0
-14.241907 -19.735998 -1.5597965 2 3204390874328 1 1
-26.6897 -27.423267 -2.228585 5 3204390876632 1 0
-52.43615 -65.6308 4.8922825 28 3204390876632 1 0
-54.58949 -61.850674 3.360956 29 3204390878936 1 0
-31.438698 -39.337967 -2.345727 9 3204390878936 1 0
-23.60836 -26.740772 -1.8694403 14 3204390881240 1 0
-52.576385 -65.76708 10.33842 28 3204390881240 1 0
-54.521713 -61.73768 6.72396 28 3204390883544 1 0
-14.380799 -19.904058 -1.0004221 2 3204390883544 1 1
-26.092949 -26.778927 -1.30566 13 3204390885848 1 0
0 0 0 9 3204390885848 1 0
0 0 0 29 3204390888152 1 0
0 0 0 6 3204390888152 1 0
-2.5314603 -2.8572733 -1.7800682 4 3204390908888 1 0
-51.238903 -70.67983 -1.5238045 29 3204390908888 1 0
-23.697233 -26.739363 -1.0398121 6 3204390911192 1 0
-3.999713 -4.983836 -1.788902 5 3204390911192 1 0
-6.1197 -6.9032927 -1.8450714 2 3204390913496 1 0
-52.31726 -65.17042 0 28 3204390913496 1 0
-49.278164 -50.382732 -0.82046354 23 3204390915800 1 0
-10.27423 -11.582997 -1.9707944 2 3204390918104 1 0
-51.235268 -70.58836 0.50693834 38 3204390918104 1 0
0 0 0 9 3204390920408 1 0
-10.464725 -13.024024 -1.7996588 17 3204390920408 1 0
-7.4737153 -9.307063 -1.8570276 2 3204390915800 1 0
-13.476087 -13.766131 -1.7982818 1 3204390922712 1 0
-52.431183 -65.23455 1.947497 28 3204390922712 1 0
-49.88673 -50.945618 0.8301024 20 3204390925016 1 0
-19.13918 -23.805756 -2.1359432 4 3204390925016 1 0
-16.870901 -18.997702 -2.0741432 6 3204390927320 1 0
-51.206127 -70.461945 2.534949 38 3204390927320 1 0
-51.6741 -58.171257 1.3581463 54 3204390929624 1 0
-14.416335 -19.831463 -1.5713089 2 3204390929624 1 1
-26.765696 -27.309973 -2.226957 5 3204390931928 1 0
-52.402065 -65.1207 4.867864 28 3204390931928 1 0
-54.932503 -61.80313 3.3687718 29 3204390934232 1 0
-31.603382 -39.262222 -2.3477743 9 3204390934232 1 0
-23.653786 -26.604465 -1.8656721 14 3204390936536 1 0
-52.534237 -65.246086 10.285285 28 3204390936536 1 0
-54.866707 -61.69296 6.7399073 28 3204390938840 1 0
-32.29655 -44.373623 -2.2359695 11 3204390938840 1 0
-26.359852 -26.864594 -1.3143151 20 3204390941144 1 0
0 0 0 9 3204390941144 1 0
-40.632626 -50.419556 -1.5068002 65 3204390943448 1 0
-2.534178 -2.8403044 -1.7749968 5 3204390964184 1 0
-51.37445 -70.34874 -1.5205234 29 3204390964184 1 0
0 0 0 29 3204390943448 1 0
-23.689259 -26.543125 -1.0353903 6 3204390966488 1 0
-4.014664 -4.9668484 -1.7878238 4 3204390966488 1 0
-6.148984 -6.8877406 -1.8466405 2 3204390968792 1 0
-52.237606 -64.60792 0 28 3204390968792 1 0
-49.605293 -50.364292 -0.822978 23 3204390971096 1 0
-7.5011864 -9.274773 -1.8557978 2 3204390971096 1 0
-10.309313 -11.541144 -1.9697843 2 3204390973400 1 0
-51.36095 -70.244415 0.50575274 38 3204390973400 1 0
-51.450348 -57.58115 -0.44879597 26 3204390975704 1 0
0 0 0 4 3204390975704 1 0
0 0 0 14 3204390978008 1 0
-52.293747 -64.60045 1.9340044 28 3204390978008 1 0
-51.196022 -51.91891 0.8488678 22 3204390980312 1 0
-19.227182 -23.745005 -2.1365013 4 3204390980312 1 0
-51.39273 -70.20212 2.53204 38 3204390982616 1 0
-16.942429 -18.94464 -2.074794 6 3204390982616 1 0
-51.67152 -57.76101 1.3527709 54 3204390984920 1 0
-19.961744 -27.259289 -2.1653464 4 3204390984920 1 0
-26.970259 -27.327219 -2.2360268 5 3204390987224 1 0
-52.380146 -64.63026 4.844841 28 3204390987224 1 0
-55.26252 -61.73906 3.3757734 29 3204390989528 1 0
-31.830826 -39.263405 -2.3544748 9 3204390989528 1 0
-23.70654 -26.477098 -1.862532 29 3204390991832 1 0
-52.5016 -64.74161 10.234588 28 3204390991832 1 0
-55.209393 -61.643612 6.7555294 28 3204390994136 1 0
-32.44652 -44.25417 -2.2356439 11 3204390994136 1 0
-26.591143 -26.911753 -1.3211553 6 3204390996440 1 0
0 0 0 9 3204390996440 1 0
0 0 0 29 3204390998744 1 0
-40.97974 -50.488544 -1.5131277 99 3204390998744 1 0
-52.558197 -71.444725 -1.5481681 29 3204391019480 1 0
-2.548923 -2.8368342 -1.7783777 5 3204391019480 1 0
-23.829876 -26.5138 -1.0374848 6 3204391021784 1 0
-4.034409 -4.9557915 -1.788902 4 3204391021784 1 0
-6.172989 -6.866235 -1.8466405 2 3204391024088 1 0
-52.202656 -64.10571 0 28 3204391024088 1 0
-49.944157 -50.35554 -0.82567877 23 3204391026392 1 0
-7.538508 -9.254661 -1.8570276 2 3204391026392 1 0
-10.341575 -11.496238 -1.9682691 2 3204391028696 1 0
-51.605835 -70.064705 0.50575274 38 3204391028696 1 0
-51.466415 -57.19604 -0.4471919 25 3204391031000 1 0
-10.650871 -13.067794 -1.8159375 2 3204391031000 1 0
-52.25613 -64.095184 1.9243269 28 3204391033304 1 0
-13.70935 -13.810214 -1.8164989 11 3204391033304 1 0
-50.985203 -51.34538 0.84239537 21 3204391035608 1 0
-16.968435 -18.840946 -2.0699122 3 3204391037912 1 0
-19.32256 -23.693205 -2.1378963 4 3204391035608 1 0
-51.661198 -70.05448 2.5332036 38 3204391037912 1 0
-51.669384 -57.35446 1.3474654 53 3204391040216 1 0
-26.961332 -27.128113 -2.2274222 5 3204391042520 1 0
-52.332718 -64.11292 4.819725 28 3204391042520 1 0
-20.047297 -27.176594 -2.164323 4 3204391040216 1 0
-55.68374 -61.774364 3.3883111 29 3204391044824 1 0
-31.99801 -39.189198 -2.3567083 9 3204391044824 1 0
-23.758694 -26.349686 -1.8593918 21 3204391047128 1 0
-52.4485 -64.21663 10.180477 28 3204391047128 1 0
-55.54973 -61.58966 6.770826 28 3204391049432 1 0
-32.63404 -44.18565 -2.2379234 11 3204391049432 1 0
-26.92459 -27.059637 -1.3330212 21 3204391051736 1 0
0 0 0 29 3204391054040 1 0
0 0 0 9 3204391051736 1 0
-2.561242 -2.8306077 -1.7800682 4 3204391074776 1 0
-41.244312 -50.453552 -1.5163845 49 3204391054040 1 0
-51.82146 -69.93053 -1.5192668 29 3204391074776 1 0
-23.836422 -26.335596 -1.0337613 6 3204391077080 1 0
-6.196919 -6.8446455 -1.8466405 2 3204391079384 1 0
-4.0516834 -4.9416785 -1.788902 4 3204391077080 1 0
-50.30052 -50.362015 -0.8286589 24 3204391081688 1 0
-7.56826 -9.225234 -1.8564126 2 3204391081688 1 0
-52.157234 -63.595257 0 28 3204391079384 1 0
-10.384305 -11.46301 -1.9687742 4 3204391083992 1 0
-51.850094 -69.88414 0.50575274 38 3204391083992 1 0
-51.399853 -56.722603 -0.44489038 25 3204391086296 1 0
-10.744366 -13.088942 -1.8240769 15 3204391086296 1 0
-52.235928 -63.615692 1.915394 57 3204391088600 1 0
-51.107555 -51.11053 0.84146404 21 3204391090904 1 0
-19.397549 -23.616364 -2.1370592 4 3204391090904 1 0
-17.044811 -18.793413 -2.071214 3 3204391093208 1 0
-13.861653 -13.866492 -1.8302546 1 3204391088600 1 0
-51.852966 -69.80311 2.5306437 38 3204391093208 1 0
-51.627422 -56.907166 1.3411825 53 3204391095512 1 0
-20.153942 -27.122469 -2.1656022 4 3204391095512 1 0
-27.061512 -27.03948 -2.2278874 5 3204391097816 1 0
-52.302605 -63.62139 4.796469 28 3204391097816 1 0
-55.971565 -61.659515 3.3927076 29 3204391100120 1 0
-32.195522 -39.151333 -2.3611753 9 3204391100120 1 0
-23.829044 -26.242933 -1.8577172 29 3204391102424 1 0
-52.417603 -63.72348 10.131242 28 3204391102424 1 0
-55.871597 -61.513424 6.7838445 28 3204391104728 1 0
-32.87873 -44.193317 -2.244111 11 3204391104728 1 0
-27.185822 -27.1321 -1.3412575 14 3204391107032 1 0
0 0 0 9 3204391107032 1 0
0 0 0 29 3204391109336 1 0
-41.529472 -50.442028 -1.5203857 33 3204391109336 1 0
-2.5686655 -2.8189704 -1.7783777 4 3204391130072 1 0
-52.041325 -69.71716 -1.5185688 29 3204391130072 1 0
-23.968607 -26.296556 -1.0355066 20 3204391132376 1 0
-4.066456 -4.9245353 -1.7878238 4 3204391132376 1 0
-6.2287016 -6.831668 -1.8489938 2 3204391134680 1 0
-52.126713 -63.10749 0 28 3204391134680 1 0
-50.683067 -50.39199 -0.8320581 24 3204391136984 1 0
-7.605451 -9.204854 -1.8576425 2 3204391136984 1 0
-10.429604 -11.432555 -1.9697843 4 3204391139288 1 0
-52.033855 -69.62262 0.50517154 38 3204391139288 1 0
-51.357574 -56.279877 -0.44282132 25 3204391141592 1 0
0 0 0 8 3204391143896 1 0
-52.195175 -63.115555 1.9058095 57 3204391143896 1 0
-10.825465 -13.094269 -1.8300743 18 3204391141592 1 0
-51.16078 -50.807808 0.83941525 21 3204391146200 1 0
-19.495127 -23.566956 -2.1387334 4 3204391146200 1 0
-17.11031 -18.7338 -2.071214 3 3204391148504 1 0
-52.125053 -69.660095 2.53204 38 3204391148504 1 0
-51.572178 -56.449055 1.3346205 52 3204391150808 1 0
-20.303513 -27.125456 -2.1714864 4 3204391150808 1 0
-27.17274 -26.96173 -2.2292826 5 3204391153112 1 0
-52.26461 -63.124702 4.7727485 28 3204391153112 1 0
-32.43648 -39.16488 -2.3688064 9 3204391155416 1 0
-56.310497 -61.599457 3.4001977 29 3204391155416 1 0
-23.969025 -26.212656 -1.8614852 21 3204391157720 1 0
-52.3991 -63.249676 10.084932 28 3204391157720 1 0
-56.400795 -61.66221 6.821923 28 3204391160024 1 0
-27.476278 -27.231205 -1.3508897 21 3204391162328 1 0
-33.162224 -44.250984 -2.2529037 11 3204391160024 1 0
0 0 0 29 3204391164632 1 0
-41.830368 -50.447594 -1.5249454 16 3204391164632 1 0
-2.57849 -2.809987 -1.7783777 4 3204391185368 1 0
-50.712444 -67.44452 -1.4729133 29 3204391185368 1 0
0 0 0 9 3204391162328 1 0
-24.003475 -26.150873 -1.033063 6 3204391187672 1 0
-4.0836205 -4.9103107 -1.7878238 4 3204391187672 1 0
-6.247205 -6.8041053 -1.8474249 2 3204391189976 1 0
-50.254147 -60.409744 0 27 3204391189976 1 0
-51.32259 -50.672825 -0.83964807 24 3204391192280 1 0
-7.632479 -9.1721735 -1.8564126 2 3204391192280 1 0
-50.736897 -67.39538 0.49029303 40 3204391194584 1 0
-10.490923 -11.419456 -1.9738249 4 3204391194584 1 0
-51.31825 -55.84403 -0.4407988 24 3204391196888 1 0
-10.924546 -13.120583 -1.8390706 8 3204391196888 1 0
-14.108391 -13.917621 -1.8499588 17 3204391199192 1 0
-52.146454 -62.610336 1.896039 28 3204391199192 1 0
-51.32643 -50.61768 0.839229 42 3204391201496 1 0
-19.551731 -23.468105 -2.1359432 4 3204391201496 1 0
-17.180996 -18.67983 -2.0718648 3 3204391203800 1 0
-50.798782 -67.39594 2.456172 40 3204391203800 1 0
-51.53874 -56.018517 1.3286866 52 3204391206104 1 0
-20.347607 -26.987484 -2.1661139 4 3204391206104 1 0
-27.26669 -26.866714 -2.2292826 5 3204391208408 1 0
-52.234016 -62.641323 4.749958 28 3204391208408 1 0
-56.508938 -61.38488 3.3992207 29 3204391210712 1 0
-24.192965 -26.272814 -1.8717431 22 3204391213016 1 0
-32.501335 -38.9655 -2.363595 9 3204391210712 1 0
-52.357586 -62.752396 10.034721 28 3204391213016 1 0
-33.32612 -44.147717 -2.253555 11 3204391215320 1 0
0 0 0 22 3204391217624 1 0
-56.588684 -61.435635 6.8186684 28 3204391215320 1 0
0 0 0 9 3204391217624 1 0
-42.180508 -50.50999 -1.5312729 17 3204391219928 1 0
-2.5932035 -2.8062942 -1.7817585 4 3204391240664 1 0
0 0 0 29 3204391219928 1 0
-52.08971 -68.77509 -1.5059333 29 3204391240664 1 0
-24.15432 -26.13152 -1.035623 6 3204391242968 1 0
-4.1032095 -4.898979 -1.788902 2 3204391242968 1 0
-6.270918 -6.782257 -1.8474249 2 3204391245272 1 0
-51.93151 -61.98471 0 28 3204391245272 1 0
-7.6593723 -9.139417 -1.8551829 2 3204391247576 1 0
-51.764767 -50.753784 -0.8439785 12 3204391247576 1 0
-10.498384 -11.347814 -1.967764 2 3204391249880 1 0
-52.50172 -69.23535 0.5050088 38 3204391249880 1 0
-51.319977 -55.456116 -0.4391482 24 3204391252184 1 0
0 0 0 4 3204391252184 1 0
0 0 0 28 3204391254488 1 0
-52.117977 -62.133804 1.887106 57 3204391254488 1 0
-51.69141 -50.622913 0.8423022 43 3204391256792 1 0
0 0 0 251 3204391259096 1 0
-19.63866 -23.405827 -2.1365013 4 3204391256792 1 0
-51.535545 -55.624107 1.3235905 51 3204391261400 1 0
-52.42635 -69.05248 2.5231965 39 3204391259096 1 0
-20.43686 -26.909935 -2.1656022 4 3204391261400 1 0
-27.360306 -26.771372 -2.2292826 5 3204391263704 1 0
-52.208393 -62.168106 4.727865 28 3204391263704 1 0
-56.69841 -61.160873 3.3977554 29 3204391266008 1 0
-32.752804 -38.989487 -2.3719707 9 3204391266008 1 0
-24.417614 -26.331726 -1.882001 15 3204391268312 1 0
-52.313244 -62.256176 9.984511 28 3204391268312 1 0
-33.692898 -44.311085 -2.267884 11 3204391270616 1 0
-56.797367 -61.231884 6.8180175 28 3204391270616 1 0
-28.017363 -27.382399 -1.3680602 36 3204391272920 1 0
0 0 0 9 3204391272920 1 0
0 0 0 29 3204391275224 1 0
-42.49813 -50.53077 -1.5363908 17 3204391275224 1 0
-2.6029835 -2.7972252 -1.7817585 4 3204391295960 1 0
-52.086884 -68.27487 -1.4989523 29 3204391295960 1 0
-24.637672 -26.468483 -1.0523791 14 3204391298264 1 0
-4.120285 -4.8846264 -1.788902 4 3204391298264 1 0
-6.2945538 -6.7603264 -1.8474249 2 3204391300568 1 0
-52.00053 -61.628803 0 28 3204391300568 1 0
-54.133907 -52.707306 -0.8796002 26 3204391302872 1 0
-7.6963267 -9.118666 -1.8564126 2 3204391302872 1 0
-10.532522 -11.305292 -1.9667538 2 3204391305176 1 0
-52.507565 -68.743324 0.5027538 38 3204391305176 1 0
-51.278717 -55.024982 -0.4371489 24 3204391307480 1 0
-11.131349 -13.180725 -1.858348 2 3204391307480 1 0
-14.365075 -13.974304 -1.8707782 3 3204391309784 1 0
-52.110035 -61.685734 1.8790103 57 3204391309784 1 0
-52.028374 -50.598328 0.8449098 21 3204391312088 1 0
-19.720243 -23.337133 -2.1365013 4 3204391312088 1 0
0 0 0 250 3204391314392 1 0
-52.41204 -68.535576 2.5109785 39 3204391314392 1 0
-51.483845 -55.180695 1.3173076 51 3204391316696 1 0
-20.540369 -26.851114 -2.1666255 4 3204391316696 1 0
-27.459316 -26.681269 -2.2297478 5 3204391319000 1 0
-52.551437 -62.134884 4.73926 28 3204391319000 1 0
-56.821556 -60.866177 3.392382 29 3204391321304 1 0
-23.391651 -27.64927 -1.6870325 18 3204391321304 1 0
-24.719305 -26.471134 -1.8981204 15 3204391323608 1 0
-52.52511 -62.067127 9.983537 28 3204391323608 1 0
-56.87469 -60.887577 6.8017445 28 3204391325912 1 0
-28.336529 -27.501595 -1.3789489 15 3204391328216 1 0
-33.86924 -44.221764 -2.2693496 11 3204391325912 1 0
0 0 0 9 3204391328216 1 0
0 0 0 29 3204391330520 1 0
-42.80607 -50.537735 -1.5411365 17 3204391330520 1 0
-2.607774 -2.7828314 -1.7783777 4 3204391351256 1 0
-52.078762 -67.77235 -1.4919015 29 3204391351256 1 0
-24.877573 -26.539843 -1.0586628 21 3204391353560 1 0
-4.144792 -4.879021 -1.792137 5 3204391353560 1 0
-6.323479 -6.7440357 -1.8489938 2 3204391355864 1 0
-51.95373 -61.139053 0 28 3204391355864 1 0
-56.445408 -54.57537 -0.91405785 40 3204391358168 1 0
-7.7332296 -9.097768 -1.8576425 2 3204391358168 1 0
-10.561061 -11.256883 -1.9647336 2 3204391360472 1 0
-52.481346 -68.214066 0.50021976 39 3204391360472 1 0
-25.196009 -26.848234 -0.21399467 15 3204391362776 1 0
-11.228823 -13.202378 -1.8669157 15 3204391362776 1 0
0 0 0 12 3204391365080 1 0
-52.05037 -61.180607 1.8691468 57 3204391365080 1 0
-52.728306 -50.9221 0.85338455 45 3204391367384 1 0
-19.801584 -23.268154 -2.1365013 4 3204391367384 1 0
-13.024925 -13.866903 -1.5530851 88 3204391369688 1 0
-51.44337 -54.752895 1.3113738 25 3204391371992 1 0
-52.4094 -68.03862 2.4994588 39 3204391369688 1 0
-20.629099 -26.772928 -2.1661139 4 3204391371992 1 0
-27.667229 -26.696165 -2.23905 5 3204391374296 1 0
-52.871582 -62.072666 4.748563 28 3204391374296 1 0
-56.97618 -60.60631 3.3889625 29 3204391376600 1 0
-23.410282 -27.476206 -1.6814487 18 3204391376600 1 0
-25.027737 -26.614574 -1.9146587 7 3204391378904 1 0
-52.883083 -62.049595 10.010348 28 3204391378904 1 0
-56.98308 -60.57833 6.789377 28 3204391381208 1 0
-34.11616 -44.22352 -2.275537 11 3204391381208 1 0
-28.587786 -27.552317 -1.3864872 22 3204391383512 1 0
0 0 0 9 3204391383512 1 0
0 0 0 29 3204391385816 1 0
-23.647747 -27.722227 -0.8478949 5 3204391385816 1 0
-2.614984 -2.771075 -1.7766871 4 3204391406552 1 0
-52.050636 -67.24857 -1.4843621 29 3204391406552 1 0
-25.263731 -26.76395 -1.0711135 43 3204391408856 1 0
-4.1567893 -4.8586698 -1.7899804 4 3204391408856 1 0
-6.344289 -6.7190695 -1.8482094 2 3204391411160 1 0
-51.922356 -60.671658 0 28 3204391411160 1 0
-56.511505 -54.25889 -0.9120556 40 3204391413464 1 0
-7.7649393 -9.070719 -1.8576425 2 3204391413464 1 0
-10.597566 -11.217065 -1.9642285 2 3204391415768 1 0
-52.459423 -67.69531 0.49775553 39 3204391415768 1 0
-25.306057 -26.777563 -0.21413414 5 3204391418072 1 0
-11.321408 -13.21747 -1.8746268 10 3204391418072 1 0
-14.617483 -14.02256 -1.8908541 12 3204391420376 1 0
-52.000824 -60.691837 1.8597485 56 3204391420376 1 0
-51.644222 -49.527912 0.8330359 20 3204391422680 1 0
-19.872297 -23.186773 -2.1353853 4 3204391422680 1 0
0 0 0 19 3204391424984 1 0
-52.327957 -67.44459 2.4843316 40 3204391424984 1 0
-51.43078 -54.35801 1.3062079 25 3204391427288 1 0
-20.781166 -26.77644 -2.1722538 4 3204391427288 1 0
-27.740065 -26.580088 -2.237422 5 3204391429592 1 0
-57.113205 -60.328693 3.384566 29 3204391431896 1 0
-53.228333 -62.0514 4.761121 28 3204391429592 1 0
-23.464418 -27.345804 -1.6784707 12 3204391431896 1 0
-53.210545 -61.994164 10.031309 28 3204391434200 1 0
-25.469305 -26.8954 -1.9412453 8 3204391434200 1 0
-57.172256 -60.355896 6.786773 28 3204391436504 1 0
0 0 0 21 3204391438808 1 0
-34.39784 -44.26827 -2.2840042 11 3204391436504 1 0
0 0 0 9 3204391438808 1 0
0 0 0 29 3204391441112 1 0
-23.598444 -27.469646 -0.842684 5 3204391441112 1 0
-2.63463 -2.7724419 -1.783449 4 3204391462296 1 0
-25.401075 -26.721968 -1.0729753 22 3204391464600 1 0
-39.427113 -50.573475 -1.1193275 14 3204391462296 1 0
-4.1762385 -4.8470483 -1.7910587 4 3204391464600 1 0
-6.370407 -6.699725 -1.8489938 2 3204391466904 1 0
-51.86746 -60.18099 0 28 3204391466904 1 0
-59.957214 -57.166367 -0.96444046 14 3204391469208 1 0
-7.796555 -9.043558 -1.8576425 2 3204391469208 1 0
-10.636656 -11.180004 -1.9642285 4 3204391471512 1 0
-52.350845 -67.07035 0.49450088 39 3204391471512 1 0
-51.171013 -53.7693 -0.43140674 23 3204391473816 1 0
-11.429821 -13.250144 -1.8849081 3 3204391473816 1 0
-14.741317 -14.042873 -1.9005203 3 3204391476120 1 0
-51.96679 -60.225353 1.8510015 56 3204391476120 1 0
-51.903683 -49.430088 0.83443284 21 3204391478424 1 0
-19.963543 -23.129347 -2.1365013 4 3204391478424 1 0
0 0 0 19 3204391480728 1 0
-52.309483 -66.93703 2.4723463 40 3204391480728 1 0
-51.377434 -53.923344 1.3000647 24 3204391483032 1 0
-20.874506 -26.703737 -2.1722538 4 3204391483032 1 0
-27.821106 -26.472084 -2.236492 5 3204391485336 1 0
-53.55425 -61.992134 4.770888 28 3204391485336 1 0
-57.293106 -60.097145 3.382775 29 3204391487640 1 0
-23.510092 -27.20629 -1.6749343 12 3204391487640 1 0
-26.577505 -27.870142 -2.0182838 17 3204391489944 1 0
-53.486336 -61.87713 10.042521 28 3204391489944 1 0
-57.390846 -60.164616 6.78775 28 3204391492248 1 0
-24.760403 -23.53236 -1.1928648 73 3204391494552 1 0
-34.67039 -44.299 -2.2918198 11 3204391492248 1 0
0 0 0 9 3204391494552 1 0
0 0 0 29 3204391496856 1 0
-23.720352 -27.417347 -0.8436145 5 3204391496856 1 0
-2.6392787 -2.7579901 -1.7800682 4 3204391517592 1 0
-39.721966 -50.58653 -1.1226784 14 3204391517592 1 0
-25.74264 -26.893461 -1.0834478 75 3204391519896 1 0
-4.1905375 -4.8295927 -1.7899804 5 3204391519896 1 0
-6.38271 -6.6663013 -1.845856 2 3204391522200 1 0
-51.79231 -59.674828 0 27 3204391522200 1 0
-60.05517 -56.86585 -0.96285725 14 3204391524504 1 0
-7.827682 -9.01663 -1.8576425 2 3204391524504 1 0
-10.677713 -11.146294 -1.9647336 4 3204391526808 1 0
-52.328617 -66.5695 0.4921296 40 3204391526808 1 0
-51.160774 -53.39192 -0.42977938 23 3204391529112 1 0
-11.532417 -13.277056 -1.8943326 3 3204391529112 1 0
0 0 0 7 3204391531416 1 0
-51.919678 -59.758347 1.8420684 55 3204391531416 1 0
-52.474796 -49.63596 0.8409053 21 3204391533720 1 0
-20.04181 -23.061562 -2.1365013 4 3204391533720 1 0
-13.584493 -14.165778 -1.6022292 5 3204391536024 1 0
-52.282845 -66.439644 2.4604774 40 3204391536024 1 0
-20.914728 -26.57072 -2.1671374 4 3204391538328 1 0
-25.468838 -24.072054 -2.0409122 4 3204391540632 1 0
-51.37282 -53.55705 1.2953874 24 3204391538328 1 0
-53.88187 -61.951237 4.7815857 28 3204391540632 1 0
-57.412697 -59.822365 3.378053 29 3204391542936 1 0
-23.605822 -27.133863 -1.6753066 6 3204391542936 1 0
-26.398684 -27.499454 -1.9977682 17 3204391545240 1 0
-53.829365 -61.858154 10.068357 28 3204391545240 1 0
-57.464912 -59.8454 6.773104 28 3204391547544 1 0
-34.81646 -44.18429 -2.2918198 11 3204391547544 1 0
-24.764952 -23.382235 -1.1893748 67 3204391549848 1 0
0 0 0 9 3204391549848 1 0
0 0 0 29 3204391552152 1 0
-23.63136 -27.134514 -0.83728695 5 3204391552152 1 0
-2.6479301 -2.7496848 -1.7800682 4 3204391572888 1 0
-39.957565 -50.558758 -1.1248425 45 3204391572888 1 0
-4.2108617 -4.822115 -1.792137 5 3204391575192 1 0
-6.412076 -6.6544104 -1.8482094 2 3204391577496 1 0
-25.858097 -26.843567 -1.0847279 22 3204391575192 1 0
-60.21101 -56.648293 -0.96243817 28 3204391579800 1 0
-51.721607 -59.211315 0 27 3204391577496 1 0
-7.851357 -8.985527 -1.8564126 2 3204391579800 1 0
-10.705385 -11.103189 -1.9632183 4 3204391582104 1 0
-52.280186 -66.06771 0.48966536 40 3204391582104 1 0
-51.109146 -52.992126 -0.42789632 22 3204391584408 1 0
-11.648811 -13.323329 -1.9063275 13 3204391584408 1 0
-15.005951 -14.105086 -1.9224551 12 3204391586712 1 0
-33.528797 -38.33675 1.1851174 17 3204391586712 1 0
-52.952824 -49.75863 0.8459342 21 3204391589016 1 0
-20.107164 -22.9834 -2.1353853 4 3204391589016 1 0
-13.631393 -14.120652 -1.6022292 5 3204391591320 1 0
-52.23472 -65.927444 2.4479103 40 3204391591320 1 0
-51.295715 -53.120586 1.288965 24 3204391593624 1 0
-25.450586 -23.893421 -2.0330052 4 3204391595928 1 0
-33.880714 -38.691406 2.9950898 18 3204391595928 1 0
-21.05289 -26.563328 -2.1722538 4 3204391593624 1 0
-57.57856 -59.59051 3.3759363 29 3204391598232 1 0
-23.692177 -27.047873 -1.6749343 6 3204391598232 1 0
-26.897429 -27.828793 -2.0283322 26 3204391600536 1 0
-57.65293 -59.631027 6.7711515 28 3204391602840 1 0
-54.159935 -61.811954 10.090781 28 3204391600536 1 0
-35.091816 -44.221313 -2.2999613 11 3204391602840 1 0
-24.784166 -23.23931 -1.1864433 67 3204391605144 1 0
0 0 0 9 3204391605144 1 0
0 0 0 29 3204391607448 1 0
-24.6482 -28.104649 -0.86985534 5 3204391607448 1 0
-2.6579905 -2.7399614 -1.7800682 4 3204391628184 1 0
-26.192593 -26.992893 -1.0946186 22 3204391630488 1 0
-40.316998 -50.630974 -1.1297292 15 3204391628184 1 0
-4.230982 -4.8096027 -1.7932153 4 3204391630488 1 0
-6.433498 -6.628237 -1.8474249 2 3204391632792 1 0
-33.830772 -38.44669 0 29 3204391632792 1 0
-25.494526 -23.812534 -0.4061341 7 3204391635096 1 0
-7.88907 -8.962968 -1.8576425 4 3204391635096 1 0
-10.745365 -11.064503 -1.9632183 4 3204391637400 1 0
-52.18404 -65.45959 0.48655015 40 3204391637400 1 0
-51.10967 -52.61308 -0.4263155 22 3204391639704 1 0
-11.736027 -13.326164 -1.9127533 12 3204391639704 1 0
-15.134937 -14.124674 -1.9324931 3 3204391642008 1 0
0 0 0 8 3204391642008 1 0
-53.477814 -49.89432 0.85147536 22 3204391644312 1 0
-20.183659 -22.905617 -2.1348271 4 3204391644312 1 0
-13.689757 -14.080764 -1.6032056 5 3204391646616 1 0
-52.146614 -65.338524 2.4328995 41 3204391646616 1 0
-51.24613 -52.695255 1.2830311 24 3204391648920 1 0
-21.156603 -26.501234 -2.1732771 4 3204391648920 1 0
-25.785725 -24.037865 -2.0530052 4 3204391651224 1 0
-34.00084 -38.553947 2.9936945 18 3204391651224 1 0
-57.748062 -59.34822 3.3736565 29 3204391653528 1 0
-23.847633 -27.033579 -1.6792152 6 3204391653528 1 0
-26.752016 -27.485697 -2.0101194 8 3204391655832 1 0
-54.50408 -61.768394 10.114668 28 3204391655832 1 0
-57.84318 -59.41312 6.769199 28 3204391658136 1 0
-35.27277 -44.133408 -2.3017526 11 3204391658136 1 0
-24.832281 -23.123411 -1.1849077 66 3204391660440 1 0
0 0 0 9 3204391660440 1 0
0 0 0 29 3204391662744 1 0
-2.667062 -2.731132 -1.7800682 4 3204391683480 1 0
-23.741686 -26.88351 -0.8345884 5 3204391662744 1 0
-40.587242 -50.624935 -1.1325914 46 3204391683480 1 0
-26.343819 -26.968428 -1.0971786 22 3204391685784 1 0
-6.458376 -6.6094837 -1.8482094 2 3204391688088 1 0
-4.2444234 -4.7926 -1.792137 4 3204391685784 1 0
-51.627098 -58.27692 0 26 3204391688088 1 0
-25.454166 -23.61521 -0.40422496 3 3204391690392 1 0
-10.785413 -11.031018 -1.9637234 4 3204391692696 1 0
-7.919139 -8.936412 -1.8576425 4 3204391690392 1 0
-52.15423 -64.97121 0.4842254 41 3204391692696 1 0
-51.049942 -52.196507 -0.42433944 22 3204391695000 1 0
-11.807506 -13.316072 -1.9170371 10 3204391695000 1 0
0 0 0 3 3204391697304 1 0
-15.299758 -14.181377 -1.9473641 3 3204391697304 1 0
-54.0441 -50.07825 0.85776156 22 3204391699608 1 0
-20.27772 -22.854404 -2.1365013 4 3204391699608 1 0
-13.746375 -14.042237 -1.604182 5 3204391701912 1 0
-52.117596 -64.84438 2.4211469 41 3204391701912 1 0
-51.239994 -52.326843 1.2783538 24 3204391704216 1 0
-21.235323 -26.412594 -2.171998 4 3204391704216 1 0
-28.054789 -25.972198 -2.226492 5 3204391706520 1 0
-33.99621 -38.280758 2.9816015 18 3204391706520 1 0
-57.884083 -59.075756 3.3695858 29 3204391708824 1 0
-26.705196 -27.246656 -1.9994428 8 3204391711128 1 0
-23.75305 -26.738426 -1.6660004 5 3204391708824 1 0
-54.832764 -61.705376 10.13563 28 3204391711128 1 0
-57.945023 -59.101826 6.756831 28 3204391713432 1 0
-35.545036 -44.155823 -2.3094053 11 3204391713432 1 0
-24.863617 -22.989729 -1.1825346 66 3204391715736 1 0
0 0 0 9 3204391715736 1 0
0 0 0 29 3204391718040 1 0
-23.825922 -26.787481 -0.8342162 5 3204391718040 1 0
-2.6821387 -2.7265072 -1.783449 4 3204391738776 1 0
0 0 0 108 3204391738776 1 0
-26.658226 -27.091328 -1.1061385 23 3204391741080 1 0
-6.4852133 -6.588658 -1.8489938 2 3204391743384 1 0
-4.2567973 -4.771294 -1.7899804 4 3204391741080 1 0
-25.513557 -23.497929 -0.40380588 3 3204391745688 1 0
-7.954277 -8.910449 -1.8582574 5 3204391745688 1 0
-51.650406 -57.876167 0 26 3204391743384 1 0
-10.822667 -10.988902 -1.9632183 4 3204391747992 1 0
-52.126026 -64.454575 0.4817844 41 3204391747992 1 0
-51.045326 -51.8143 -0.42273536 22 3204391750296 1 0
-11.871645 -13.290934 -1.9196075 10 3204391750296 1 0
0 0 0 8 3204391752600 1 0
-51.805965 -57.982536 1.809314 53 3204391752600 1 0
-54.63097 -50.256287 0.8641875 23 3204391754904 1 0
-20.349554 -22.769066 -2.1353853 4 3204391754904 1 0
-13.822128 -14.018112 -1.6071111 5 3204391757208 1 0
-52.08445 -64.32659 2.4088125 41 3204391757208 1 0
-51.214584 -51.925648 1.2730483 23 3204391759512 1 0
-21.322725 -26.326675 -2.1712306 4 3204391759512 1 0
-28.159672 -25.882055 -2.2274222 5 3204391761816 1 0
-58.059013 -58.830868 3.367469 29 3204391764120 1 0
-55.400066 -61.93259 4.8392596 28 3204391761816 1 0
-23.894054 -26.703716 -1.6691644 6 3204391764120 1 0
-26.791286 -27.139563 -1.9986055 8 3204391766424 1 0
-55.177635 -61.647835 10.158541 28 3204391766424 1 0
-58.141678 -58.880363 6.755204 28 3204391768728 1 0
-35.712543 -44.041042 -2.3100567 11 3204391768728 1 0
-24.910044 -22.868542 -1.1808593 66 3204391771032 1 0
0 0 0 29 3204391773336 1 0
0 0 0 9 3204391771032 1 0
-24.83091 -27.718266 -0.8659471 5 3204391773336 1 0
-2.6890883 -2.7145526 -1.7817585 4 3204391794072 1 0
-41.155426 -50.5876 -1.1383158 111 3204391794072 1 0
-28.089417 -28.347162 -1.1614105 8 3204391796376 1 0
-4.283724 -4.767867 -1.7942936 3 3204391796376 1 0
-6.510934 -6.568766 -1.8497783 2 3204391798680 1 0
-51.600784 -57.415867 0 26 3204391798680 1 0
-7.9853315 -8.882629 -1.8582574 5 3204391800984 1 0
-10.858165 -10.948239 -1.9627132 4 3204391803288 1 0
-25.527542 -23.346642 -0.4027349 7 3204391800984 1 0
-52.080402 -63.940384 0.4792969 41 3204391803288 1 0
-50.99488 -51.402954 -0.42082906 21 3204391805592 1 0
-11.933925 -13.267154 -1.9221778 10 3204391805592 1 0
0 0 0 56 3204391807896 1 0
-51.828835 -57.602177 1.8030795 52 3204391807896 1 0
-55.145664 -50.375507 0.86954236 23 3204391810200 1 0
-20.41823 -22.68603 -2.134269 4 3204391810200 1 0
-13.887831 -13.986753 -1.6090639 15 3204391812504 1 0
-52.040825 -63.815937 2.3964782 42 3204391812504 1 0
-51.201057 -51.550766 1.2682315 23 3204391814808 1 0
-21.427109 -26.267551 -2.1725097 4 3204391814808 1 0
-28.249846 -25.783602 -2.2274222 5 3204391817112 1 0
0 0 0 78 3204391817112 1 0
-58.23303 -58.596664 3.3656778 29 3204391819416 1 0
-23.858734 -26.477667 -1.6602305 17 3204391819416 1 0
-27.277306 -27.439653 -2.0277042 17 3204391821720 1 0
-55.528053 -61.60525 10.183402 28 3204391821720 1 0
-58.189434 -58.51874 6.7369785 28 3204391824024 1 0
-35.989937 -44.06779 -2.3180354 11 3204391824024 1 0
-24.966084 -22.759905 -1.1797426 71 3204391826328 1 0
0 0 0 9 3204391826328 1 0
0 0 0 29 3204391828632 1 0
-24.825724 -27.51859 -0.86241114 5 3204391828632 1 0
-2.6959872 -2.7025828 -1.7800682 4 3204391849368 1 0
-41.461033 -50.601402 -1.1418761 41 3204391849368 1 0
-28.103266 -28.164234 -1.1579196 8 3204391851672 1 0
-4.2925534 -4.7443476 -1.7910587 5 3204391851672 1 0
-6.530957 -6.5433173 -1.8489938 2 3204391853976 1 0
-51.547752 -56.957367 0 25 3204391853976 1 0
-25.578764 -23.231058 -0.40226927 7 3204391856280 1 0
-8.010791 -8.849015 -1.8570276 6 3204391856280 1 0
-10.884783 -10.899357 -1.960693 4 3204391858584 1 0
-52.002083 -63.3948 0.47655368 42 3204391858584 1 0
-50.937504 -50.991615 -0.41889948 21 3204391860888 1 0
-11.990361 -13.237642 -1.9238914 10 3204391860888 1 0
-15.74948 -14.29203 -1.9852853 4 3204391863192 1 0
-51.769325 -57.138687 1.7941464 52 3204391863192 1 0
-55.875538 -50.690765 0.87829643 24 3204391865496 1 0
-20.506863 -22.62749 -2.1353853 4 3204391865496 1 0
-13.994951 -13.998208 -1.6158985 3 3204391867800 1 0
-51.990593 -63.3094 2.3841438 85 3204391867800 1 0
-51.139774 -51.137543 1.2623675 23 3204391870104 1 0
-21.504286 -26.178581 -2.1712306 4 3204391870104 1 0
-28.314138 -25.66544 -2.2255616 5 3204391872408 1 0
0 0 0 198 3204391872408 1 0
-58.34491 -58.310127 3.3606303 29 3204391874712 1 0
-23.914 -26.35767 -1.6578109 11 3204391874712 1 0
-27.384663 -27.360777 -2.028751 8 3204391877016 1 0
-55.873474 -61.56585 10.208263 28 3204391877016 1 0
-58.396297 -58.32924 6.7379546 28 3204391879320 1 0
-36.256165 -44.08731 -2.3255255 11 3204391879320 1 0
-25.0164 -22.65102 -1.1784862 71 3204391881624 1 0
0 0 0 9 3204391881624 1 0
0 0 0 29 3204391883928 1 0
-24.932081 -27.449284 -0.8628764 5 3204391883928 1 0
-2.7075033 -2.6961858 -1.7817585 4 3204391904664 1 0
0 0 0 58 3204391904664 1 0
-28.17121 -28.045294 -1.1568724 16 3204391906968 1 0
-4.318672 -4.741446 -1.7953719 5 3204391906968 1 0
-6.5471544 -6.515995 -1.8474249 2 3204391909272 1 0
-51.51088 -56.53699 0 25 3204391909272 1 0
-25.626469 -23.118757 -0.4018036 7 3204391911576 1 0
-8.042946 -8.825148 -1.8576425 6 3204391911576 1 0
-10.923995 -10.865683 -1.9611981 2 3204391913880 1 0
-51.93877 -62.887405 0.47404292 42 3204391913880 1 0
-51.088314 -50.80082 -0.41873676 21 3204391916184 1 0
-12.034673 -13.197371 -1.9238914 10 3204391916184 1 0
-15.903908 -14.335029 -1.9986693 9 3204391918488 1 0
-51.715767 -56.69558 1.7856786 77 3204391918488 1 0
-56.348976 -50.775444 0.88304603 24 3204391920792 1 0
-20.577555 -22.552418 -2.1348271 4 3204391920792 1 0
-51.94913 -62.825474 2.3725076 85 3204391923096 1 0
-14.126952 -14.035201 -1.6256622 3 3204391923096 1 0
-51.11945 -50.77267 1.2576205 23 3204391925400 1 0
-28.433598 -25.59873 -2.2281199 5 3204391927704 1 0
-34.1988 -37.448086 2.9534624 244 3204391927704 1 0
-58.502888 -58.072227 3.3583508 29 3204391930008 1 0
-24.008764 -26.282202 -1.6581831 17 3204391930008 1 0
-27.908602 -27.695097 -2.0605712 9 3204391932312 1 0
-21.60032 -26.114943 -2.171998 4 3204391925400 1 0
-56.189808 -61.49257 10.227763 28 3204391932312 1 0
-36.54142 -44.126545 -2.3341556 11 3204391934616 1 0
-58.575085 -58.110073 6.735677 28 3204391934616 1 0
0 0 0 9 3204391936920 1 0
-25.075838 -22.549345 -1.1776487 77 3204391936920 1 0
0 0 0 29 3204391939224 1 0
-24.075977 -26.325008 -0.8301219 15 3204391939224 1 0
-2.7117429 -2.6816204 -1.7783777 4 3204391959960 1 0
0 0 0 7 3204391959960 1 0
-28.243343 -27.921488 -1.1558251 8 3204391962264 1 0
-4.3247814 -4.7149878 -1.7910587 4 3204391962264 1 0
-6.5810184 -6.50413 -1.8505628 2 3204391964568 1 0
-51.51862 -56.150524 0 25 3204391964568 1 0
-25.695095 -23.018488 -0.40161738 10 3204391966872 1 0
-8.076375 -8.799932 -1.8582574 6 3204391966872 1 0
-10.961857 -10.827484 -1.9611981 4 3204391969176 1 0
-51.45318 -50.80767 -0.4202711 64 3204391971480 1 0
-12.0887375 -13.164069 -1.9251765 10 3204391971480 1 0
-16.060684 -14.375048 -2.0120533 7 3204391973784 1 0
-50.20374 -60.356293 0.45628172 41 3204391969176 1 0
-51.66177 -56.240826 1.7770247 51 3204391973784 1 0
-59.139942 -52.917465 0.9238829 27 3204391976088 1 0
-20.669651 -22.495144 -2.1362224 4 3204391976088 1 0
-14.238294 -14.047402 -1.6328223 22 3204391978392 1 0
-50.162144 -60.23497 2.2812796 41 3204391978392 1 0
-51.30491 -50.602345 1.2578298 23 3204391980696 1 0
-21.69901 -26.048584 -2.1727655 4 3204391980696 1 0
-28.52278 -25.499323 -2.2281199 5 3204391983000 1 0
-34.299576 -37.29615 2.9509041 243 3204391983000 1 0
-58.682472 -57.845215 3.357048 29 3204391985304 1 0
-24.165283 -26.268812 -1.6626501 17 3204391985304 1 0
-27.99088 -27.58349 -2.0595245 9 3204391987608 1 0
-56.543907 -61.447975 10.253112 28 3204391987608 1 0
-58.66681 -57.796135 6.722984 28 3204391989912 1 0
-36.708027 -44.01407 -2.3349695 11 3204391989912 1 0
-25.139488 -22.448364 -1.1769506 66 3204391992216 1 0
0 0 0 9 3204391992216 1 0
0 0 0 29 3204391994520 1 0
-24.08645 -26.152563 -0.8273303 10 3204391994520 1 0
-2.7288468 -2.6797583 -1.783449 4 3204392015256 1 0
-42.349464 -50.613476 -1.1519287 49 3204392015256 1 0
-28.240976 -27.724487 -1.1517525 8 3204392017560 1 0
-4.346475 -4.70549 -1.7932153 4 3204392017560 1 0
-6.5981774 -6.475528 -1.8489938 3 3204392019864 1 0
-51.459953 -55.693436 0 25 3204392019864 1 0
-25.769812 -22.922777 -0.40152425 10 3204392022168 1 0
-8.104552 -8.768606 -1.8576425 6 3204392022168 1 0
-10.9970665 -10.786056 -1.960693 4 3204392024472 1 0
-51.851772 -61.893192 0.46927717 42 3204392024472 1 0
-53.705563 -52.658978 -0.4371489 48 3204392026776 1 0
-16.227491 -14.421374 -2.0265524 5 3204392029080 1 0
-12.137792 -13.1242695 -1.9256049 8 3204392026776 1 0
-51.680984 -55.864147 1.7708833 75 3204392029080 1 0
-59.611042 -52.960056 0.9283065 28 3204392031384 1 0
-20.743769 -22.415943 -2.1356642 4 3204392031384 1 0
-14.345015 -14.052582 -1.6393315 9 3204392033688 1 0
-51.973835 -61.961964 2.353657 86 3204392033688 1 0
-51.801704 -50.73019 1.2655787 46 3204392035992 1 0
-21.804335 -25.986546 -2.1740446 4 3204392035992 1 0
-34.391552 -37.12975 2.9474158 243 3204392038296 1 0
-58.80581 -57.55424 3.352326 29 3204392040600 1 0
-24.38113 -26.314253 -1.6710258 18 3204392040600 1 0
-33.52568 -32.802128 -2.458115 11 3204392042904 1 0
-56.752605 -61.233624 10.251162 28 3204392042904 1 0
-28.132639 -24.970741 -2.1906784 5 3204392038296 1 0
-36.963284 -43.998463 -2.3411572 11 3204392045208 1 0
-58.862244 -57.574284 6.721682 28 3204392045208 1 0
-25.249886 -22.384426 -1.1783466 11 3204392047512 1 0
0 0 0 9 3204392047512 1 0
0 0 0 29 3204392049816 1 0
-2.7360542 -2.6672082 -1.7817585 3 3204392070552 1 0
-42.66357 -50.610813 -1.1554191 49 3204392070552 1 0
-28.319494 -27.598469 -1.1508216 8 3204392072856 1 0
-4.3636923 -4.689528 -1.7932153 5 3204392072856 1 0
-24.07437 -25.951353 -0.82370126 10 3204392049816 1 0
-6.6246767 -6.4540377 -1.8497783 2 3204392075160 1 0
-51.41573 -55.23801 0 24 3204392075160 1 0
-25.814678 -22.793756 -0.4009189 17 3204392077464 1 0
-8.133943 -8.73595 -1.8570276 6 3204392077464 1 0
-11.036526 -10.745677 -1.960693 4 3204392079768 1 0
-51.835762 -61.415398 0.4670919 43 3204392079768 1 0
-57.10275 -55.58092 -0.46313977 28 3204392082072 1 0
-12.188524 -13.082603 -1.9260334 8 3204392082072 1 0
-16.372826 -14.443477 -2.0380776 10 3204392084376 1 0
-60.281723 -53.161854 0.93571025 28 3204392086680 1 0
-20.814903 -22.328087 -2.1345482 4 3204392086680 1 0
-51.629112 -55.39936 1.7621363 50 3204392084376 1 0
0 0 0 9 3204392088984 1 0
-51.958 -61.48399 2.3427188 87 3204392088984 1 0
-52.360085 -50.9024 1.2746539 47 3204392091288 1 0
-21.881395 -25.885115 -2.1722538 4 3204392091288 1 0
-28.119106 -24.775068 -2.1825387 5 3204392093592 1 0
-34.48382 -36.956734 2.9436948 243 3204392093592 1 0
-58.981964 -57.304897 3.350372 29 3204392095896 1 0
-24.673714 -26.435026 -1.6844267 6 3204392095896 1 0
-33.786087 -32.8154 -2.468373 11 3204392098200 1 0
-56.889957 -60.932343 10.235562 28 3204392098200 1 0
-59.067146 -57.3526 6.7210307 28 3204392100504 1 0
-23.35438 -27.59341 -1.4727894 6 3204392100504 1 0
-25.331758 -22.291729 -1.1783466 11 3204392102808 1 0
0 0 0 9 3204392102808 1 0
0 0 0 29 3204392105112 1 0
-24.936562 -26.68394 -0.84984905 5 3204392105112 1 0
-2.7505574 -2.6626842 -1.7851396 4 3204392125296 1 0
-23.57221 -27.765911 -0.63575625 5 3204392125296 1 0
-54.810707 -53.04498 -2.2198405 53 3204392127600 1 0
-4.3826013 -4.6771417 -1.7942936 5 3204392127600 1 0
-6.646978 -6.4310675 -1.8497783 2 3204392129904 1 0
-51.42883 -54.870003 0 24 3204392129904 1 0
0 0 0 144 3204392132208 1 0
-8.161304 -8.704977 -1.8564126 7 3204392132208 1 0
-11.079049 -10.713248 -1.9617032 4 3204392134512 1 0
-51.810535 -60.95976 0.46497634 43 3204392134512 1 0
-56.33186 -54.456867 -0.45537508 27 3204392136816 1 0
-12.227727 -13.035067 -1.9251765 8 3204392136816 1 0
-16.472813 -14.432287 -2.0443978 10 3204392139120 1 0
-51.5793 -54.96962 1.7540407 49 3204392139120 1 0
0 0 0 101 3204392141424 1 0
-20.909567 -22.277786 -2.1365013 4 3204392141424 1 0
0 0 0 100 3204392143728 1 0
-52.86166 -51.04568 1.2826821 48 3204392146032 1 0
-51.906067 -61.0038 2.3310826 87 3204392143728 1 0
-21.981174 -25.826653 -2.173533 4 3204392146032 1 0
0 0 0 61 3204392148336 1 0
-34.58265 -36.814976 2.941602 243 3204392148336 1 0
-59.140865 -57.077602 3.3485808 29 3204392150640 1 0
-24.914843 -26.515766 -1.6948496 6 3204392150640 1 0
-24.563683 -23.700169 -1.788843 6 3204392152944 1 0
-57.061794 -60.71153 10.2302 28 3204392152944 1 0
-59.241833 -57.143433 6.7194037 28 3204392155248 1 0
-17.05899 -14.912557 -0.7912414 12 3204392157552 1 0
-23.419434 -27.485731 -1.4711611 18 3204392155248 1 0
0 0 0 9 3204392157552 1 0
0 0 0 29 3204392159856 1 0
-24.993612 -26.570152 -0.84882545 16 3204392159856 1 0
-2.7515328 -2.64601 -1.7800682 4 3204392180592 1 0
0 0 0 7 3204392180592 1 0
-25.010372 -24.043858 -1.0096743 6 3204392182896 1 0
-4.400798 -4.665321 -1.7953719 5 3204392182896 1 0
-6.665626 -6.406078 -1.8489938 2 3204392185200 1 0
-51.348557 -54.41836 0 24 3204392185200 1 0
-17.098673 -14.891833 -0.2639732 212 3204392187504 1 0
-8.1959305 -8.683256 -1.8576425 7 3204392187504 1 0
-11.109412 -10.670305 -1.960693 4 3204392189808 1 0
-51.750668 -60.4746 0.4626051 42 3204392189808 1 0
-56.50454 -54.254574 -0.45528206 54 3204392192112 1 0
-12.271831 -12.993554 -1.9251765 7 3204392192112 1 0
-16.533854 -14.386598 -2.0458848 10 3204392194416 1 0
-51.57934 -54.596092 1.7477132 49 3204392194416 1 0
0 0 0 219 3204392196720 1 0
-20.969143 -22.18879 -2.1348271 4 3204392196720 1 0
-14.735928 -14.136185 -1.6669953 24 3204392199024 1 0
-51.865414 -60.533794 2.319912 86 3204392199024 1 0
-22.067472 -25.747698 -2.1732771 4 3204392201328 1 0
-17.074734 -14.838916 -1.3174303 23 3204392203632 1 0
-53.42987 -51.239643 1.2921761 73 3204392201328 1 0
-34.674206 -36.657333 2.9385786 243 3204392203632 1 0
-59.272552 -56.80807 3.3448358 29 3204392205936 1 0
-24.755865 -23.719294 -1.796798 13 3204392208240 1 0
-57.186035 -60.41971 10.214601 28 3204392208240 1 0
-59.312206 -56.811333 6.704758 28 3204392210544 1 0
-23.507824 -27.394375 -1.4706726 6 3204392210544 1 0
-17.09024 -14.834078 -0.7902642 28 3204392212848 1 0
0 0 0 9 3204392212848 1 0
-25.232052 -26.666994 -1.7101119 6 3204392205936 1 0
0 0 0 29 3204392215152 1 0
-25.20837 -26.609386 -0.85291976 48 3204392215152 1 0
-2.7612126 -2.6359072 -1.7800682 4 3204392235888 1 0
0 0 0 7 3204392235888 1 0
-24.976324 -23.836637 -1.0047871 6 3204392238192 1 0
-4.4098063 -4.640879 -1.792137 5 3204392238192 1 0
-6.694458 -6.3873115 -1.8505628 2 3204392240496 1 0
-51.319332 -53.994297 0 24 3204392240496 1 0
-17.149143 -14.82757 -0.26392663 221 3204392242800 1 0
-8.229858 -8.656562 -1.8582574 7 3204392242800 1 0
-11.147519 -10.630488 -1.960693 4 3204392245104 1 0
-51.702946 -59.98305 0.46025708 42 3204392245104 1 0
-59.88749 -57.094894 -0.48090097 28 3204392247408 1 0
-16.596651 -14.338488 -2.0473719 10 3204392249712 1 0
-12.276844 -12.906609 -1.9187508 13 3204392247408 1 0
-51.518383 -54.146923 1.7391523 48 3204392249712 1 0
-17.165985 -14.826432 0.26406634 116 3204392252016 1 0
-21.04145 -22.109217 -2.134269 4 3204392252016 1 0
0 0 0 19 3204392254320 1 0
-51.82564 -60.061775 2.308741 85 3204392254320 1 0
-22.159262 -25.674017 -2.173533 4 3204392256624 1 0
-53.925865 -51.357395 1.2998552 74 3204392256624 1 0
-17.137875 -14.790407 -1.3183604 10 3204392258928 1 0
-34.75905 -36.49422 2.9350903 244 3204392258928 1 0
-59.42915 -56.568897 3.342719 29 3204392261232 1 0
-25.918568 -27.20529 -1.7503147 12 3204392261232 1 0
-24.743849 -23.546785 -1.790099 13 3204392263536 1 0
-57.35847 -60.190243 10.208751 28 3204392263536 1 0
-59.489536 -56.5967 6.7031307 28 3204392265840 1 0
-23.46445 -27.157465 -1.4622055 6 3204392265840 1 0
-26.102066 -22.50289 -1.2034743 17 3204392268144 1 0
0 0 0 9 3204392268144 1 0
0 0 0 29 3204392270448 1 0
-25.440565 -26.675575 -0.8577585 21 3204392270448 1 0
-2.7694798 -2.6272197 -1.7800682 4 3204392291184 1 0
0 0 0 7 3204392291184 1 0
0 0 0 9 3204392293488 1 0
-4.421769 -4.624154 -1.7910587 4 3204392293488 1 0
-6.717523 -6.368752 -1.8513472 2 3204392295792 1 0
-51.305027 -53.63764 0 23 3204392295792 1 0
0 0 0 100 3204392298096 1 0
-8.2519245 -8.624592 -1.8570276 6 3204392298096 1 0
-11.184358 -10.597494 -1.9611981 2 3204392300400 1 0
-51.721615 -59.617893 0.4587227 41 3204392300400 1 0
-59.989388 -56.82508 -0.48025006 57 3204392302704 1 0
-12.332018 -12.881444 -1.9208927 30 3204392302704 1 0
-16.654951 -14.2952 -2.0488591 10 3204392305008 1 0
-51.518703 -53.798336 1.7332901 72 3204392305008 1 0
0 0 0 23 3204392307312 1 0
-21.121328 -22.0495 -2.135106 4 3204392307312 1 0
-15.024993 -14.220024 -1.688801 4 3204392309616 1 0
-51.782455 -59.617916 2.2981522 84 3204392309616 1 0
-54.497456 -51.562714 1.3095587 75 3204392311920 1 0
-22.245779 -25.604376 -2.1737888 4 3204392311920 1 0
-26.52993 -22.744255 -2.0350983 4 3204392314224 1 0
-34.867764 -36.368237 2.93416 139 3204392314224 1 0
-59.603977 -56.361393 3.3420677 29 3204392316528 1 0
-26.011011 -27.122452 -1.7505009 12 3204392316528 1 0
-24.882755 -23.522228 -1.7944952 6 3204392318832 1 0
-57.50553 -59.945267 10.199489 28 3204392318832 1 0
-23.462967 -26.97362 -1.4565065 6 3204392321136 1 0
-59.686405 -56.40646 6.7041073 28 3204392321136 1 0
-26.407967 -22.613054 -1.2140837 11 3204392323440 1 0
0 0 0 9 3204392323440 1 0
0 0 0 29 3204392325744 1 0
-2.78655 -2.6249938 -1.7851396 4 3204392346480 1 0
-24.555452 -28.138527 -0.6518823 6 3204392346480 1 0
-25.776537 -26.846678 -0.86604017 93 3204392325744 1 0
-24.790741 -23.34664 -0.9910563 6 3204392348784 1 0
-4.445899 -4.617015 -1.7942936 4 3204392348784 1 0
-6.7368574 -6.342576 -1.8505628 3 3204392351088 1 0
0 0 0 5 3204392353392 1 0
-51.23387 -53.1903 0 23 3204392351088 1 0
-8.28198 -8.595735 -1.8570276 6 3204392353392 1 0
-11.227061 -10.563827 -1.9622082 4 3204392355696 1 0
-33.509888 -38.35451 0.2960124 11 3204392355696 1 0
-12.376907 -12.838319 -1.9208927 25 3204392358000 1 0
-60.158245 -56.58793 -0.48001757 57 3204392358000 1 0
-16.725967 -14.25506 -2.0514615 8 3204392360304 1 0
-51.450798 -53.35335 1.7247292 70 3204392360304 1 0
0 0 0 43 3204392362608 1 0
-21.22033 -21.998613 -2.1373384 4 3204392362608 1 0
-15.138451 -14.227557 -1.6959611 28 3204392364912 1 0
-55.00356 -51.678886 1.3173774 76 3204392367216 1 0
-33.592278 -38.403694 1.4848973 8 3204392364912 1 0
-22.332392 -25.523563 -2.173533 4 3204392367216 1 0
0 0 0 6 3204392369520 1 0
-29.105576 -24.776627 -2.2260268 5 3204392369520 1 0
-59.74499 -56.101013 3.338974 29 3204392371824 1 0
-26.644014 -27.589079 -1.786609 19 3204392371824 1 0
-24.728811 -23.21378 -1.7775384 13 3204392374128 1 0
-57.637196 -59.66422 10.18584 28 3204392374128 1 0
-59.728863 -56.05318 6.6868577 28 3204392376432 1 0
-23.54908 -26.882536 -1.456018 6 3204392376432 1 0
-26.721245 -22.720125 -1.2248328 24 3204392378736 1 0
0 0 0 9 3204392378736 1 0
0 0 0 29 3204392381040 1 0
-25.90067 -26.78816 -0.86706376 38 3204392381040 1 0
-2.7930484 -2.6127744 -1.783449 5 3204392401776 1 0
-24.539999 -27.923464 -0.6488805 5 3204392401776 1 0
0 0 0 9 3204392404080 1 0
-4.4619884 -4.6014676 -1.7942936 5 3204392404080 1 0
-51.252132 -52.838863 0 23 3204392406384 1 0
-6.758956 -6.319021 -1.8505628 2 3204392406384 1 0
-27.02587 -22.891237 -0.41232717 10 3204392408688 1 0
-8.314687 -8.56961 -1.8576425 6 3204392408688 1 0
-11.266767 -10.527282 -1.9627132 4 3204392410992 1 0
-33.76511 -38.375443 0.29708177 11 3204392410992 1 0
-56.061428 -52.36661 -0.44586676 25 3204392413296 1 0
-12.452119 -12.826426 -1.9256049 10 3204392413296 1 0
-16.790825 -14.209453 -2.0533204 8 3204392415600 1 0
-51.38878 -52.918106 1.7164476 70 3204392415600 1 0
-18.293818 -15.476813 0.2789669 22 3204392417904 1 0
-21.29143 -21.918682 -2.1367803 4 3204392417904 1 0
-15.260886 -14.242631 -1.7040975 6 3204392420208 1 0
-33.792202 -38.36121 1.4878063 16 3204392420208 1 0
-55.581318 -51.857628 1.3268715 52 3204392422512 1 0
-22.423988 -25.448448 -2.1737888 4 3204392422512 1 0
-29.088194 -24.587233 -2.2181199 5 3204392424816 1 0
0 0 0 3 3204392424816 1 0
-59.852768 -55.810352 3.334089 29 3204392427120 1 0
-26.586943 -27.338362 -1.7763722 19 3204392427120 1 0
0 0 0 100 3204392429424 1 0
-57.817425 -59.434204 10.180965 28 3204392429424 1 0
-59.95041 -55.86881 6.689787 28 3204392431728 1 0
-23.618977 -26.773195 -1.4545525 6 3204392431728 1 0
-27.044752 -22.83302 -1.2360005 49 3204392434032 1 0
0 0 0 9 3204392434032 1 0
0 0 0 29 3204392436336 1 0
-26.203243 -26.912474 -0.8740427 22 3204392436336 1 0
-2.7994957 -2.6005416 -1.7817585 4 3204392457072 1 0
-24.610815 -27.807684 -0.6481824 5 3204392457072 1 0
0 0 0 9 3204392459376 1 0
-4.480781 -4.5885553 -1.7953719 4 3204392459376 1 0
-6.7811556 -6.2951922 -1.8505628 3 3204392461680 1 0
-51.18903 -52.40348 0 23 3204392461680 1 0
-27.19844 -22.872807 -0.4137241 3 3204392463984 1 0
-8.342159 -8.537343 -1.8570276 7 3204392463984 1 0
-11.309873 -10.492629 -1.9637234 2 3204392466288 1 0
-33.89578 -38.249386 0.29703528 11 3204392466288 1 0
-26.444824 -24.526068 -0.2096241 4 3204392468592 1 0
