# .PCD v.7 - Point Cloud Data file format
VERSION .7
FIELDS x y z rgb timestamp_ns device_id active
SIZE 4 4 4 4 8 1 1
TYPE F F F F F U U
COUNT 1 1 1 1 1 1 1
WIDTH 1016
HEIGHT 1
VIEWPOINT 0 0 0 1 0 0 0
POINTS 1016               
DATA ascii
29.726719 -24.834831 1.1273164 9 3206167090984 1 0
9.121271 -9.277014 0.22709072 148 3206167093288 1 0
17.793247 -14.869551 -1.4861174 4 3206167093288 1 0
17.104269 -19.192913 -1.4971961 6 3206167095592 1 0
9.849863 -9.08707 0.7804582 30 3206167095592 1 0
0 0 0 107 3206167097896 1 0
9.123607 -9.28479 0.5303345 117 3206167097896 1 0
0 0 0 17 3206167100200 1 0
9.7262 -8.978223 1.6252495 4 3206167100200 1 0
0 0 0 17 3206167102504 1 0
25.448092 -21.291746 -1.3518074 5 3206167102504 1 0
0 0 0 9 3206167104808 1 0
24.68402 -27.730711 -1.2964466 13 3206167104808 1 0
9.137639 -9.309898 2.378431 4 3206167107112 1 0
9.851388 -9.1017475 -0.3120983 18 3206167107112 1 0
0 0 0 4 3206167127296 1 0
25.079502 -25.626743 -1.0435356 28 3206167129600 1 0
0 0 0 1 3206167129600 1 0
29.75653 -24.977545 -0.6781307 19 3206167127296 1 0
5.793216 -5.921348 -1.6567988 46 3206167131904 1 0
9.84241 -9.1226845 0 14 3206167131904 1 0
28.418444 -32.047874 -0.49865744 39 3206167134208 1 0
7.5821934 -7.029796 -1.6086041 103 3206167134208 1 0
8.843858 -9.044724 -1.6101724 9 3206167136512 1 0
29.654158 -24.921036 0.22513029 17 3206167136512 1 0
0 0 0 85 3206167138816 1 0
9.638979 -8.941951 -1.4162514 12 3206167138816 1 0
11.528353 -13.012116 -1.6228034 3 3206167141120 1 0
9.831508 -9.123219 0.3120983 13 3206167141120 1 0
28.39184 -32.05542 0.49851775 31 3206167143424 1 0
0 0 0 108 3206167143424 1 0
29.606194 -24.910131 1.1260364 14 3206167145728 1 0
0 0 0 6 3206167148032 1 0
9.069784 -9.286584 -1.059691 2 3206167145728 1 0
17.823694 -15.000971 -1.4930248 4 3206167148032 1 0
17.053047 -19.270445 -1.4985914 6 3206167150336 1 0
9.882445 -9.181192 0.78557444 9 3206167150336 1 0
0 0 0 29 3206167152640 1 0
20.409554 -20.921751 -1.5317688 4 3206167154944 1 0
9.813958 -9.120225 -0.6240754 108 3206167152640 1 0
9.700617 -9.017525 1.6262245 4 3206167154944 1 0
32.33853 -33.159748 3.78117 28 3206167157248 1 0
22.97476 -25.992609 -1.2114314 17 3206167159552 1 0
25.388897 -21.393324 -1.3526216 10 3206167157248 1 0
0 0 0 9 3206167159552 1 0
9.149033 -9.3868265 2.3899107 1 3206167161856 1 0
9.813702 -9.130632 -0.31191218 13 3206167161856 1 0
0 0 0 4 3206167182592 1 0
29.672216 -25.083845 -0.67820054 12 3206167182592 1 0
24.94215 -25.665749 -1.0415574 42 3206167184896 1 0
0 0 0 1 3206167184896 1 0
5.772339 -5.9417024 -1.6567988 48 3206167187200 1 0
28.989185 -27.059666 0 33 3206167187200 1 0
28.421297 -32.2802 -0.50070626 45 3206167189504 1 0
7.5630784 -7.061945 -1.6098338 104 3206167189504 1 0
8.792356 -9.056124 -1.6066369 9 3206167191808 1 0
29.55637 -25.018362 0.22506055 11 3206167191808 1 0
9.577995 -8.94909 -1.4119675 38 3206167194112 1 0
28.445984 -29.308737 -0.2373818 58 3206167194112 1 0
11.479093 -13.05029 -1.6224316 3 3206167196416 1 0
9.944879 -9.294865 0.3167509 5 3206167196416 1 0
28.390068 -32.286366 0.50052 43 3206167198720 1 0
0 0 0 35 3206167198720 1 0
13.454433 -13.875819 -1.5778198 3 3206167201024 1 0
30.318335 -25.69666 1.1566396 5 3206167201024 1 0
0 0 0 7 3206167203328 1 0
17.78752 -15.080911 -1.4945598 4 3206167203328 1 0
16.982864 -19.332323 -1.4985914 6 3206167205632 1 0
9.95979 -9.32075 0.7944116 6 3206167205632 1 0
0 0 0 14 3206167207936 1 0
0 0 0 12 3206167207936 1 0
20.396646 -21.062414 -1.5365837 9 3206167210240 1 0
9.673297 -9.058447 1.6271995 4 3206167210240 1 0
32.321667 -33.387367 3.7935371 29 3206167212544 1 0
25.328283 -21.502123 -1.3535985 5 3206167212544 1 0
22.810034 -25.999178 -1.2078018 17 3206167214848 1 0
0 0 0 9 3206167214848 1 0
0 0 0 29 3206167217152 1 0
27.005236 -25.31308 -0.8612945 27 3206167217152 1 0
0 0 0 4 3206167237888 1 0
29.870983 -25.449179 -0.68497205 19 3206167237888 1 0
24.785881 -25.70017 -1.0391139 41 3206167240192 1 0
5.755274 -5.9691353 -1.6583678 48 3206167242496 1 0
26.870354 -25.272686 0 15 3206167242496 1 0
28.407871 -32.51011 -0.5026154 40 3206167244800 1 0
7.5365257 -7.0902753 -1.6098338 81 3206167244800 1 0
0 0 0 1 3206167240192 1 0
8.736548 -9.065941 -1.6025963 4 3206167247104 1 0
0 0 0 10 3206167247104 1 0
9.51591 -8.957154 -1.4076836 32 3206167249408 1 0
28.423546 -29.502922 -0.23810248 41 3206167249408 1 0
11.431184 -13.092276 -1.6224316 3 3206167251712 1 0
28.380325 -32.512924 0.5024291 37 3206167254016 1 0
0 0 0 3 3206167254016 1 0
13.42918 -13.950109 -1.580749 3 3206167256320 1 0
0 0 0 76 3206167256320 1 0
28.418114 -29.528212 0.71533924 51 3206167258624 1 0
28.86752 -27.179602 0.9226161 48 3206167251712 1 0
17.733448 -15.144457 -1.4945598 4 3206167258624 1 0
16.91415 -19.392471 -1.4985914 6 3206167260928 1 0
32.37785 -30.516676 2.5911398 25 3206167260928 1 0
27.795462 -28.896374 1.6335018 8 3206167263232 1 0
20.323002 -21.133484 -1.5365837 4 3206167265536 1 0
0 0 0 2 3206167263232 1 0
9.650283 -9.100329 1.6286619 4 3206167265536 1 0
25.274967 -21.60785 -1.3547384 10 3206167267840 1 0
32.30537 -33.602512 3.8052537 29 3206167267840 1 0
22.618242 -25.959772 -1.2023574 28 3206167270144 1 0
0 0 0 9 3206167270144 1 0
0 0 0 29 3206167272448 1 0
26.825865 -25.31701 -0.85831684 48 3206167272448 1 0
29.341532 -25.157618 -0.67464024 19 3206167293184 1 0
24.649315 -25.720537 -1.0367867 41 3206167295488 1 0
0 0 0 1 3206167295488 1 0
5.728178 -5.9788566 -1.6560144 37 3206167297792 1 0
28.88751 -27.34304 0 71 3206167297792 1 0
28.424797 -32.73936 -0.50475734 45 3206167300096 1 0
7.5339937 -7.133267 -1.6141382 43 3206167300096 1 0
8.6827965 -9.068055 -1.5980506 9 3206167302400 1 0
0 0 0 4 3206167293184 1 0
29.26409 -25.120775 0.22415389 97 3206167302400 1 0
28.42814 -29.698153 -0.23893939 36 3206167304704 1 0
9.463973 -8.965814 -1.4042565 21 3206167304704 1 0
11.4019 -13.144159 -1.6242906 3 3206167307008 1 0
28.826052 -27.316679 0.924105 30 3206167307008 1 0
0 0 0 1 3206167309312 1 0
13.391927 -14.00243 -1.5817254 3 3206167311616 1 0
28.382162 -32.728695 0.50433826 44 3206167309312 1 0
29.286102 -25.16928 1.1238256 30 3206167311616 1 0
28.43465 -29.739569 0.71820146 60 3206167313920 1 0
16.87385 -19.475124 -1.5006844 6 3206167316224 1 0
17.70498 -15.220624 -1.4963506 6 3206167313920 1 0
32.370064 -30.710888 2.5985818 25 3206167316224 1 0
21.910957 -20.793932 -1.4071012 4 3206167318528 1 0
27.860054 -29.155579 1.6429459 8 3206167318528 1 0
20.277641 -21.226755 -1.5384678 9 3206167320832 1 0
32.388767 -33.91463 3.8283613 44 3206167323136 1 0
25.281616 -21.759699 -1.3589718 10 3206167323136 1 0
9.6229315 -9.135014 1.6291494 4 3206167320832 1 0
22.465876 -25.95972 -1.1988676 23 3206167325440 1 0
0 0 0 9 3206167325440 1 0
0 0 0 29 3206167327744 1 0
26.673977 -25.343645 -0.8561766 43 3206167327744 1 0
0 0 0 4 3206167348480 1 0
29.235373 -25.244204 -0.67422134 31 3206167348480 1 0
24.504255 -25.748495 -1.0344594 41 3206167350784 1 0
0 0 0 1 3206167350784 1 0
5.7099767 -6.001657 -1.6567988 14 3206167353088 1 0
28.849798 -27.498907 0 55 3206167353088 1 0
28.354742 -32.88988 -0.50554895 45 3206167355392 1 0
0 0 0 16 3206167355392 1 0
8.626482 -9.072428 -1.593505 21 3206167357696 1 0
29.327522 -25.35357 0.22531627 17 3206167357696 1 0
28.426268 -29.904472 -0.23979956 36 3206167360000 1 0
0 0 0 6 3206167360000 1 0
11.363747 -13.192932 -1.6254059 3 3206167362304 1 0
28.797062 -27.480633 0.9262452 36 3206167362304 1 0
15.854706 -15.13433 -1.5326892 4 3206167364608 1 0
28.319942 -32.888187 0.5052696 38 3206167364608 1 0
13.337477 -14.043309 -1.5810745 3 3206167366912 1 0
29.028769 -25.124823 1.1173092 53 3206167366912 1 0
28.424294 -29.937256 0.720575 52 3206167369216 1 0
17.651743 -15.282333 -1.4963506 6 3206167369216 1 0
32.37816 -30.934034 2.607884 26 3206167371520 1 0
16.818787 -19.549044 -1.5018471 6 3206167371520 1 0
27.846146 -29.345425 1.6481564 8 3206167373824 1 0
21.849792 -20.881332 -1.4078457 9 3206167373824 1 0
20.206173 -21.300306 -1.5386771 9 3206167376128 1 0
9.596725 -9.174035 1.6301243 4 3206167376128 1 0
32.31957 -34.07955 3.8342195 44 3206167378432 1 0
25.211548 -21.853052 -1.3592975 10 3206167378432 1 0
0 0 0 9 3206167380736 1 0
0 0 0 29 3206167383040 1 0
22.304777 -25.956121 -1.1950984 22 3206167380736 1 0
26.524672 -25.378544 -0.85422254 48 3206167383040 1 0
0 0 0 4 3206167403776 1 0
29.02636 -25.241125 -0.671429 37 3206167403776 1 0
24.358927 -25.77611 -1.0321321 41 3206167406080 1 0
0 0 0 1 3206167406080 1 0
5.7130594 -6.047378 -1.6638591 3 3206167408384 1 0
28.799002 -27.6446 0 60 3206167408384 1 0
28.339758 -33.108395 -0.507365 35 3206167410688 1 0
7.4922504 -7.1942286 -1.615983 5 3206167410688 1 0
8.583335 -9.091444 -1.5914847 24 3206167412992 1 0
29.367077 -25.570435 0.22631592 17 3206167412992 1 0
28.4266 -30.119024 -0.24070622 61 3206167415296 1 0
9.360344 -8.993773 -1.398259 4 3206167415296 1 0
11.319058 -13.236533 -1.6257776 3 3206167417600 1 0
28.753334 -27.63614 0.9280132 24 3206167417600 1 0
28.30557 -33.11132 0.5071322 25 3206167419904 1 0
15.823246 -15.213314 -1.5349214 4 3206167419904 1 0
13.286736 -14.091327 -1.5810745 3 3206167422208 1 0
29.326727 -25.568316 1.1323199 24 3206167422208 1 0
28.417189 -30.14768 0.72315794 75 3206167424512 1 0
17.59929 -15.3487835 -1.4966065 6 3206167424512 1 0
32.360416 -31.142937 2.6155584 26 3206167426816 1 0
16.802053 -19.673836 -1.5067309 6 3206167426816 1 0
27.79364 -29.505068 1.651413 26 3206167429120 1 0
20.133444 -21.38004 -1.5390958 9 3206167431424 1 0
9.565897 -9.211902 1.6306118 4 3206167431424 1 0
32.314182 -34.32597 3.8485396 30 3206167433728 1 0
25.143005 -21.95619 -1.3599489 10 3206167433728 1 0
22.120533 -25.934933 -1.1903521 39 3206167436032 1 0
0 0 0 9 3206167436032 1 0
0 0 0 29 3206167438336 1 0
21.79069 -20.977585 -1.4089624 9 3206167429120 1 0
26.375662 -25.424015 -0.8524545 48 3206167438336 1 0
0 0 0 4 3206167459072 1 0
28.778835 -25.220596 -0.6679385 43 3206167459072 1 0
0 0 0 1 3206167461376 1 0
24.211294 -25.81625 -1.0300376 41 3206167461376 1 0
5.6767364 -6.054632 -1.6599368 4 3206167463680 1 0
28.75751 -27.814487 0 39 3206167463680 1 0
28.342207 -33.363873 -0.5096466 30 3206167465984 1 0
7.4737234 -7.230537 -1.6178277 6 3206167465984 1 0
8.522292 -9.094386 -1.586434 24 3206167468288 1 0
29.283693 -25.690153 0.22640891 17 3206167468288 1 0
28.457342 -30.375624 -0.24191509 36 3206167470592 1 0
9.304194 -9.006164 -1.394832 3 3206167470592 1 0
28.70069 -27.78863 0.92959505 24 3206167472896 1 0
11.273046 -13.280968 -1.6261494 3 3206167472896 1 0
28.293678 -33.34211 0.50908786 26 3206167475200 1 0
13.243996 -14.147892 -1.5820508 3 3206167477504 1 0
15.767824 -15.270748 -1.5349214 4 3206167475200 1 0
29.291391 -25.72406 1.1345308 24 3206167477504 1 0
17.544262 -15.4116535 -1.4966065 6 3206167479808 1 0
28.45671 -30.406845 0.72692764 61 3206167479808 1 0
16.747623 -19.751614 -1.5081263 6 3206167482112 1 0
32.352917 -31.357634 2.6239302 26 3206167482112 1 0
21.794176 -21.129248 -1.4139878 9 3206167484416 1 0
20.066875 -21.45894 -1.5397239 4 3206167486720 1 0
27.798824 -29.719465 1.6579261 26 3206167484416 1 0
9.550783 -9.26182 1.6335367 4 3206167486720 1 0
32.32313 -34.5745 3.863836 30 3206167489024 1 0
25.078857 -22.05365 -1.3606001 10 3206167489024 1 0
21.964205 -25.931398 -1.1867225 39 3206167491328 1 0
0 0 0 9 3206167491328 1 0
0 0 0 29 3206167493632 1 0
0 0 0 4 3206167514368 1 0
26.220108 -25.446795 -0.8502213 48 3206167493632 1 0
28.58548 -25.210358 -0.6652857 30 3206167514368 1 0
24.05882 -25.816483 -1.0270122 40 3206167516672 1 0
0 0 0 1 3206167516672 1 0
5.6628575 -6.0783405 -1.6615057 4 3206167518976 1 0
28.717903 -27.952957 0 56 3206167518976 1 0
28.341564 -33.579296 -0.51155573 41 3206167521280 1 0
7.447823 -7.251549 -1.6172128 6 3206167521280 1 0
29.231325 -25.810198 0.22664139 23 3206167523584 1 0
28.45767 -30.57234 -0.24275202 43 3206167525888 1 0
9.243863 -9.005497 -1.3901197 17 3206167525888 1 0
11.237807 -13.326431 -1.6272647 3 3206167528192 1 0
28.67382 -27.942554 0.93164223 24 3206167528192 1 0
28.306555 -33.57743 0.51127636 26 3206167530496 1 0
15.726784 -15.330165 -1.5357585 4 3206167530496 1 0
13.203262 -14.196803 -1.5827017 3 3206167532800 1 0
29.26135 -25.86702 1.1366253 29 3206167532800 1 0
8.487741 -9.115801 -1.5854238 13 3206167523584 1 0
28.45509 -30.605251 0.7294408 61 3206167535104 1 0
17.496723 -15.471629 -1.4968623 6 3206167535104 1 0
16.698044 -19.824883 -1.5095215 6 3206167537408 1 0
32.358284 -31.569777 2.6327674 26 3206167537408 1 0
27.754963 -29.86964 1.6611828 17 3206167539712 1 0
20.02279 -21.554634 -1.5418173 9 3206167542016 1 0
21.715717 -21.192715 -1.4134294 9 3206167539712 1 0
0 0 0 202 3206167542016 1 0
32.335304 -34.819267 3.8791325 30 3206167544320 1 0
25.014242 -22.145004 -1.3610886 10 3206167544320 1 0
21.805279 -25.919075 -1.1828138 44 3206167546624 1 0
0 0 0 9 3206167546624 1 0
0 0 0 29 3206167548928 1 0
0 0 0 4 3206167569664 1 0
26.077261 -25.47885 -0.8483602 43 3206167548928 1 0
28.395636 -25.219688 -0.6629122 30 3206167569664 1 0
23.919487 -25.847658 -1.0249177 47 3206167571968 1 0
0 0 0 1 3206167571968 1 0
5.6335263 -6.089515 -1.6591523 3 3206167574272 1 0
28.685446 -28.117847 0 16 3206167574272 1 0
7.4279504 -7.2831984 -1.6184427 5 3206167576576 1 0
28.285099 -33.752213 -0.5126733 56 3206167576576 1 0
8.436748 -9.125224 -1.5818883 3 3206167578880 1 0
28.455547 -30.787079 -0.24365868 50 3206167581184 1 0
29.23296 -25.995323 0.22736207 17 3206167578880 1 0
9.197848 -9.024117 -1.3879777 52 3206167581184 1 0
11.193194 -13.369119 -1.6276366 3 3206167583488 1 0
28.626257 -28.09414 0.9333172 30 3206167583488 1 0
28.249073 -33.751083 0.5123939 39 3206167585792 1 0
15.66385 -15.37738 -1.5349214 4 3206167585792 1 0
13.155501 -14.246499 -1.5830272 3 3206167588096 1 0
29.205202 -26.002605 1.1380217 9 3206167588096 1 0
28.451874 -30.820856 0.73216337 61 3206167590400 1 0
17.432652 -15.525786 -1.4960947 6 3206167590400 1 0
16.617048 -19.872005 -1.5085913 6 3206167592704 1 0
32.313942 -31.75205 2.6383488 26 3206167592704 1 0
27.742985 -30.071365 1.6668817 26 3206167595008 1 0
21.657005 -21.286924 -1.4145461 9 3206167595008 1 0
19.942835 -21.6232 -1.541608 9 3206167597312 1 0
9.376296 -9.218887 1.6145251 189 3206167597312 1 0
24.943636 -22.242523 -1.3615772 10 3206167599616 1 0
21.637712 -25.908262 -1.1787654 44 3206167601920 1 0
32.33187 -35.066868 3.8937783 15 3206167599616 1 0
9.298353 -9.14784 3.4950924 1 3206167601920 1 0
0 0 0 29 3206167604224 1 0
25.908419 -25.496824 -0.8458478 43 3206167604224 1 0
0 0 0 4 3206167624960 1 0
28.201672 -25.232925 -0.6605387 24 3206167624960 1 0
23.784393 -25.890642 -1.0231723 40 3206167627264 1 0
0 0 0 1 3206167627264 1 0
5.6193066 -6.1186256 -1.6615057 4 3206167629568 1 0
28.631405 -28.269743 0 16 3206167629568 1 0
21.55046 -25.905863 -0.3923045 52 3206167631872 1 0
7.4015255 -7.3100514 -1.6184427 5 3206167631872 1 0
8.379629 -9.129287 -1.5773426 3 3206167634176 1 0
29.171778 -26.129953 0.22761779 17 3206167634176 1 0
28.450233 -31.004045 -0.24456532 51 3206167636480 1 0
11.155472 -13.421333 -1.6291237 3 3206167638784 1 0
28.585281 -28.255417 0.93527126 30 3206167638784 1 0
28.2411 -33.98689 0.51444274 39 3206167641088 1 0
9.122938 -9.015171 -1.381552 53 3206167636480 1 0
0 0 0 21 3206167641088 1 0
13.110249 -14.298973 -1.5836781 3 3206167643392 1 0
9.906667 -8.883543 0.3872532 13 3206167643392 1 0
28.456266 -31.045046 0.7350954 61 3206167645696 1 0
17.389555 -15.597963 -1.4971181 6 3206167645696 1 0
16.554653 -19.939587 -1.509289 6 3206167648000 1 0
32.341064 -32.00322 2.649744 13 3206167648000 1 0
27.739998 -30.28041 1.6730692 26 3206167650304 1 0
21.610655 -21.390814 -1.4164073 4 3206167650304 1 0
19.867233 -21.69268 -1.541608 9 3206167652608 1 0
9.273527 -9.181726 1.6023381 163 3206167652608 1 0
32.34439 -35.326065 3.910051 31 3206167654912 1 0
24.889957 -22.350458 -1.3628798 10 3206167654912 1 0
21.50707 -25.933775 -1.1765318 49 3206167657216 1 0
0 0 0 13 3206167657216 1 0
0 0 0 29 3206167659520 1 0
0 0 0 4 3206167680256 1 0
25.763565 -25.529684 -0.84398675 21 3206167659520 1 0
9.952087 -8.964046 -0.23379244 12 3206167680256 1 0
23.644316 -25.910475 -1.020845 40 3206167682560 1 0
0 0 0 1 3206167682560 1 0
5.6015396 -6.1402054 -1.6622902 4 3206167684864 1 0
28.271162 -34.2165 -0.5167244 42 3206167687168 1 0
9.240014 -9.184276 0 36 3206167684864 1 0
7.377084 -7.3347163 -1.6184427 5 3206167687168 1 0
8.333002 -9.139674 -1.5743122 4 3206167689472 1 0
29.17926 -26.313112 0.22836171 11 3206167689472 1 0
28.486246 -31.252972 -0.24577421 26 3206167691776 1 0
9.0757475 -9.028876 -1.3789816 50 3206167691776 1 0
11.117923 -13.467951 -1.630239 3 3206167694080 1 0
0 0 0 92 3206167694080 1 0
28.23343 -34.21135 0.51639843 39 3206167696384 1 0
9.219325 -9.17705 -0.9096244 14 3206167696384 1 0
13.072662 -14.35492 -1.5849799 3 3206167698688 1 0
9.90928 -8.946394 0.38853317 11 3206167698688 1 0
28.48036 -31.283049 0.73844624 69 3206167700992 1 0
16.497149 -20.007896 -1.5102192 6 3206167703296 1 0
17.339674 -15.659353 -1.4973739 6 3206167700992 1 0
0 0 0 24 3206167703296 1 0
27.736523 -30.483822 1.679094 26 3206167705600 1 0
0 0 0 30 3206167705600 1 0
19.860487 -21.834044 -1.5468415 9 3206167707904 1 0
9.169119 -9.140359 1.5896637 181 3206167707904 1 0
32.231766 -35.445026 3.9110274 15 3206167710208 1 0
24.87584 -22.491508 -1.3662992 10 3206167710208 1 0
21.37002 -25.948503 -1.1738795 27 3206167712512 1 0
0 0 0 29 3206167714816 1 0
9.114837 -9.091535 3.4495401 10 3206167712512 1 0
9.217305 -9.196416 -0.30297914 18 3206167714816 1 0
0 0 0 4 3206167735552 1 0
9.935548 -9.012165 -0.23414148 12 3206167735552 1 0
23.497347 -25.930632 -1.0184014 39 3206167737856 1 0
0 0 0 1 3206167737856 1 0
5.5827055 -6.1626277 -1.6630746 5 3206167740160 1 0
0 0 0 225 3206167740160 1 0
28.268248 -34.457222 -0.51886636 15 3206167742464 1 0
7.357022 -7.3660154 -1.6196724 5 3206167742464 1 0
8.27708 -9.142232 -1.5697665 23 3206167744768 1 0
9.949415 -9.035299 0.07811212 10 3206167744768 1 0
23.448854 -25.907394 -0.20309152 19 3206167747072 1 0
0 0 0 17 3206167747072 1 0
11.068318 -13.503598 -1.6298672 3 3206167749376 1 0
0 0 0 242 3206167749376 1 0
28.230452 -34.452003 0.5185404 33 3206167751680 1 0
9.181599 -9.203526 -0.9090664 25 3206167751680 1 0
13.025149 -14.403421 -1.5853055 3 3206167753984 1 0
9.91645 -9.015895 0.39004588 11 3206167753984 1 0
28.462177 -31.483143 0.74081975 69 3206167756288 1 0
17.290813 -15.725156 -1.4978856 6 3206167756288 1 0
16.429737 -20.06845 -1.5104518 6 3206167758592 1 0
9.164698 -9.194604 0.75603986 22 3206167758592 1 0
27.721045 -30.681282 1.6846302 26 3206167760896 1 0
9.174584 -9.207201 -0.60546297 27 3206167760896 1 0
19.786829 -21.906202 -1.5470508 9 3206167763200 1 0
32.113186 -35.563236 3.9116783 15 3206167765504 1 0
9.036287 -9.071051 1.5721146 172 3206167763200 1 0
24.817863 -22.59704 -1.3674389 10 3206167765504 1 0
20.593534 -25.184288 -1.1360484 10 3206167767808 1 0
9.129388 -9.169844 3.46714 11 3206167767808 1 0
0 0 0 29 3206167770112 1 0
9.159759 -9.203025 -0.30214167 41 3206167770112 1 0
0 0 0 4 3206167791296 1 0
9.94537 -9.084554 -0.23511882 12 3206167791296 1 0
0 0 0 1 3206167793600 1 0
23.363897 -25.96494 -1.0165396 33 3206167793600 1 0
5.56116 -6.1820774 -1.6630746 3 3206167795904 1 0
9.147499 -9.220163 0 236 3206167795904 1 0
20.130108 -24.712759 -0.37107116 48 3206167798208 1 0
7.3368316 -7.397264 -1.6209022 6 3206167798208 1 0
8.237158 -9.162217 -1.5682514 30 3206167800512 1 0
9.914864 -9.067275 0.07808887 10 3206167800512 1 0
23.347584 -25.977188 -0.20299852 19 3206167802816 1 0
8.970496 -9.049648 -1.3725557 2 3206167802816 1 0
11.033685 -13.557596 -1.631726 3 3206167805120 1 0
9.134029 -9.217306 0.30195555 235 3206167805120 1 0
28.221087 -34.68685 0.52058923 33 3206167807424 1 0
12.98012 -14.454733 -1.5859563 3 3206167809728 1 0
9.152225 -9.238354 -0.9093454 18 3206167807424 1 0
9.884917 -9.050455 0.39004588 16 3206167809728 1 0
28.45096 -31.69242 0.7434027 62 3206167812032 1 0
0 0 0 100 3206167812032 1 0
16.362103 -20.128777 -1.5106844 6 3206167814336 1 0
9.126928 -9.220862 0.7555747 16 3206167814336 1 0
27.725878 -30.902805 1.691469 26 3206167816640 1 0
9.14801 -9.244851 -0.60583526 20 3206167816640 1 0
19.72091 -21.987032 -1.5478883 9 3206167818944 1 0
8.971063 -9.068668 1.5662647 118 3206167818944 1 0
0 0 0 28 3206167821248 1 0
32.278957 -35.998653 3.9471533 31 3206167821248 1 0
0 0 0 38 3206167823552 1 0
9.1054735 -9.209898 3.4702458 11 3206167823552 1 0
0 0 0 29 3206167825856 1 0
9.127579 -9.234942 -0.30214167 22 3206167825856 1 0
0 0 0 4 3206167846592 1 0
9.878277 -9.086723 -0.23428111 23 3206167846592 1 0
23.214512 -25.980743 -1.0139797 33 3206167848896 1 0
0 0 0 1 3206167848896 1 0
5.5395465 -6.201452 -1.6630746 3 3206167851200 1 0
0 0 0 56 3206167853504 1 0
7.313739 -7.4256454 -1.6215172 6 3206167853504 1 0
8.181343 -9.164273 -1.5637057 25 3206167855808 1 0
9.112452 -9.249188 0 217 3206167851200 1 0
9.856672 -9.077442 0.077879645 19 3206167855808 1 0
28.469028 -31.898718 -0.24849418 59 3206167858112 1 0
8.927693 -9.06957 -1.3708422 3 3206167858112 1 0
10.993802 -13.605322 -1.6328413 3 3206167860416 1 0
29.532475 -36.55863 0.5471309 30 3206167862720 1 0
9.1074095 -9.254834 0.30214167 221 3206167860416 1 0
9.122719 -9.273089 -0.9096244 16 3206167862720 1 0
12.945504 -14.517807 -1.5879091 3 3206167865024 1 0
9.847386 -9.079484 0.38981315 16 3206167865024 1 0
28.459919 -31.92588 0.7465441 63 3206167867328 1 0
16.30679 -20.204414 -1.5120797 6 3206167869632 1 0
0 0 0 142 3206167867328 1 0
9.11708 -9.275448 0.75743514 7 3206167869632 1 0
0 0 0 6 3206167871936 1 0
19.641384 -22.052753 -1.547679 9 3206167874240 1 0
0 0 0 10 3206167874240 1 0
32.28566 -36.259983 3.963426 48 3206167876544 1 0
0 0 0 101 3206167876544 1 0
19.995724 -24.804586 -1.1125959 48 3206167878848 1 0
27.716208 -31.109812 1.6974936 27 3206167871936 1 0
9.067856 -9.236112 3.4681752 8 3206167878848 1 0
0 0 0 29 3206167881152 1 0
9.131701 -9.303849 -0.30335134 11 3206167881152 1 0
0 0 0 4 3206167901888 1 0
9.867036 -9.140175 -0.23476978 13 3206167901888 1 0
23.046913 -25.97472 -1.0106051 33 3206167904192 1 0
0 0 0 1 3206167904192 1 0
0 0 0 7 3206167906496 1 0
5.520559 -6.2236047 -1.6638591 3 3206167906496 1 0
28.577808 -35.586533 -0.5313456 11 3206167908800 1 0
8.13641 -9.177693 -1.5611804 45 3206167911104 1 0
0 0 0 5 3206167911104 1 0
28.478058 -32.131573 -0.24954033 40 3206167913408 1 0
8.87685 -9.080447 -1.3678435 3 3206167913408 1 0
10.941854 -13.636924 -1.6320978 3 3206167915712 1 0
9.103404 -9.314772 0.30307218 67 3206167915712 1 0
7.2879367 -7.4509706 -1.6215172 5 3206167908800 1 0
29.506655 -36.7848 0.54899347 37 3206167918016 1 0
0 0 0 1 3206167918016 1 0
12.898239 -14.565142 -1.5882345 3 3206167920320 1 0
9.942162 -9.230207 0.39481673 8 3206167920320 1 0
28.467047 -32.154934 0.7496158 63 3206167922624 1 0
9.822356 -9.121509 -0.8590777 107 3206167922624 1 0
16.240133 -20.263147 -1.5123122 6 3206167924928 1 0
27.79155 -28.468288 2.3169563 18 3206167924928 1 0
27.71323 -31.320896 1.703844 27 3206167927232 1 0
21.257378 -21.781025 -1.4177103 9 3206167927232 1 0
19.582094 -22.137424 -1.5489349 9 3206167929536 1 0
0 0 0 3 3206167929536 1 0
32.283817 -36.506798 3.9783974 48 3206167931840 1 0
9.829301 -9.13808 -0.54678017 32 3206167931840 1 0
19.931538 -24.897173 -1.1137128 48 3206167934144 1 0
0 0 0 29 3206167936448 1 0
9.052689 -9.283385 3.474387 6 3206167934144 1 0
25.033892 -25.678947 -0.83449537 31 3206167936448 1 0
0 0 0 4 3206167957184 1 0
22.883795 -25.964182 -1.0072306 32 3206167959488 1 0
0 0 0 1 3206167959488 1 0
5.502393 -6.2449 -1.6646435 4 3206167961792 1 0
27.04134 -25.216457 -0.64539 23 3206167957184 1 0
28.391222 -29.21233 0 58 3206167961792 1 0
7.2657795 -7.478091 -1.6221321 5 3206167964096 1 0
28.551142 -35.79742 -0.5330685 16 3206167964096 1 0
28.977562 -27.053549 0.2304075 12 3206167966400 1 0
8.089929 -9.186992 -1.5581499 19 3206167966400 1 0
28.475899 -32.34696 -0.25047022 40 3206167968704 1 0
0 0 0 85 3206167968704 1 0
0 0 0 17 3206167971008 1 0
0 0 0 7 3206167971008 1 0
29.50724 -37.040363 0.5513217 30 3206167973312 1 0
15.381508 -15.849404 -1.5444083 4 3206167973312 1 0
12.856917 -14.617561 -1.5892109 3 3206167975616 1 0
9.972301 -9.321037 0.39726034 7 3206167975616 1 0
28.461145 -32.368145 0.75233835 55 3206167977920 1 0
0 0 0 9 3206167977920 1 0
16.176346 -20.324314 -1.5127773 6 3206167980224 1 0
27.767189 -28.636843 2.3230028 27 3206167980224 1 0
27.71223 -31.53492 1.7103571 27 3206167982528 1 0
21.169378 -21.838747 -1.4167796 9 3206167982528 1 0
19.496094 -22.191938 -1.5480976 9 3206167984832 1 0
0 0 0 1 3206167984832 1 0
32.285397 -36.76048 3.9940193 48 3206167987136 1 0
0 0 0 3 3206167987136 1 0
0 0 0 9 3206167989440 1 0
19.86125 -24.983927 -1.1145504 53 3206167989440 1 0
0 0 0 29 3206167991744 1 0
24.890156 -25.707083 -0.8326343 47 3206167991744 1 0
26.886099 -25.247728 -0.64378434 41 3206168012480 1 0
0 0 0 4 3206168012480 1 0
22.708572 -25.947788 -1.003507 32 3206168014784 1 0
4.154808 -4.303745 -1.6746022 0 3206168014784 1 0
5.483052 -6.267101 -1.665428 3 3206168017088 1 0
28.405317 -29.432552 0 47 3206168017088 1 0
28.842371 -36.424282 -0.5408913 16 3206168019392 1 0
0 0 0 22 3206168021696 1 0
7.2449565 -7.509254 -1.6233618 6 3206168019392 1 0
28.928787 -27.199215 0.23077947 18 3206168021696 1 0
28.46693 -32.567657 -0.25140014 34 3206168024000 1 0
8.786567 -9.112671 -1.3635596 49 3206168024000 1 0
28.3741 -29.43617 0.9513694 31 3206168026304 1 0
10.874762 -13.746391 -1.6361874 35 3206168026304 1 0
29.50489 -37.307766 0.55374306 22 3206168028608 1 0
15.316973 -15.89516 -1.5435712 4 3206168028608 1 0
12.812828 -14.672106 -1.5901873 3 3206168030912 1 0
28.4537 -32.592678 0.7552005 56 3206168033216 1 0
28.894596 -27.20034 1.1548942 20 3206168030912 1 0
0 0 0 9 3206168033216 1 0
27.759134 -28.833416 2.3309097 28 3206168035520 1 0
16.178087 -20.475826 -1.519754 6 3206168035520 1 0
27.704556 -31.754133 1.7168703 27 3206168037824 1 0
21.096806 -21.919954 -1.4171519 9 3206168037824 1 0
19.440199 -22.288645 -1.5499817 9 3206168040128 1 0
0 0 0 1 3206168040128 1 0
32.26868 -37.008205 4.0083394 16 3206168042432 1 0
0 0 0 3 3206168042432 1 0
19.801085 -25.092775 -1.1162255 48 3206168044736 1 0
0 0 0 9 3206168044736 1 0
0 0 0 29 3206168047040 1 0
24.750343 -25.747505 -0.8310524 47 3206168047040 1 0
0 0 0 4 3206168067776 1 0
26.729464 -25.285635 -0.6422486 41 3206168067776 1 0
22.540085 -25.946165 -1.0002489 32 3206168070080 1 0
4.125712 -4.305009 -1.6692107 0 3206168070080 1 0
5.4627085 -6.290037 -1.6662126 2 3206168072384 1 0
28.664984 -36.47252 -0.5400531 22 3206168074688 1 0
7.21755 -7.5356 -1.6233618 5 3206168074688 1 0
7.9927697 -9.208687 -1.552089 3 3206168076992 1 0
28.394533 -29.637146 0 48 3206168072384 1 0
28.881973 -27.353731 0.23119792 18 3206168076992 1 0
28.43507 -32.77044 -0.2521673 61 3206168079296 1 0
8.70669 -9.095656 -1.356277 45 3206168079296 1 0
28.361313 -29.636967 0.95453316 37 3206168081600 1 0
10.812609 -13.770022 -1.6343285 37 3206168081600 1 0
29.505692 -37.5872 0.5563041 31 3206168083904 1 0
15.270457 -15.961949 -1.5446874 6 3206168083904 1 0
12.762434 -14.721238 -1.5905128 3 3206168086208 1 0
28.848522 -27.353905 1.1569887 30 3206168086208 1 0
28.412151 -32.78254 0.75722504 64 3206168088512 1 0
16.104424 -20.533813 -1.519754 6 3206168090816 1 0
17.004038 -16.127771 -1.5019789 4 3206168088512 1 0
27.754702 -29.036873 2.3392816 28 3206168090816 1 0
21.098137 -22.079226 -1.4225495 9 3206168093120 1 0
27.689968 -31.968052 1.7230577 27 3206168093120 1 0
19.376017 -22.376175 -1.5512377 9 3206168095424 1 0
0 0 0 1 3206168095424 1 0
32.279842 -37.28897 4.0262394 33 3206168097728 1 0
24.463808 -23.230167 -1.3744407 10 3206168097728 1 0
19.73373 -25.191498 -1.1174818 48 3206168100032 1 0
0 0 0 9 3206168100032 1 0
0 0 0 29 3206168102336 1 0
24.608929 -25.783287 -0.8293775 46 3206168102336 1 0
0 0 0 4 3206168123072 1 0
26.574434 -25.315338 -0.64064294 40 3206168123072 1 0
22.363195 -25.924778 -0.996409 31 3206168125376 1 0
4.121281 -4.3305454 -1.6735239 0 3206168125376 1 0
5.4407187 -6.3090672 -1.6662126 3 3206168127680 1 0
28.390165 -29.840406 0 42 3206168127680 1 0
28.60147 -36.654343 -0.5412638 16 3206168129984 1 0
7.2020974 -7.572204 -1.6258215 5 3206168129984 1 0
7.950215 -9.224508 -1.5500687 3 3206168132288 1 0
28.838417 -27.504072 0.23161638 18 3206168132288 1 0
28.396221 -32.95738 -0.2528415 34 3206168134592 1 0
8.661187 -9.111581 -1.354135 39 3206168134592 1 0
10.766926 -13.8108225 -1.6347003 37 3206168136896 1 0
28.359612 -29.84304 0.9579761 38 3206168136896 1 0
29.497244 -37.847706 0.5586323 23 3206168139200 1 0
15.220143 -16.02094 -1.5452454 6 3206168139200 1 0
12.721374 -14.777783 -1.5918145 3 3206168141504 1 0
28.813591 -27.512424 1.1594323 30 3206168141504 1 0
28.375809 -32.972458 0.7593193 48 3206168143808 1 0
16.96207 -16.200813 -1.503258 4 3206168143808 1 0
16.047369 -20.608807 -1.5211494 6 3206168146112 1 0
27.746645 -29.23205 2.3471885 28 3206168146112 1 0
27.682455 -32.18572 1.729571 27 3206168148416 1 0
21.026438 -22.158533 -1.4229218 9 3206168148416 1 0
19.303 -22.449732 -1.5516565 9 3206168150720 1 0
0 0 0 1 3206168150720 1 0
32.26383 -37.534447 4.04056 50 3206168153024 1 0
24.40279 -23.334757 -1.3755804 10 3206168153024 1 0
0 0 0 9 3206168155328 1 0
19.665308 -25.285471 -1.1185987 48 3206168155328 1 0
0 0 0 29 3206168157632 1 0
24.458258 -25.805178 -0.8273303 46 3206168157632 1 0
0 0 0 4 3206168178368 1 0
26.425297 -25.349804 -0.6391769 40 3206168178368 1 0
22.191935 -25.908546 -0.9928017 31 3206168180672 1 0
5.421214 -6.331 -1.666997 2 3206168182976 1 0
4.111431 -4.350504 -1.6756804 0 3206168180672 1 0
28.390215 -30.049814 0 42 3206168182976 1 0
0 0 0 12 3206168185280 1 0
7.1674795 -7.588678 -1.6239768 5 3206168185280 1 0
7.897327 -9.2280855 -1.5460281 23 3206168187584 1 0
28.808586 -27.668297 0.23215108 36 3206168187584 1 0
28.39542 -33.19003 -0.25386438 28 3206168189888 1 0
0 0 0 6 3206168189888 1 0
10.725965 -13.85777 -1.6358156 36 3206168192192 1 0
28.35407 -30.046555 0.961326 38 3206168192192 1 0
29.834908 -38.557796 0.56757265 24 3206168194496 1 0
12.672302 -14.8251295 -1.59214 3 3206168196800 1 0
15.166865 -16.076874 -1.5455245 6 3206168194496 1 0
28.77502 -27.668259 1.1617596 35 3206168196800 1 0
28.369665 -33.199005 0.7622513 48 3206168199104 1 0
16.948572 -16.301432 -1.5070955 4 3206168199104 1 0
15.992431 -20.686811 -1.5227772 6 3206168201408 1 0
27.740301 -29.430431 2.355328 29 3206168201408 1 0
27.676355 -32.406757 1.736247 27 3206168203712 1 0
19.286766 -22.589886 -1.5566807 9 3206168206016 1 0
20.946222 -22.228886 -1.4227357 9 3206168203712 1 0
0 0 0 1 3206168206016 1 0
32.262024 -37.79846 4.056833 33 3206168208320 1 0
19.598915 -25.382439 -1.119855 48 3206168210624 1 0
24.324068 -23.422567 -1.3757433 10 3206168208320 1 0
0 0 0 9 3206168210624 1 0
0 0 0 29 3206168212928 1 0
24.313217 -25.832157 -0.82546926 46 3206168212928 1 0
26.27049 -25.37798 -0.63757133 40 3206168233664 1 0
0 0 0 4 3206168233664 1 0
22.02087 -25.891598 -0.9891945 31 3206168235968 1 0
5.40153 -6.3529515 -1.6677815 3 3206168238272 1 0
4.096188 -4.364859 -1.6756804 0 3206168235968 1 0
28.418812 -30.292084 0 42 3206168238272 1 0
28.617178 -37.20884 -0.546479 23 3206168240576 1 0
7.1461883 -7.619572 -1.6252066 5 3206168240576 1 0
28.7599 -27.816797 0.23254628 24 3206168242880 1 0
7.8570895 -9.246754 -1.5445129 51 3206168242880 1 0
28.392122 -33.42411 -0.25488728 35 3206168245184 1 0
10.686626 -13.908225 -1.6373028 28 3206168247488 1 0
8.567115 -9.140219 -1.3494228 3 3206168245184 1 0
28.365274 -30.272057 0.96532726 38 3206168247488 1 0
29.476446 -38.37457 0.5633353 15 3206168249792 1 0
15.120745 -16.142138 -1.5466405 6 3206168249792 1 0
12.62219 -14.873048 -1.5924655 3 3206168252096 1 0
28.72835 -27.820269 1.1638541 35 3206168252096 1 0
28.360096 -33.42777 0.7651833 40 3206168254400 1 0
16.890495 -16.361599 -1.5070955 4 3206168254400 1 0
15.9161825 -20.7405 -1.5225446 6 3206168256704 1 0
27.733482 -29.634054 2.3637002 29 3206168256704 1 0
27.666437 -32.63036 1.7429229 27 3206168259008 1 0
20.883097 -22.321043 -1.4238523 9 3206168259008 1 0
19.218733 -22.673983 -1.5577275 9 3206168261312 1 0
0 0 0 1 3206168261312 1 0
24.280102 -23.54858 -1.3780229 10 3206168263616 1 0
19.527058 -25.478067 -1.1209718 48 3206168265920 1 0
0 0 0 9 3206168265920 1 0
0 0 0 29 3206168268224 1 0
24.151815 -25.846464 -0.82314295 41 3206168268224 1 0
0 0 0 4 3206168288960 1 0
26.102777 -25.401575 -0.63575625 40 3206168288960 1 0
21.859142 -25.892382 -0.9861691 37 3206168291264 1 0
4.1064825 -4.4079676 -1.6864635 0 3206168291264 1 0
5.3783946 -6.37255 -1.6677815 3 3206168293568 1 0
28.417526 -30.512302 0 43 3206168293568 1 0
29.654436 -38.84783 -0.5689696 12 3206168295872 1 0
7.1185465 -7.6454024 -1.6252066 5 3206168295872 1 0
7.8006597 -9.247736 -1.5399673 32 3206168298176 1 0
28.713814 -27.973387 0.232988 18 3206168298176 1 0
28.356958 -33.6268 -0.25565445 49 3206168300480 1 0
8.517968 -9.153468 -1.3468525 3 3206168300480 1 0
32.257744 -38.069004 4.073431 34 3206168263616 1 0
10.646457 -13.959039 -1.6387898 28 3206168302784 1 0
28.39025 -30.516815 0.96988684 39 3206168302784 1 0
29.446222 -38.61931 0.56538415 24 3206168305088 1 0
15.0685625 -16.20176 -1.5471985 6 3206168305088 1 0
12.582173 -14.932992 -1.5940927 3 3206168307392 1 0
28.32938 -33.631794 0.76755685 56 3206168309696 1 0
16.841135 -16.429556 -1.5078629 4 3206168309696 1 0
28.692411 -27.983463 1.166414 30 3206168307392 1 0
15.845503 -20.799568 -1.5227772 6 3206168312000 1 0
27.724148 -29.833866 2.3718395 19 3206168312000 1 0
27.662573 -32.858604 1.7499245 27 3206168314304 1 0
19.154902 -22.759268 -1.5589834 9 3206168316608 1 0
0 0 0 1 3206168316608 1 0
20.812887 -22.402887 -1.4244107 9 3206168314304 1 0
32.258686 -38.339535 4.090355 34 3206168318912 1 0
24.206676 -23.641214 -1.3785113 10 3206168318912 1 0
19.462954 -25.57732 -1.1223679 48 3206168321216 1 0
0 0 0 9 3206168321216 1 0
0 0 0 29 3206168323520 1 0
24.013615 -25.8768 -0.821468 46 3206168323520 1 0
0 0 0 4 3206168344256 1 0
25.955545 -25.426424 -0.6342204 40 3206168344256 1 0
21.708555 -25.888449 -0.98326004 37 3206168346560 1 0
5.3570466 -6.3905063 -1.6677815 3 3206168348864 1 0
28.41852 -30.718771 0 50 3206168348864 1 0
29.654224 -39.119366 -0.571484 12 3206168351168 1 0
4.0813136 -4.4103117 -1.6821502 0 3206168346560 1 0
7.0928197 -7.669276 -1.6252066 6 3206168351168 1 0
7.7592177 -9.261839 -1.5379469 33 3206168353472 1 0
28.676373 -28.126133 0.23345295 18 3206168353472 1 0
28.325024 -33.82083 -0.25639838 42 3206168355776 1 0
10.6061 -14.004717 -1.6399051 26 3206168358080 1 0
28.38392 -30.718996 0.97323674 39 3206168358080 1 0
8.462605 -9.155996 -1.342997 7 3206168355776 1 0
29.439594 -38.88555 0.56780547 24 3206168360384 1 0
15.021221 -16.261961 -1.5480356 6 3206168360384 1 0
12.538517 -14.985265 -1.5950692 3 3206168362688 1 0
28.647541 -28.13221 1.1685085 35 3206168362688 1 0
16.795794 -16.4987 -1.5088862 4 3206168364992 1 0
28.305658 -33.839684 0.77006996 56 3206168364992 1 0
15.775818 -20.85748 -1.5230098 6 3206168367296 1 0
27.660973 -33.089485 1.757089 27 3206168369600 1 0
27.715496 -30.032366 2.379979 20 3206168367296 1 0
20.743013 -22.48391 -1.4249691 9 3206168369600 1 0
19.083025 -22.835188 -1.5596114 9 3206168371904 1 0
0 0 0 1 3206168371904 1 0
24.132208 -23.734327 -1.3789998 10 3206168374208 1 0
32.249348 -38.60229 4.1063023 35 3206168374208 1 0
19.384855 -25.661615 -1.1230658 50 3206168376512 1 0
0 0 0 9 3206168376512 1 0
0 0 0 29 3206168378816 1 0
23.870523 -25.905636 -0.8197 46 3206168378816 1 0
0 0 0 4 3206168399552 1 0
25.833712 -25.493294 -0.63352233 11 3206168399552 1 0
21.559809 -25.903307 -0.9808164 50 3206168401856 1 0
4.052092 -4.4110575 -1.6767588 0 3206168401856 1 0
5.338606 -6.416128 -1.6693504 3 3206168404160 1 0
28.411255 -30.937624 0 51 3206168404160 1 0
19.709831 -26.199806 -0.38168785 10 3206168406464 1 0
7.072682 -7.7039557 -1.6270514 5 3206168406464 1 0
7.715071 -9.278011 -1.5359267 14 3206168408768 1 0
0 0 0 106 3206168408768 1 0
28.336393 -34.08745 -0.2576305 21 3206168411072 1 0
8.415546 -9.1723 -1.340855 64 3206168411072 1 0
10.576234 -14.072149 -1.6432512 15 3206168413376 1 0
28.371153 -30.931862 0.9766797 39 3206168413376 1 0
29.419405 -39.156277 0.57018024 24 3206168415680 1 0
14.961517 -16.316908 -1.5480356 6 3206168415680 1 0
12.501339 -15.052589 -1.5973474 3 3206168417984 1 0
0 0 0 200 3206168417984 1 0
0 0 0 81 3206168420288 1 0
28.298958 -34.084747 0.7732812 57 3206168420288 1 0
15.706457 -20.924742 -1.5237075 6 3206168422592 1 0
27.644144 -33.316753 1.7637651 27 3206168424896 1 0
20.679358 -22.580412 -1.426272 9 3206168424896 1 0
27.699646 -30.236803 2.3881185 30 3206168422592 1 0
19.009403 -22.917274 -1.5604489 9 3206168427200 1 0
0 0 0 1 3206168427200 1 0
32.24252 -38.882885 4.1235514 53 3206168429504 1 0
9.250064 -9.164492 -0.53049725 7 3206168429504 1 0
0 0 0 9 3206168431808 1 0
19.312252 -25.76128 -1.1243222 50 3206168431808 1 0
0 0 0 29 3206168434112 1 0
0 0 0 4 3206168454296 1 0
23.734928 -25.94869 -0.81830424 46 3206168434112 1 0
21.435196 -25.918375 -0.97883826 56 3206168456600 1 0
9.225853 -9.161668 -0.22695109 20 3206168454296 1 0
4.0278587 -4.412357 -1.6724455 0 3206168456600 1 0
5.3210154 -6.435814 -1.6701349 3 3206168458904 1 0
28.451887 -31.177 0 51 3206168458904 1 0
7.0566044 -7.734743 -1.6288961 7 3206168461208 1 0
0 0 0 22 3206168463512 1 0
0 0 0 20 3206168461208 1 0
0 0 0 242 3206168463512 1 0
21.382967 -25.885872 -0.19514081 27 3206168465816 1 0
8.376306 -9.186633 -1.3391415 67 3206168465816 1 0
0 0 0 56 3206168468120 1 0
28.409885 -31.167374 0.9813323 39 3206168468120 1 0
29.432234 -39.426502 0.5727879 24 3206168470424 1 0
14.919078 -16.371918 -1.5488727 6 3206168470424 1 0
9.204187 -9.161449 0.37794423 243 3206168472728 1 0
12.459941 -15.097214 -1.5979983 3 3206168472728 1 0
28.311056 -34.31354 0.7764925 49 3206168475032 1 0
9.210532 -9.170431 -0.832983 18 3206168475032 1 0
15.701853 -21.052868 -1.5295213 6 3206168477336 1 0
27.714256 -30.439777 2.3974206 20 3206168477336 1 0
27.653889 -33.53691 1.7709296 28 3206168479640 1 0
20.618196 -22.652483 -1.4268304 9 3206168479640 1 0
18.962185 -23.00297 -1.562333 9 3206168481944 1 0
0 0 0 1 3206168481944 1 0
32.237988 -39.119396 4.138197 18 3206168484248 1 0
9.196621 -9.167241 -0.5290318 21 3206168484248 1 0
19.260122 -25.85513 -1.1258577 50 3206168486552 1 0
0 0 0 9 3206168486552 1 0
23.60771 -25.967287 -0.8166293 46 3206168488856 1 0
0 0 0 29 3206168488856 1 0
0 0 0 4 3206168509592 1 0
9.190989 -9.190989 -0.22688128 41 3206168509592 1 0
21.296194 -25.934484 -0.9766274 12 3206168511896 1 0
4.022748 -4.4378347 -1.6767588 0 3206168511896 1 0
5.2984242 -6.4544253 -1.6701349 3 3206168514200 1 0
28.439127 -31.383244 0 19 3206168514200 1 0
29.60017 -39.894836 -0.578329 19 3206168516504 1 0
7.040007 -7.7711983 -1.6313556 16 3206168516504 1 0
7.623167 -9.292163 -1.5298657 3 3206168518808 1 0
9.166829 -9.178036 0.07539214 245 3206168518808 1 0
28.322763 -34.534428 -0.25958332 22 3206168521112 1 0
8.314491 -9.183688 -1.3344293 61 3206168521112 1 0
10.489787 -14.151583 -1.6443665 2 3206168523416 1 0
28.406893 -31.386183 0.98505443 46 3206168523416 1 0
29.416246 -39.697598 0.5752092 24 3206168525720 1 0
14.869034 -16.433529 -1.5497098 4 3206168525720 1 0
9.154675 -9.177072 0.37724605 240 3206168528024 1 0
12.406285 -15.141336 -1.5979983 3 3206168528024 1 0
28.287693 -34.534668 0.77921504 49 3206168530328 1 0
9.175044 -9.2003 -0.83272713 18 3206168530328 1 0
15.633862 -21.118315 -1.5302191 6 3206168532632 1 0
27.70469 -30.647945 2.4060252 20 3206168532632 1 0
27.642824 -33.76842 1.7779312 28 3206168534936 1 0
20.606836 -22.803036 -1.4316696 9 3206168534936 1 0
18.87723 -23.067575 -1.5621237 9 3206168537240 1 0
31.91357 -35.325645 5.845341 11 3206168537240 1 0
32.228798 -39.39518 4.155121 54 3206168539544 1 0
9.155234 -9.191658 -0.52854335 21 3206168539544 1 0
19.188503 -25.953083 -1.1271142 50 3206168541848 1 0
0 0 0 9 3206168541848 1 0
0 0 0 29 3206168544152 1 0
23.455135 -25.986792 -0.8145821 45 3206168544152 1 0
0 0 0 4 3206168564888 1 0
9.148787 -9.216098 -0.22667186 21 3206168564888 1 0
20.12274 -24.688675 -0.9269408 50 3206168567192 1 0
3.9987907 -4.4439006 -1.6735239 0 3206168567192 1 0
5.27492 -6.4736485 -1.6701349 3 3206168569496 1 0
23.37574 -25.98494 0 48 3206168569496 1 0
29.604906 -40.20468 -0.5812626 19 3206168571800 1 0
7.017103 -7.8025208 -1.6325855 50 3206168571800 1 0
7.574567 -9.301138 -1.5268353 3 3206168574104 1 0
9.136481 -9.2138815 0.075415395 229 3206168574104 1 0
20.10464 -24.694323 -0.18507458 68 3206168576408 1 0
8.265494 -9.195752 -1.3318589 47 3206168576408 1 0
10.460328 -14.2178955 -1.6477125 2 3206168578712 1 0
28.393307 -31.597675 0.9884974 39 3206168578712 1 0
29.395464 -39.96649 0.57758397 24 3206168581016 1 0
14.815714 -16.492346 -1.5502678 4 3206168581016 1 0
12.360021 -15.194548 -1.5989746 3 3206168583320 1 0
9.133305 -9.220864 0.3777115 115 3206168583320 1 0
29.621424 -36.424793 0.8194952 26 3206168585624 1 0
15.561798 -21.176428 -1.5304515 6 3206168587928 1 0
9.153706 -9.244016 -0.8337505 8 3206168585624 1 0
27.698008 -30.858194 2.4148624 21 3206168587928 1 0
27.622599 -33.986065 1.7842815 18 3206168590232 1 0
20.540123 -22.889997 -1.4326003 9 3206168590232 1 0
18.85957 -23.210833 -1.5673572 9 3206168592536 1 0
31.652206 -35.283154 5.8199925 33 3206168592536 1 0
32.212315 -39.655506 4.170743 55 3206168594840 1 0
9.145713 -9.24616 -0.52984595 13 3206168594840 1 0
0 0 0 9 3206168597144 1 0
19.122206 -26.051577 -1.1285101 50 3206168597144 1 0
0 0 0 29 3206168599448 1 0
23.320044 -26.016865 -0.8130002 40 3206168599448 1 0
0 0 0 4 3206168620184 1 0
9.171531 -9.300491 -0.22799824 12 3206168620184 1 0
3.9814005 -4.454323 -1.6724455 0 3206168622488 1 0
5.2606373 -6.500405 -1.6724882 3 3206168624792 1 0
20.040398 -24.75556 -0.9269408 45 3206168622488 1 0
28.443216 -31.831568 0 66 3206168624792 1 0
29.580618 -40.455666 -0.5834511 13 3206168627096 1 0
6.9750504 -7.8083663 -1.6288961 57 3206168627096 1 0
7.5281672 -9.308133 -1.5238049 13 3206168629400 1 0
0 0 0 26 3206168629400 1 0
0 0 0 19 3206168631704 1 0
0 0 0 8 3206168631704 1 0
10.421276 -14.266278 -1.6491996 2 3206168634008 1 0
28.408087 -31.831367 0.99277776 40 3206168634008 1 0
29.3955 -40.254078 0.5802847 25 3206168636312 1 0
14.788479 -16.575642 -1.5533372 4 3206168636312 1 0
12.315309 -15.246187 -1.599951 3 3206168638616 1 0
0 0 0 20 3206168638616 1 0
29.596197 -36.651146 0.82228756 79 3206168640920 1 0
0 0 0 4 3206168640920 1 0
27.694649 -31.070143 2.423932 21 3206168643224 1 0
15.500169 -21.2463 -1.5316144 6 3206168643224 1 0
27.619751 -34.22495 1.7917717 19 3206168645528 1 0
20.479038 -22.98214 -1.4339031 9 3206168645528 1 0
18.798498 -23.301395 -1.569032 9 3206168647832 1 0
31.568466 -35.437893 5.8273044 22 3206168647832 1 0
32.205765 -39.932648 4.187992 37 3206168650136 1 0
0 0 0 3 3206168650136 1 0
19.046871 -26.141336 -1.1294873 50 3206168652440 1 0
0 0 0 9 3206168652440 1 0
21.753332 -26.98931 6.3202415 6 3206168654744 1 0
23.164143 -26.02743 -0.81076694 40 3206168654744 1 0
25.073242 -25.612892 -0.6256339 22 3206168675480 1 0
19.96742 -24.850372 -0.9277553 45 3206168677784 1 0
0 0 0 4 3206168675480 1 0
3.9753387 -4.480353 -1.6767588 1 3206168677784 1 0
28.428152 -32.048492 0 46 3206168680088 1 0
5.23451 -6.516432 -1.6717038 4 3206168680088 1 0
29.56546 -40.743813 -0.5860587 13 3206168682392 1 0
6.949349 -7.8365326 -1.629511 20 3206168682392 1 0
7.499512 -9.341414 -1.5248151 37 3206168684696 1 0
0 0 0 10 3206168684696 1 0
28.8924 -35.99865 -0.26827794 23 3206168687000 1 0
8.187905 -9.23835 -1.3297169 3 3206168687000 1 0
10.36549 -14.297024 -1.648456 2 3206168689304 1 0
28.39479 -32.046543 0.99631375 33 3206168689304 1 0
29.37628 -40.530212 0.58275265 25 3206168691608 1 0
14.737257 -16.637194 -1.5541742 4 3206168691608 1 0
12.266113 -15.296017 -1.6006019 3 3206168693912 1 0
0 0 0 20 3206168693912 1 0
29.574045 -36.889698 0.82528937 44 3206168696216 1 0
16.496202 -16.893223 -1.5132353 4 3206168696216 1 0
15.425292 -21.300724 -1.5316144 6 3206168698520 1 0
27.688335 -31.284048 2.4330018 21 3206168698520 1 0
27.614573 -34.465027 1.7992618 28 3206168700824 1 0
20.4063 -23.06276 -1.4344615 9 3206168700824 1 0
18.73203 -23.385578 -1.5702881 9 3206168703128 1 0
31.54716 -35.66385 5.8463163 22 3206168703128 1 0
32.20631 -40.218624 4.206218 38 3206168705432 1 0
23.681885 -24.278677 -1.381768 10 3206168705432 1 0
18.95158 -26.200634 -1.1292081 45 3206168707736 1 0
0 0 0 9 3206168707736 1 0
21.630665 -27.027264 6.3116317 18 3206168710040 1 0
22.997488 -26.02023 -0.80806845 40 3206168710040 1 0
0 0 0 4 3206168730776 1 0
24.949133 -25.655756 -0.62465656 39 3206168730776 1 0
3.955333 -4.48776 -1.6746022 1 3206168733080 1 0
19.909664 -24.947845 -0.92891896 45 3206168733080 1 0
5.210331 -6.530764 -1.6709193 3 3206168735384 1 0
29.595312 -41.072674 -0.58936477 19 3206168737688 1 0
28.43496 -32.27205 0 40 3206168735384 1 0
0 0 0 8 3206168737688 1 0
7.443484 -9.335425 -1.5197643 51 3206168739992 1 0
28.437983 -29.27748 0.23721907 26 3206168739992 1 0
28.711718 -36.02024 -0.26771998 15 3206168742296 1 0
8.1227255 -9.226942 -1.3241479 3 3206168742296 1 0
10.326705 -14.344698 -1.6499431 2 3206168744600 1 0
28.397923 -32.26784 1.000222 33 3206168744600 1 0
29.368147 -40.807446 0.5853137 25 3206168746904 1 0
14.686427 -16.69271 -1.5547323 4 3206168746904 1 0
12.219398 -15.343556 -1.6012528 3 3206168749208 1 0
28.417747 -29.290724 1.1877084 36 3206168749208 1 0
29.573683 -37.145935 0.8287799 45 3206168751512 1 0
16.425087 -16.934584 -1.5119562 4 3206168751512 1 0
15.35535 -21.35612 -1.5318469 6 3206168753816 1 0
27.68498 -31.494669 2.4420714 21 3206168753816 1 0
27.60437 -34.693092 1.8062634 19 3206168756120 1 0
20.33577 -23.140932 -1.4350199 9 3206168756120 1 0
18.654818 -23.45232 -1.5704974 9 3206168758424 1 0
31.527792 -35.887333 5.865328 22 3206168758424 1 0
32.16076 -40.44369 4.21826 19 3206168760728 1 0
23.598942 -24.359306 -1.381768 10 3206168760728 1 0
0 0 0 9 3206168763032 1 0
18.82461 -26.213303 -1.1269746 40 3206168763032 1 0
21.366581 -26.885544 6.2614083 18 3206168765336 1 0
22.834364 -26.014696 -0.80546296 35 3206168765336 1 0
0 0 0 4 3206168786072 1 0
24.806639 -25.688026 -0.6233302 38 3206168786072 1 0
19.842323 -25.042263 -0.9298498 45 3206168788376 1 0
5.194809 -6.5581355 -1.6732727 4 3206168790680 1 0
3.949791 -4.513134 -1.6789154 1 3206168788376 1 0
28.430124 -32.494537 0 47 3206168790680 1 0
29.589048 -41.36767 -0.59211206 19 3206168792984 1 0
6.908685 -7.8986793 -1.6325855 4 3206168792984 1 0
23.79526 -14.616052 -1.4635227 4 3206163229240 1 0
0 0 0 1 3206163229240 1 0
45.434734 -27.917942 4.353325 63 3206163231544 1 0
27.329412 -13.311244 -1.2384783 8 3206163231544 1 0
0 0 0 9 3206163233848 1 0
24.18715 -16.547855 -1.0233928 4 3206163233848 1 0
40.218544 -24.730518 8.608271 28 3206163236152 1 0
39.007294 -21.43336 -1.035675 22 3206163236152 1 0
0 0 0 8 3206163256888 1 0
26.49457 -12.962358 -0.51484597 81 3206163256888 1 1
26.1898 -16.161472 -0.89563936 15 3206163259192 1 1
0 0 0 1 3206163259192 1 0
6.995682 -4.3183727 -1.6442474 2 3206163261496 1 0
45.281338 -24.982895 0 29 3206163261496 1 0
23.948921 -16.45656 -0.3382899 52 3206163263800 1 1
8.962434 -4.946509 -1.5926164 7 3206163263800 1 0
10.7218075 -6.622785 -1.6041116 3 3206163266104 1 0
50.67519 -24.829176 0.32797793 13 3206163266104 1 0
26.184229 -16.179077 -0.1788907 61 3206163268408 1 1
13.752547 -9.458934 -1.5581144 3 3206163270712 1 0
12.327375 -6.808352 -1.5169226 3 3206163268408 1 0
45.373554 -25.068216 1.2062403 18 3206163270712 1 0
25.764862 -17.726463 0.3640865 8 3206163273016 1 1
18.296545 -10.112044 -1.4618167 5 3206163273016 1 0
15.718911 -9.722099 -1.5088228 4 3206163275320 1 0
0 0 0 6 3206163275320 1 0
40.846905 -25.271902 0.8384136 18 3206163277624 1 0
19.941484 -9.788661 -1.4236948 3 3206163277624 1 0
20.341364 -14.008128 -1.4383594 3 3206163279928 1 0
45.591496 -25.223257 3.0343919 19 3206163279928 1 0
45.198944 -27.982683 2.16579 16 3206163282232 1 0
25.167593 -13.928621 -1.3399103 4 3206163282232 1 0
23.74153 -14.703168 -1.4635227 4 3206163284536 1 0
