# .PCD v.7 - Point Cloud Data file format
VERSION .7
FIELDS x y z rgb timestamp_ns device_id active
SIZE 4 4 4 4 8 1 1
TYPE F F F F F U U
COUNT 1 1 1 1 1 1 1
WIDTH 1037
HEIGHT 1
VIEWPOINT 0 0 0 1 0 0 0
POINTS 1037               
DATA ascii
7.5188437 4.6952543 -1.7729003 2 3201345596568 1 0
43.58045 24.331339 -0.5810763 51 3201345598872 1 0
9.220167 6.4022183 -1.7463439 5 3201345598872 1 0
11.667473 7.2812114 -1.7505827 3 3201345601176 1 0
22.589987 17.375704 0.16563953 67 3201345601176 1 0
27.879045 17.392584 -0.19097948 17 3201345603480 1 0
12.948529 8.985504 -1.6977024 3 3201345603480 1 0
15.613946 8.708467 -1.6689037 3 3201345605784 1 0
0 0 0 43 3201345608088 1 0
20.339094 14.1053505 -1.7307976 8 3201345608088 1 0
17.570002 10.95055 -1.6901028 6 3201345610392 1 0
22.609932 17.37012 0.8297784 81 3201345610392 1 0
24.192596 16.783 0.68514603 33 3201345605784 1 0
28.812067 17.95138 0.5925441 10 3201345612696 1 0
24.019093 13.378008 -1.6011486 7 3201345615000 1 0
0 0 0 9 3201345615000 1 0
28.180304 17.546381 1.3524587 11 3201345617304 1 0
25.012863 17.32511 -1.417338 55 3201345617304 1 0
21.303041 16.361172 -1.7214811 8 3201345612696 1 0
27.225555 18.851868 4.0660486 11 3201345619608 1 0
27.357075 17.02828 -1.6887766 11 3201345619608 1 0
0 0 0 34 3201345621912 1 0
22.638746 17.366089 -1.1624371 85 3201345621912 1 0
43.518845 24.2057 -1.7389721 37 3201345624216 1 0
27.720724 19.182812 9.032784 11 3201345624216 1 0
25.921713 16.119158 5.565457 9 3201345626520 1 0
25.010405 17.301886 -0.7076647 90 3201345626520 1 0
0 0 0 4 3201345647256 1 0
22.605597 17.283283 -0.4966955 67 3201345647256 1 0
27.928242 17.310902 -0.956264 5 3201345649560 1 0
0 0 0 1 3201345649560 1 0
7.5317855 4.6670237 -1.7721158 13 3201345651864 1 0
25.028114 17.255533 0 59 3201345651864 1 0
43.601604 24.145142 -0.58023816 6 3201345654168 1 0
9.229302 6.3612247 -1.7438842 5 3201345654168 1 0
11.679113 7.232424 -1.7485623 3 3201345656472 1 0
22.659534 17.304686 0.16570929 82 3201345656472 1 0
28.731384 17.786745 -0.19639619 13 3201345658776 1 0
12.95984 8.927187 -1.6951321 3 3201345658776 1 0
15.626447 8.644954 -1.6670448 2 3201345661080 1 0
43.852947 24.252668 0.58340454 8 3201345663384 1 0
24.39522 16.799303 0.68924034 38 3201345661080 1 0
20.364487 14.019467 -1.7288444 8 3201345663384 1 0
17.576971 10.871304 -1.6871737 4 3201345665688 1 0
22.663063 17.28756 0.8295457 94 3201345665688 1 0
29.02646 17.947233 0.59568554 10 3201345667992 1 0
21.343086 16.276007 -1.720202 8 3201345667992 1 0
24.075163 13.301628 -1.6018463 10 3201345670296 1 0
26.949259 18.536144 1.9048669 12 3201345670296 1 0
29.95016 18.506924 1.4343617 94 3201345672600 1 0
27.476042 16.972862 -1.6925448 11 3201345674904 1 0
25.048761 17.223852 -1.4160352 46 3201345672600 1 0
27.07035 18.608416 4.0333877 16 3201345674904 1 0
0 0 0 8 3201345677208 1 0
22.684875 17.279419 -1.1617858 81 3201345677208 1 0
52.37185 28.897894 -2.0888047 14 3201345679512 1 0
30.50203 20.954973 9.915875 6 3201345679512 1 0
26.08993 16.101677 5.5898514 10 3201345681816 1 0
0 0 0 4 3201345702552 1 0
25.039103 17.196836 -0.7068272 66 3201345681816 1 0
22.659601 17.205807 -0.4966257 67 3201345702552 1 0
29.70862 18.278355 -1.0151433 13 3201345704856 1 0
0 0 0 1 3201345704856 1 0
7.5438795 4.639967 -1.7713314 24 3201345707160 1 0
78.91122 43.35715 -1.0482097 28 3201345709464 1 0
25.227129 17.269604 0 55 3201345707160 1 0
9.253608 6.3328166 -1.7444991 5 3201345709464 1 0
11.696272 7.189499 -1.7475523 3 3201345711768 1 0
22.697672 17.214947 0.1655698 71 3201345711768 1 0
29.64219 18.214907 -0.2022081 9 3201345714072 1 0
12.969676 8.87069 -1.6925617 3 3201345714072 1 0
15.588694 8.556675 -1.659981 3 3201345716376 1 0
24.579535 16.80634 0.69286937 38 3201345716376 1 0
79.28232 43.50402 1.0528196 28 3201345718680 1 0
17.575552 10.790012 -1.6835936 4 3201345720984 1 0
20.424042 13.960866 -1.7299606 8 3201345718680 1 0
22.70433 17.200237 0.8289639 94 3201345720984 1 0
29.24943 17.951296 0.5990364 5 3201345723288 1 0
21.390577 16.200321 -1.7196903 8 3201345723288 1 0
24.000086 13.156455 -1.5939394 7 3201345725592 1 0
27.013876 18.448927 1.9050994 12 3201345725592 1 0
0 0 0 29 3201345727896 1 0
25.224537 17.2218 -1.4227357 38 3201345727896 1 0
26.761362 18.265633 3.978303 16 3201345730200 1 0
25.845959 15.842819 2.4747818 15 3201345732504 1 0
27.453852 16.83363 -1.68773 11 3201345730200 1 0
22.729301 17.194452 -1.1611345 81 3201345732504 1 0
51.94843 28.439953 -2.068144 13 3201345734808 1 0
25.671892 17.511631 8.326726 14 3201345734808 1 0
26.119694 16.000683 5.584829 10 3201345737112 1 0
25.238056 17.210588 -0.7108285 57 3201345737112 1 0
0 0 0 4 3201345758296 1 0
22.713135 17.12179 -0.49648607 67 3201345758296 1 0
29.70084 18.13036 -1.0126997 13 3201345760600 1 0
0 0 0 1 3201345760600 1 0
7.5534678 4.609299 -1.7697624 18 3201345762904 1 0
0 0 0 28 3201345765208 1 0
25.416792 17.268372 0 55 3201345762904 1 0
9.272663 6.297851 -1.7438842 5 3201345765208 1 0
11.704773 7.137616 -1.7450268 3 3201345767512 1 0
22.749037 17.127071 0.16550006 71 3201345767512 1 0
29.225342 17.815605 -0.19893019 41 3201345769816 1 0
12.988041 8.815484 -1.6908482 3 3201345769816 1 0
15.605216 8.49323 -1.658494 3 3201345772120 1 0
24.768564 16.805855 0.6964984 38 3201345772120 1 0
0 0 0 21 3201345774424 1 0
20.44104 13.865005 -1.7271703 7 3201345774424 1 0
17.580307 10.7058115 -1.6803391 4 3201345776728 1 0
22.756638 17.111023 0.8286148 90 3201345776728 1 0
0 0 0 67 3201345779032 1 0
21.442726 16.11795 -1.7191787 8 3201345779032 1 0
24.033731 13.061474 -1.5930092 7 3201345781336 1 0
27.11053 18.37074 1.9071925 12 3201345781336 1 0
63.475628 38.614655 3.0269933 58 3201345783640 1 0
25.432796 17.228199 -1.4309251 38 3201345783640 1 0
27.46417 16.701761 -1.6845897 11 3201345785944 1 0
26.821554 18.162971 3.9773278 11 3201345785944 1 0
25.829136 15.7020445 2.4676218 10 3201345788248 1 0
22.78283 17.1035 -1.160646 81 3201345788248 1 0
52.053143 28.247847 -2.068144 13 3201345790552 1 0
25.445223 17.219616 8.232516 9 3201345790552 1 0
29.693361 18.038767 6.334591 19 3201345792856 1 0
25.450762 17.2177 -0.7150159 68 3201345792856 1 0
0 0 0 4 3201345813592 1 0
22.759724 17.02645 -0.49613702 67 3201345813592 1 0
29.722364 17.994892 -1.011187 13 3201345815896 1 0
0 0 0 1 3201345815896 1 0
7.566822 4.579773 -1.768978 19 3201345818200 1 0
25.631985 17.278688 0 38 3201345818200 1 0
0 0 0 28 3201345820504 1 0
9.282299 6.2553935 -1.7414246 4 3201345820504 1 0
11.733838 7.097404 -1.7455319 3 3201345822808 1 0
29.69305 17.954723 -0.2016734 9 3201345825112 1 0
12.996536 8.753217 -1.6878495 3 3201345825112 1 0
22.797848 17.035326 0.16540706 71 3201345822808 1 0
24.967854 16.81093 0.7004066 44 3201345827416 1 0
15.60396 8.42032 -1.6551479 3 3201345827416 1 0
0 0 0 21 3201345829720 1 0
20.463835 13.774252 -1.724938 7 3201345829720 1 0
17.584064 10.62274 -1.6770846 4 3201345832024 1 0
22.791584 17.011023 0.82768387 84 3201345832024 1 0
31.879723 19.252903 0.6500672 21 3201345834328 1 0
24.086586 12.98059 -1.5934743 7 3201345836632 1 0
21.48996 16.034903 -1.7184112 8 3201345834328 1 0
38.852234 26.128128 2.72672 14 3201345836632 1 0
25.63893 17.237038 -1.4391146 33 3201345838936 1 0
63.620857 38.398117 3.0274818 87 3201345838936 1 0
27.419699 16.543882 -1.6783094 11 3201345841240 1 0
23.994982 16.126999 3.5498102 13 3201345841240 1 0
27.890884 16.822922 2.658991 12 3201345843544 1 0
22.819714 17.007483 -1.1595062 77 3201345843544 1 0
51.710594 27.830677 -2.0506945 13 3201345845848 1 0
25.318651 17.00648 8.17247 13 3201345845848 1 0
26.273964 15.837744 5.5934386 5 3201345848152 1 0
25.652716 17.225727 -0.71901715 59 3201345848152 1 0
0 0 0 4 3201345868888 1 0
22.81285 16.948496 -0.4960672 78 3201345868888 1 0
29.64149 17.811579 -1.0064161 13 3201345871192 1 0
0 0 0 1 3201345871192 1 0
7.5786715 4.552525 -1.7681935 21 3201345873496 1 0
25.84563 17.297787 0 30 3201345873496 1 0
0 0 0 28 3201345875800 1 0
9.299843 6.222177 -1.7408097 4 3201345875800 1 0
11.7371025 7.0458584 -1.7425015 3 3201345878104 1 0
22.832222 16.942282 0.16524433 71 3201345878104 1 0
0 0 0 70 3201345880408 1 0
13.012585 8.700755 -1.6861359 3 3201345880408 1 0
25.170475 16.82473 0.7045009 40 3201345882712 1 0
43.041763 23.032064 0.56831765 8 3201345885016 1 0
15.607583 8.35469 -1.6525456 3 3201345882712 1 0
20.470285 13.678668 -1.7215898 7 3201345885016 1 0
17.585615 10.542846 -1.6738299 4 3201345887320 1 0
22.836006 16.924498 0.8272184 84 3201345887320 1 0
33.526096 20.092781 0.6822495 34 3201345889624 1 0
21.534437 15.955012 -1.7176437 8 3201345889624 1 0
24.081133 12.872535 -1.5902185 7 3201345891928 1 0
27.705082 18.495628 1.9399829 6 3201345891928 1 0
63.754322 38.183887 3.0276446 58 3201345894232 1 0
25.846878 17.249676 -1.4474902 39 3201345894232 1 0
27.4073 16.409428 -1.6741226 11 3201345896536 1 0
27.071632 18.061361 3.995852 11 3201345896536 1 0
22.864737 16.920044 -1.1588548 81 3201345898840 1 0
0 0 0 10 3201345901144 1 0
27.968626 16.739983 2.6609437 18 3201345898840 1 0
26.308886 17.541424 8.4727 5 3201345901144 1 0
26.466518 15.830476 5.622855 15 3201345903448 1 0
25.871286 17.244219 -0.7234837 55 3201345903448 1 0
0 0 0 4 3201345924184 1 0
22.865437 16.864014 -0.49592757 86 3201345924184 1 0
0 0 0 46 3201345926488 1 0
0 0 0 1 3201345926488 1 0
7.587778 4.522027 -1.7666246 19 3201345928792 1 0
26.052458 17.304842 0 52 3201345928792 1 0
40.335926 21.433449 -0.5317647 11 3201345931096 1 0
9.31492 6.1853037 -1.7395798 5 3201345931096 1 0
22.878342 16.852991 0.16515134 71 3201345933400 1 0
11.751398 6.9987545 -1.7409862 3 3201345933400 1 0
29.712112 17.689724 -0.20097597 50 3201345935704 1 0
13.016366 8.637688 -1.6827089 3 3201345935704 1 0
15.629616 8.296423 -1.651802 3 3201345938008 1 0
25.372341 16.831823 0.7085022 28 3201345938008 1 0
0 0 0 8 3201345940312 1 0
20.431446 13.54979 -1.7143351 7 3201345940312 1 0
17.581192 10.456941 -1.6699245 3 3201345942616 1 0
22.878841 16.832834 0.8266366 78 3201345942616 1 0
36.456142 21.676207 0.74033105 31 3201345944920 1 0
21.599648 15.886842 -1.7184112 8 3201345944920 1 0
24.097694 12.773436 -1.588358 7 3201345947224 1 0
39.41721 26.116072 2.7536967 29 3201345947224 1 0
63.883785 37.95907 3.0274818 29 3201345949528 1 0
26.056839 17.258638 -1.4558657 34 3201345949528 1 0
27.344212 16.24226 -1.6667955 11 3201345951832 1 0
25.22116 16.699854 3.71409 9 3201345951832 1 0
27.893198 16.562866 2.6482508 18 3201345954136 1 0
22.910776 16.830664 -1.1582036 81 3201345954136 1 0
41.917015 22.187674 -1.6561905 9 3201345956440 1 0
26.55362 17.571014 8.531711 15 3201345956440 1 0
26.545305 15.752051 5.627877 10 3201345958744 1 0
26.064732 17.242058 -0.72720575 55 3201345958744 1 0
0 0 0 4 3201345979480 1 0
22.920937 16.781733 -0.49585778 93 3201345979480 1 0
29.854723 17.656914 -1.0094415 13 3201345981784 1 0
0 0 0 1 3201345981784 1 0
26.259901 17.310284 0 48 3201345984088 1 0
7.5968294 4.4914103 -1.7650557 18 3201345984088 1 0
0 0 0 35 3201345986392 1 0
9.333288 6.1503725 -1.7389649 4 3201345986392 1 0
11.762294 6.9492755 -1.738966 3 3201345988696 1 0
39.91033 23.571184 -0.26939383 72 3201345991000 1 0
22.921373 16.760555 0.1650351 71 3201345988696 1 0
13.030143 8.580789 -1.6805669 3 3201345991000 1 0
15.637694 8.230002 -1.6495713 3 3201345993304 1 0
25.585318 16.843191 0.7127826 41 3201345993304 1 0
40.445198 21.278122 0.53204405 57 3201345995608 1 0
17.594156 10.380301 -1.6676463 3 3201345997912 1 0
22.928747 16.744461 0.8262875 87 3201345997912 1 0
39.92276 23.545643 0.80902374 86 3201346000216 1 0
21.597973 15.767564 -1.7138063 8 3201346000216 1 0
24.019339 12.622469 -1.5802186 10 3201346002520 1 0
40.61781 26.703753 2.8309052 31 3201346002520 1 0
0 0 0 251 3201346004824 1 0
26.258537 17.257658 -1.463683 34 3201346004824 1 0
20.429308 13.444443 -1.7101498 7 3201345995608 1 0
27.364292 16.122017 -1.6644927 11 3201346007128 1 0
25.350431 16.655289 3.724327 9 3201346007128 1 0
27.842474 16.398016 2.6378362 18 3201346009432 1 0
22.958052 16.738998 -1.1575522 89 3201346009432 1 0
41.989372 22.03323 -1.6559113 9 3201346011736 1 0
26.62303 17.47975 8.533782 15 3201346011736 1 0
0 0 0 29 3201346014040 1 0
26.273727 17.244667 -0.73130006 56 3201346014040 1 0
0 0 0 4 3201346034776 1 0
22.98229 16.69761 -0.49585778 63 3201346034776 1 0
40.03798 23.482708 -1.3508481 29 3201346037080 1 0
0 0 0 1 3201346037080 1 0
7.6097264 4.461774 -1.7642711 7 3201346039384 1 0
26.473314 17.313206 0 52 3201346039384 1 0
39.140575 20.441544 -0.5140702 63 3201346041688 1 0
9.348885 6.1122055 -1.7377352 5 3201346041688 1 0
11.783859 6.9047976 -1.7384609 3 3201346043992 1 0
23.01729 16.703611 0.16529083 15 3201346043992 1 0
39.994755 23.427656 -0.26939383 64 3201346046296 1 0
13.050898 8.527396 -1.6792817 3 3201346046296 1 0
15.652916 8.166631 -1.6480842 3 3201346048600 1 0
25.782682 16.841204 0.7165978 41 3201346048600 1 0
40.343445 21.041384 0.52971584 21 3201346050904 1 0
20.440334 13.347562 -1.7070805 7 3201346050904 1 0
17.596474 10.297661 -1.6643916 3 3201346053208 1 0
0 0 0 16 3201346053208 1 0
39.998825 23.400358 0.80888414 51 3201346055512 1 0
21.63417 15.677078 -1.7122712 5 3201346055512 1 0
24.024662 12.517552 -1.5776604 10 3201346057816 1 0
26.052982 16.997229 1.8116119 16 3201346057816 1 0
0 0 0 237 3201346060120 1 0
26.472818 17.265919 -1.4722447 35 3201346060120 1 0
27.289352 15.949804 -1.6565377 11 3201346062424 1 0
0 0 0 10 3201346062424 1 0
31.86476 18.618086 3.0127637 8 3201346064728 1 0
23.032288 16.670809 -1.1583663 34 3201346064728 1 0
39.78162 20.69944 -1.5660102 8 3201346067032 1 0
25.55363 16.65132 8.17247 13 3201346067032 1 0
0 0 0 29 3201346069336 1 0
26.490496 17.256586 -0.73567355 61 3201346069336 1 0
0 0 0 4 3201346090072 1 0
0 0 0 21 3201346090072 1 0
0 0 0 91 3201346092376 1 0
0 0 0 1 3201346092376 1 0
7.6279354 4.438376 -1.7650557 1 3201346094680 1 0
26.68516 17.32513 0 61 3201346094680 1 0
39.19083 20.301582 -0.5138374 66 3201346096984 1 0
9.359288 6.07451 -1.7358904 4 3201346096984 1 0
11.800031 6.8613505 -1.7374507 3 3201346099288 1 0
26.19812 18.878468 0.18767832 13 3201346099288 1 0
0 0 0 100 3201346101592 1 0
13.059392 8.470611 -1.6767114 3 3201346101592 1 0
15.669654 8.108503 -1.6469688 3 3201346103896 1 0
25.986753 16.850212 0.7206921 41 3201346103896 1 0
20.4048 13.226573 -1.7003838 5 3201346106200 1 0
39.92736 20.653666 0.5233365 13 3201346106200 1 0
17.58975 10.214203 -1.6604862 3 3201346108504 1 0
26.276335 18.911612 0.9421842 27 3201346108504 1 0
31.901 18.518408 0.6438542 25 3201346110808 1 0
21.69354 15.608494 -1.7127829 8 3201346110808 1 0
23.914396 12.35724 -1.5676606 10 3201346113112 1 0
0 0 0 12 3201346113112 1 0
31.846766 18.47454 1.4999819 225 3201346115416 1 0
26.678886 17.271458 -1.4804342 35 3201346115416 1 0
27.674475 17.910273 4.0475245 28 3201346117720 1 0
27.312378 15.8388 -1.6546535 11 3201346117720 1 0
32.438538 18.805223 3.0609314 8 3201346120024 1 0
0 0 0 3 3201346120024 1 0
49.944836 25.771093 -1.9626081 12 3201346122328 1 0
25.457914 16.465261 8.123812 4 3201346122328 1 0
0 0 0 29 3201346124632 1 0
26.700563 17.263456 -0.7398609 61 3201346124632 1 0
0 0 0 4 3201346145368 1 0
26.353418 18.874151 -0.56580704 23 3201346145368 1 0
31.921501 18.431126 -1.0727426 105 3201346147672 1 0
0 0 0 1 3201346147672 1 0
7.626396 4.401919 -1.7611333 1 3201346149976 1 0
26.896786 17.329367 0 63 3201346149976 1 0
39.26502 20.166485 -0.51388395 76 3201346152280 1 0
9.37379 6.0375223 -1.7346605 4 3201346152280 1 0
11.810162 6.8121886 -1.7354305 3 3201346154584 1 0
26.299646 18.812502 0.18793404 23 3201346154584 1 0
31.955595 18.42603 -0.21438988 33 3201346156888 1 0
13.078849 8.418515 -1.6754262 3 3201346156888 1 0
26.203468 16.861103 0.7250655 41 3201346159192 1 0
15.64471 8.026486 -1.6413922 3 3201346159192 1 0
40.127335 20.579876 0.52501285 13 3201346161496 1 0
20.403862 13.125044 -1.6964774 5 3201346161496 1 0
17.590752 10.132841 -1.6572316 3 3201346163800 1 0
26.524374 18.949936 0.9487005 12 3201346163800 1 0
42.699154 24.587822 0.8600546 28 3201346166104 1 0
21.747892 15.532674 -1.7127829 8 3201346166104 1 0
23.914738 12.251838 -1.5648699 7 3201346168408 1 0
28.080765 18.045992 1.9439363 6 3201346168408 1 0
31.91106 18.363262 1.4999819 225 3201346170712 1 0
26.883566 17.271091 -1.4884375 30 3201346170712 1 0
27.346724 15.731416 -1.6533976 11 3201346173016 1 0
26.791441 17.206404 3.9095685 10 3201346173016 1 0
32.396847 18.630266 3.0508423 8 3201346175320 1 0
25.2259 17.994566 -1.2624142 46 3201346175320 1 0
46.322563 23.697653 -1.8170074 10 3201346177624 1 0
0 0 0 9 3201346177624 1 0
28.250223 16.234758 5.9406967 5 3201346179928 1 0
26.91885 17.271645 -0.7442344 58 3201346179928 1 0
0 0 0 4 3201346200664 1 0
26.497372 18.837664 -0.5674825 19 3201346200664 1 0
0 0 0 37 3201346202968 1 0
0 0 0 1 3201346202968 1 0
7.645119 4.3772197 -1.7619177 2 3201346205272 1 0
27.068325 17.306479 0 18 3201346205272 1 0
39.331608 20.027487 -0.5138374 76 3201346207576 1 0
9.391477 6.0026364 -1.7340456 4 3201346207576 1 0
11.82698 6.7669806 -1.7344203 3 3201346209880 1 0
26.462996 18.790056 0.18863147 13 3201346209880 1 0
42.602684 24.367527 -0.28524873 14 3201346212184 1 0
13.084694 8.357824 -1.6724275 3 3201346212184 1 0
15.658433 7.9646053 -1.6399051 3 3201346214488 1 0
26.417202 16.868532 0.729346 42 3201346214488 1 0
40.195362 20.437868 0.5249663 13 3201346216792 1 0
20.415918 13.032271 -1.6936872 7 3201346216792 1 0
17.587938 10.04962 -1.6536516 3 3201346219096 1 0
26.626236 18.882675 0.9499805 48 3201346219096 1 0
42.788193 24.440609 0.8601244 28 3201346221400 1 0
21.788954 15.44743 -1.7117596 8 3201346221400 1 0
23.822067 12.099568 -1.5560328 7 3201346223704 1 0
28.21429 17.992952 1.94882 19 3201346223704 1 0
31.978436 18.253742 1.5001447 208 3201346226008 1 0
27.102043 17.2781 -1.4971855 35 3201346226008 1 0
27.28351 15.568551 -1.6462798 10 3201346228312 1 0
26.978565 17.193863 3.9280927 10 3201346228312 1 0
27.312275 15.5796995 2.5668864 5 3201346230616 1 0
25.102638 17.774754 -1.2531329 40 3201346230616 1 0
46.315872 23.490606 -1.8135175 10 3201346232920 1 0
0 0 0 9 3201346232920 1 0
28.330652 16.14969 5.9457192 16 3201346235224 1 0
27.117277 17.265633 -0.74804956 81 3201346235224 1 0
0 0 0 4 3201346255960 1 0
27.706654 19.552137 -0.59191585 15 3201346255960 1 0
0 0 0 18 3201346258264 1 0
7.6569414 4.34857 -1.7611333 1 3201346260568 1 0
27.685867 17.565468 0 18 3201346260568 1 0
0 0 0 1 3201346258264 1 0
39.401276 19.890072 -0.5138374 71 3201346262872 1 0
9.40236 5.9634666 -1.7322009 5 3201346262872 1 0
11.836725 6.717821 -1.7324001 3 3201346265176 1 0
27.718508 19.536356 0.19709362 48 3201346265176 1 0
0 0 0 19 3201346267480 1 0
13.0969925 8.301455 -1.6702856 3 3201346267480 1 0
15.668358 7.9009323 -1.6380463 3 3201346269784 1 0
26.631308 16.874672 0.73362637 38 3201346269784 1 0
20.444431 12.950251 -1.6922921 7 3201346272088 1 0
40.18074 20.254227 0.5238488 13 3201346272088 1 0
17.59863 9.974404 -1.6513734 3 3201346274392 1 0
26.633137 18.74819 0.947886 36 3201346274392 1 0
42.855846 24.281242 0.85977536 28 3201346276696 1 0
23.828491 11.998382 -1.5537072 7 3201346279000 1 0
21.836212 15.366684 -1.7112479 8 3201346276696 1 0
40.12759 25.393757 2.765557 30 3201346279000 1 0
0 0 0 29 3201346281304 1 0
27.307386 17.275246 -1.5051888 20 3201346281304 1 0
27.275114 15.437802 -1.6425116 5 3201346283608 1 0
25.80025 16.316544 3.7482135 68 3201346283608 1 0
39.968887 22.614843 3.7489495 14 3201346285912 1 0
25.017387 17.583603 -1.2458056 27 3201346285912 1 0
0 0 0 9 3201346288216 1 0
49.429806 24.853395 -1.9320362 12 3201346288216 1 0
27.32613 17.26485 -0.75214386 67 3201346290520 1 0
0 0 0 29 3201346290520 1 0
0 0 0 4 3201346311256 1 0
24.734877 17.325981 -0.5271325 30 3201346311256 1 0
43.503223 24.514475 -1.4532467 10 3201346313560 1 0
0 0 0 1 3201346313560 1 0
7.661822 4.31604 -1.7587799 1 3201346315864 1 0
27.679314 17.426096 0 27 3201346315864 1 0
39.47762 19.755995 -0.51393056 71 3201346318168 1 0
9.423119 5.93061 -1.7322009 5 3201346318168 1 0
11.856645 6.674516 -1.731895 3 3201346320472 1 0
24.928566 17.440044 0.17682166 46 3201346320472 1 0
43.50031 24.4795 -0.2901075 28 3201346322776 1 0
13.112425 8.247217 -1.6685721 3 3201346322776 1 0
15.670905 7.833726 -1.6354438 3 3201346325080 1 0
26.85593 16.88591 0.73818594 38 3201346325080 1 0
40.233307 20.104906 0.5236159 13 3201346327384 1 0
17.602064 9.89533 -1.6484442 3 3201346329688 1 0
20.435457 12.844832 -1.6878276 7 3201346327384 1 0
27.681664 19.342136 0.9827946 20 3201346329688 1 0
42.96126 24.143257 0.8601942 9 3201346331992 1 0
23.741606 11.850928 -1.5453352 7 3201346334296 1 0
28.298635 17.77006 1.9460293 19 3201346334296 1 0
0 0 0 14 3201346336600 1 0
27.617949 17.337023 -1.518962 15 3201346336600 1 0
21.896265 15.294939 -1.7117596 8 3201346331992 1 0
27.206926 15.274059 -1.6351846 10 3201346338904 1 0
40.023247 22.46153 3.7466712 28 3201346341208 1 0
24.954058 17.409271 -1.2396181 45 3201346341208 1 0
0 0 0 10 3201346343512 1 0
26.818825 16.82994 3.8876321 10 3201346338904 1 0
0 0 0 9 3201346343512 1 0
0 0 0 29 3201346345816 1 0
27.647116 17.332918 -0.7593089 69 3201346345816 1 0
24.93312 17.335424 -0.53006446 74 3201346366552 1 0
43.56759 24.350767 -1.4525485 10 3201346368856 1 0
0 0 0 4 3201346366552 1 0
0 0 0 1 3201346368856 1 0
7.6734166 4.287356 -1.7579954 1 3201346371160 1 0
27.814608 17.375996 0 18 3201346371160 1 0
39.549923 19.619848 -0.5139771 73 3201346373464 1 0
9.440411 5.8955874 -1.731586 5 3201346373464 1 0
11.872942 6.629219 -1.7308848 5 3201346375768 1 0
43.693768 24.38794 -0.29082817 9 3201346378072 1 0
24.956436 17.330107 0.17658919 59 3201346375768 1 0
13.127638 8.192973 -1.6668584 4 3201346378072 1 0
15.691018 7.7754397 -1.6347003 3 3201346380376 1 0
27.07417 16.891548 0.74255943 39 3201346380376 1 0
40.29249 19.959017 0.52347624 13 3201346382680 1 0
20.470013 12.767086 -1.6869906 7 3201346382680 1 0
17.591232 9.808587 -1.6442133 3 3201346384984 1 0
27.673447 19.192984 0.9801183 20 3201346384984 1 0
79.06539 44.070515 1.5800012 29 3201346387288 1 0
21.959362 15.225237 -1.712527 8 3201346387288 1 0
23.754196 11.753815 -1.5434747 7 3201346389592 1 0
28.184256 17.56136 1.9339364 25 3201346389592 1 0
0 0 0 14 3201346391896 1 0
27.844482 17.344028 -1.5280821 15 3201346391896 1 0
27.197258 15.144017 -1.6314164 10 3201346394200 1 0
26.874039 16.734125 3.8871446 15 3201346394200 1 0
40.115345 22.329443 3.7479732 42 3201346396504 1 0
24.965387 17.287928 -1.2371757 43 3201346396504 1 0
0 0 0 10 3201346398808 1 0
0 0 0 9 3201346398808 1 0
0 0 0 29 3201346401112 1 0
27.829689 17.31235 -0.7626588 46 3201346401112 1 0
0 0 0 4 3201346421296 1 0
25.020367 17.279737 -0.5307626 61 3201346421296 1 0
0 0 0 9 3201346423600 1 0
7.683418 4.261326 -1.757211 1 3201346425904 1 0
29.762346 18.463026 0 9 3201346425904 1 0
39.62213 19.500801 -0.5141168 78 3201346428208 1 0
9.4521675 5.8617344 -1.7303562 4 3201346428208 1 0
11.886768 6.5880394 -1.7298746 5 3201346430512 1 0
0 0 0 1 3201346423600 1 0
25.070024 17.292498 0.17700765 34 3201346430512 1 0
78.5064 43.495914 -0.5216309 28 3201346432816 1 0
13.13979 8.1433115 -1.6651449 4 3201346432816 1 0
15.704645 7.720835 -1.633585 3 3201346435120 1 0
27.297071 16.911713 0.74721205 39 3201346435120 1 0
40.326275 19.818224 0.5231037 20 3201346437424 1 0
20.47949 12.683805 -1.6844794 7 3201346437424 1 0
17.587078 9.733969 -1.6409587 3 3201346439728 1 0
27.654583 19.051512 0.97732556 20 3201346439728 1 0
79.13696 43.78512 1.5786749 29 3201346442032 1 0
22.010372 15.158439 -1.7127829 8 3201346442032 1 0
23.676298 11.62282 -1.5360329 6 3201346444336 1 0
27.668797 17.119745 1.894867 12 3201346444336 1 0
79.19407 43.786633 3.6867769 29 3201346446640 1 0
28.163889 17.420414 -1.5425998 10 3201346446640 1 0
27.150307 15.006328 -1.6257641 5 3201346448944 1 0
25.788502 15.945963 3.7228646 9 3201346448944 1 0
26.967 14.899892 2.5151386 10 3201346451248 1 1
25.105192 17.268303 -1.2414092 45 3201346451248 1 0
42.715202 20.938288 -1.661216 9 3201346453552 1 0
0 0 0 9 3201346453552 1 0
0 0 0 29 3201346455856 1 0
0 0 0 1 3201346455856 1 0
0 0 0 4 3201346476592 1 0
25.228975 17.29405 -0.533904 51 3201346476592 1 0
0 0 0 9 3201346478896 1 0
0 0 0 1 3201346478896 1 0
7.698246 4.23448 -1.757211 1 3201346481200 1 0
28.767216 17.70694 0 14 3201346481200 1 0
39.71153 19.372898 -0.5143962 78 3201346483504 1 0
9.465839 5.8245616 -1.7291263 5 3201346483504 1 0
11.892306 6.5369496 -1.7273493 3 3201346485808 1 0
25.258953 17.293009 0.1779143 29 3201346485808 1 0
78.6893 43.238945 -0.5218401 28 3201346488112 1 0
13.147809 8.084896 -1.6625745 4 3201346488112 1 0
15.720759 7.660735 -1.6324697 3 3201346490416 1 0
27.519459 16.916845 0.7516786 39 3201346490416 1 0
40.416782 19.687847 0.5233831 20 3201346492720 1 0
20.479445 12.585082 -1.6808519 7 3201346492720 1 0
17.582506 9.651417 -1.6373787 3 3201346495024 1 0
27.658207 18.911983 0.9751147 33 3201346495024 1 0
0 0 0 21 3201346497328 1 0
22.040083 15.065747 -1.7109921 8 3201346497328 1 0
23.684408 11.524379 -1.53394 6 3201346499632 1 0
28.041471 17.215267 1.9162621 37 3201346499632 1 0
79.307884 43.48879 3.6849859 29 3201346501936 1 0
28.302853 17.370068 -1.5468807 10 3201346501936 1 0
27.153484 14.8845825 -1.6228334 5 3201346504240 1 0
68.14127 41.80612 9.815845 28 3201346504240 1 0
40.108723 21.978601 3.7336528 41 3201346506544 1 0
25.287447 17.263943 -1.2474339 40 3201346506544 1 0
40.51559 19.684965 -1.5729901 8 3201346508848 1 0
0 0 0 9 3201346508848 1 0
0 0 0 29 3201346511152 1 0
28.782621 17.641468 -0.7855497 9 3201346511152 1 0
0 0 0 4 3201346531888 1 0
25.428068 17.300367 -0.536836 51 3201346531888 1 0
70.16284 38.288452 -2.3261955 28 3201346534192 1 0
0 0 0 1 3201346534192 1 0
7.7164235 4.2094603 -1.7579954 1 3201346536496 1 0
29.771036 18.18183 0 14 3201346536496 1 0
39.789715 19.239384 -0.5145359 78 3201346538800 1 0
9.472619 5.783246 -1.7266667 4 3201346538800 1 0
11.908084 6.4915996 -1.7263391 3 3201346541104 1 0
25.468042 17.305897 0.17896044 26 3201346541104 1 0
78.962685 43.031 -0.52265376 28 3201346543408 1 0
13.158976 8.028596 -1.6604327 3 3201346543408 1 0
15.729473 7.5971518 -1.6306107 3 3201346545712 1 0
29.599434 18.053392 0.8067657 14 3201346545712 1 0
0 0 0 13 3201346548016 1 0
20.502808 12.501056 -1.6791779 7 3201346548016 1 0
17.581074 9.570922 -1.634124 3 3201346550320 1 0
27.644653 18.761436 0.972322 41 3201346550320 1 0
0 0 0 21 3201346552624 1 0
23.68133 11.420819 -1.5311493 6 3201346554928 1 0
22.062809 14.968552 -1.7086896 8 3201346552624 1 0
27.924053 17.009258 1.9041692 12 3201346554928 1 0
0 0 0 14 3201346557232 1 0
28.424742 17.308573 -1.5502309 10 3201346557232 1 0
27.1772 14.774446 -1.6211586 10 3201346559536 1 0
25.93311 15.786181 3.7277396 9 3201346559536 1 0
40.132652 21.809906 3.728771 27 3201346561840 1 0
25.503061 17.28094 -1.2550869 40 3201346561840 1 0
0 0 0 9 3201346564144 1 0
0 0 0 29 3201346566448 1 0
29.81096 18.128912 -0.81188357 15 3201346566448 1 0
0 0 0 4 3201346587184 1 0
40.558846 19.531279 -1.5720129 8 3201346564144 1 0
25.627512 17.305506 -0.53976804 42 3201346587184 1 0
70.17327 37.97619 -2.3221228 28 3201346589488 1 0
7.7207813 4.176788 -1.7556419 1 3201346591792 1 0
29.721691 18.008959 0 9 3201346591792 1 0
41.289017 19.785704 -0.5330219 77 3201346594096 1 0
0 0 0 1 3201346589488 1 0
9.492874 5.749938 -1.7266667 3 3201346594096 1 0
11.916897 6.442098 -1.7243189 3 3201346596400 1 0
25.681345 17.319025 0.18002984 21 3201346596400 1 0
13.177004 7.9759555 -1.6591475 3 3201346598704 1 0
0 0 0 9 3201346598704 1 0
15.745448 7.5363536 -1.6294954 3 3201346601008 1 0
29.796488 18.029406 0.81039476 25 3201346601008 1 0
41.297485 19.758753 0.5329754 28 3201346603312 1 0
20.485497 12.3911915 -1.6741554 7 3201346603312 1 0
17.586863 9.4933195 -1.6315204 3 3201346605616 1 0
27.654684 18.625242 0.9703438 40 3201346605616 1 0
0 0 0 21 3201346607920 1 0
22.076162 14.863247 -1.7056197 8 3201346607920 1 0
23.61739 11.286428 -1.5244051 6 3201346610224 1 0
29.901842 18.068209 2.0346332 14 3201346610224 1 0
28.486364 17.206966 -1.5502309 10 3201346612528 1 0
27.1244 14.6202545 -1.6148783 10 3201346614832 1 0
25.955439 15.672772 3.7228646 9 3201346614832 1 0
40.252705 21.688576 3.7326765 41 3201346617136 1 0
25.704153 17.283058 -1.2619257 41 3201346617136 1 0
0 0 0 14 3201346612528 1 0
0 0 0 10 3201346619440 1 0
0 0 0 9 3201346619440 1 0
0 0 0 29 3201346621744 1 0
29.769876 17.957453 -0.80899894 10 3201346621744 1 0
0 0 0 4 3201346642480 1 0
25.850254 17.318308 -0.5431189 39 3201346642480 1 0
69.78294 37.436234 -2.3046684 27 3201346644784 1 0
0 0 0 1 3201346644784 1 0
7.725548 4.1431255 -1.7532886 1 3201346647088 1 0
29.646406 17.816294 0 14 3201346647088 1 0
46.48393 22.068464 -0.59905016 13 3201346649392 1 0
9.503471 5.709415 -1.724822 4 3201346649392 1 0
11.933062 6.3953233 -1.7233087 3 3201346651696 1 0
25.88327 17.319708 0.18100624 30 3201346651696 1 0
39.168114 20.984526 -0.2582582 7 3201346654000 1 0
13.191934 7.9203777 -1.6574339 4 3201346654000 1 0
15.757918 7.473143 -1.6280082 3 3201346656304 1 0
33.532974 20.126745 0.910054 17 3201346656304 1 0
20.454247 12.272949 -1.6680168 7 3201346658608 1 0
122.7765 58.20559 1.5818369 28 3201346658608 1 0
17.585293 9.412034 -1.6282659 3 3201346660912 1 0
27.657448 18.48477 0.968133 40 3201346660912 1 0
0 0 0 21 3201346663216 1 0
22.11528 14.776259 -1.7045964 8 3201346663216 1 0
23.624489 11.18785 -1.5223122 6 3201346665520 1 0
29.917301 17.934107 2.0313773 14 3201346665520 1 0
0 0 0 14 3201346667824 1 0
28.577349 17.125496 -1.551906 10 3201346667824 1 0
27.132994 14.502888 -1.6123662 10 3201346670128 1 0
25.71028 15.402525 3.6799667 4 3201346670128 1 0
40.239944 21.50155 3.7245402 41 3201346672432 1 0
25.907024 17.289 -1.2689273 41 3201346672432 1 0
43.879414 20.750294 -1.6949987 9 3201346674736 1 0
0 0 0 9 3201346674736 1 0
0 0 0 29 3201346677040 1 0
29.69778 17.774635 -0.8053699 10 3201346677040 1 0
0 0 0 4 3201346697776 1 0
26.047403 17.325518 -0.5460509 48 3201346697776 1 0
40.551407 21.58124 -1.3368846 9 3201346700080 1 0
0 0 0 1 3201346700080 1 0
7.742767 4.1192136 -1.754073 2 3201346702384 1 0
0 0 0 34 3201346702384 1 0
106.04143 49.91061 -1.364428 14 3201346704688 1 0
11.954389 6.355369 -1.7233087 3 3201346706992 1 0
9.515686 5.673613 -1.7235922 5 3201346704688 1 0
26.097656 17.337053 0.18209888 30 3201346706992 1 0
0 0 0 45 3201346709296 1 0
13.204746 7.8679647 -1.6557204 3 3201346709296 1 0
15.732477 7.3964353 -1.6228034 3 3201346711600 1 0
36.568787 21.782074 0.99045146 13 3201346711600 1 0
122.913864 57.76465 1.5810919 57 3201346713904 1 0
20.406313 12.150931 -1.6607621 7 3201346713904 1 0
17.578217 9.332079 -1.6246858 5 3201346716208 1 0
27.643034 18.3405 0.96545666 44 3201346716208 1 0
22.071976 14.639611 -1.6974331 8 3201346718512 1 0
23.629734 11.092454 -1.5202191 6 3201346720816 1 0
29.912699 17.793829 2.026959 14 3201346720816 1 0
0 0 0 21 3201346718512 1 0
0 0 0 14 3201346723120 1 0
28.652515 17.038557 -1.5528367 10 3201346723120 1 0
27.146904 14.391749 -1.6102726 5 3201346725424 1 0
25.81033 15.343336 3.6867914 9 3201346725424 1 0
40.295433 21.354847 3.7229128 41 3201346727728 1 0
26.112446 17.297655 -1.2760918 42 3201346727728 1 0
0 0 0 9 3201346730032 1 0
44.268612 20.749496 -1.7072834 9 3201346730032 1 0
29.52109 15.633911 6.090649 5 3201346732336 1 0
29.734419 17.658516 -0.80471855 55 3201346732336 1 0
0 0 0 4 3201346753072 1 0
26.25792 17.333641 -0.5491923 49 3201346753072 1 0
40.343605 21.29027 -1.3275756 9 3201346755376 1 0
0 0 0 1 3201346755376 1 0
7.75016 4.088501 -1.7525041 1 3201346757680 1 0
29.846424 17.660501 0 19 3201346757680 1 0
106.019264 49.448856 -1.3619136 14 3201346759984 1 0
9.535433 5.6403627 -1.7235922 4 3201346759984 1 0
11.96948 6.3099008 -1.7222986 3 3201346762288 1 0
26.30495 17.342724 0.18312177 31 3201346762288 1 0
0 0 0 28 3201346764592 1 0
13.215013 7.8117046 -1.6535784 4 3201346764592 1 0
15.74737 7.336428 -1.6216881 3 3201346766896 1 0
34.241558 20.234272 0.92550075 18 3201346766896 1 0
82.72673 38.526314 1.0624118 28 3201346769200 1 0
20.400505 12.051212 -1.6568558 7 3201346769200 1 0
17.578936 9.253949 -1.6217567 5 3201346771504 1 0
27.653456 18.208714 0.96359485 40 3201346771504 1 0
0 0 0 21 3201346773808 1 0
22.06626 14.525165 -1.693084 8 3201346773808 1 0
23.56693 10.962745 -1.5137075 6 3201346776112 1 0
29.902409 17.646687 2.0220752 14 3201346776112 1 0
0 0 0 14 3201346778416 1 0
28.725582 16.946558 -1.5535811 10 3201346778416 1 0
27.094439 14.243 -1.6042017 10 3201346780720 1 0
40.345028 21.201078 3.7206347 27 3201346783024 1 0
26.32963 17.30959 -1.2837448 42 3201346783024 1 0
41.487446 19.269567 -1.5974197 8 3201346785328 1 0
0 0 0 9 3201346785328 1 0
29.537159 15.510643 6.082757 17 3201346787632 1 0
29.888905 17.609423 -0.80723095 15 3201346787632 1 0
34.368702 20.268959 4.8991475 7 3201346780720 1 0
0 0 0 4 3201346808368 1 0
26.472153 17.342695 -0.55240357 49 3201346808368 1 0
39.089344 20.453878 -1.2839398 9 3201346810672 1 0
0 0 0 1 3201346810672 1 0
7.7574925 4.0576744 -1.7509352 1 3201346812976 1 0
39.984463 23.470472 0 80 3201346812976 1 0
0 0 0 28 3201346815280 1 0
9.548368 5.602834 -1.7223624 4 3201346815280 1 0
11.981065 6.262218 -1.7207834 3 3201346817584 1 0
26.523148 17.352957 0.18421441 31 3201346817584 1 0
39.252445 20.50869 -0.25739804 7 3201346819888 1 0
13.228759 7.757 -1.6518649 4 3201346819888 1 0
15.765968 7.277388 -1.6209445 3 3201346822192 1 0
39.98452 23.437677 1.0784792 22 3201346822192 1 0
82.84813 38.22639 1.0622256 28 3201346824496 1 0
20.398302 11.952662 -1.6532284 7 3201346824496 1 0
17.586926 9.178594 -1.6194785 5 3201346826800 1 0
27.748026 18.130144 0.9646421 16 3201346826800 1 0
0 0 0 21 3201346829104 1 0
22.050932 14.402945 -1.6879674 5 3201346829104 1 0
23.565952 10.860312 -1.5111494 6 3201346831408 1 0
0 0 0 14 3201346833712 1 0
29.909962 17.507746 2.0183542 21 3201346831408 1 0
28.789358 16.8459 -1.5537673 10 3201346833712 1 0
27.095633 14.120123 -1.6012709 5 3201346836016 1 0
34.427296 20.137842 4.8971977 7 3201346836016 1 0
28.763386 14.983641 2.6476 18 3201346838320 1 1
26.54885 17.317709 -1.2913978 38 3201346838320 1 0
40.16187 18.478765 -1.5438142 8 3201346840624 1 0
0 0 0 9 3201346840624 1 0
29.676575 15.4478245 6.099976 17 3201346842928 1 0
40.071938 23.414978 -1.079968 41 3201346842928 1 0
0 0 0 4 3201346863664 1 0
26.689796 17.345804 -0.5556148 40 3201346863664 1 0
39.160206 20.3092 -1.2838235 9 3201346865968 1 0
0 0 0 1 3201346865968 1 0
7.768713 4.027635 -1.7501507 1 3201346868272 1 0
0 0 0 104 3201346868272 1 0
89.75639 41.086582 -1.1492077 28 3201346870576 1 0
9.56518 5.56623 -1.7217474 5 3201346870576 1 0
26.7399 17.357355 0.18528381 27 3201346872880 1 0
11.993005 6.2134857 -1.7192681 3 3201346872880 1 0
40.309723 20.8771 -0.26383764 7 3201346875184 1 0
13.249664 7.7054276 -1.6510081 3 3201346875184 1 0
31.881641 18.535078 0.8581307 10 3201346877488 1 0
15.773795 7.2126517 -1.6190857 3 3201346877488 1 0
0 0 0 59 3201346879792 1 0
17.59106 9.101467 -1.6168748 5 3201346882096 1 0
20.406265 11.859849 -1.6504382 7 3201346879792 1 0
27.986647 18.144663 0.97069293 24 3201346882096 1 0
0 0 0 21 3201346884400 1 0
22.08495 14.314065 -1.6866882 8 3201346884400 1 0
23.578604 10.76569 -1.5095215 6 3201346886704 1 0
29.909239 17.36627 2.0141683 21 3201346886704 1 0
0 0 0 14 3201346889008 1 0
28.865507 16.754913 -1.5546979 10 3201346889008 1 0
27.105719 14.005286 -1.5989681 5 3201346891312 1 0
28.825922 14.889054 2.6485763 12 3201346893616 1 1
31.987167 18.560965 4.5408516 6 3201346891312 1 0
26.76322 17.325226 -1.2988878 39 3201346893616 1 0
40.211044 18.332998 -1.5432557 8 3201346895920 1 0
0 0 0 9 3201346895920 1 0
29.516344 15.235336 6.05621 11 3201346898224 1 0
0 0 0 82 3201346898224 1 0
0 0 0 4 3201346918960 1 0
26.91184 17.363447 -0.5590355 41 3201346918960 1 0
0 0 0 56 3201346921264 1 0
0 0 0 1 3201346921264 1 0
7.768132 3.994563 -1.7470129 1 3201346923568 1 0
31.931261 18.44543 0 57 3201346923568 1 0
0 0 0 42 3201346925872 1 0
12.010194 6.1715183 -1.7187631 3 3201346928176 1 0
9.573439 5.5283413 -1.7199028 5 3201346925872 1 0
26.952482 17.36747 0.1863532 32 3201346928176 1 0
40.539597 20.82409 -0.2648838 7 3201346930480 1 0
15.768919 7.146463 -1.6161115 3 3201346932784 1 0
13.261644 7.6530137 -1.6492945 3 3201346930480 1 0
31.933342 18.421865 0.85785156 16 3201346932784 1 0
0 0 0 103 3201346935088 1 0
20.373491 11.749211 -1.6445786 7 3201346935088 1 0
17.5862 9.023857 -1.6136203 5 3201346937392 1 0
27.556828 17.734215 0.95370406 12 3201346937392 1 0
0 0 0 21 3201346939696 1 0
22.119799 14.230662 -1.6856649 5 3201346939696 1 0
23.596762 10.677492 -1.5083587 6 3201346942000 1 0
29.905636 17.228931 2.0099823 20 3201346942000 1 0
28.797594 16.584997 -1.5479975 10 3201346944304 1 0
0 0 0 14 3201346944304 1 0
27.039467 13.854664 -1.5922692 9 3201346946608 1 0
43.81048 25.222675 6.2070494 13 3201346946608 1 0
40.483215 20.73563 3.713149 27 3201346948912 1 0
39.410076 17.805374 -1.510171 8 3201346951216 1 0
26.980188 17.335384 -1.3065408 43 3201346948912 1 0
0 0 0 9 3201346951216 1 0
29.417728 15.057052 6.0253587 17 3201346953520 1 0
0 0 0 111 3201346953520 1 0
0 0 0 4 3201346974256 1 0
27.096909 17.349194 -0.56161845 55 3201346974256 1 0
39.301243 20.043709 -1.2839398 37 3201346976560 1 0
0 0 0 1 3201346976560 1 0
7.782028 3.967423 -1.7470129 1 3201346978864 1 0
42.559956 24.387472 0 67 3201346978864 1 0
0 0 0 28 3201346981168 1 0
9.589248 5.4929256 -1.7192878 4 3201346981168 1 0
12.017521 6.122352 -1.7167428 3 3201346983472 1 0
27.673439 17.695635 0.19090974 23 3201346983472 1 0
40.48016 20.61529 -0.2640236 7 3201346985776 1 0
13.288278 7.6066756 -1.6492945 2 3201346985776 1 0
15.797401 7.0930066 -1.6164832 3 3201346988080 1 0
42.774338 24.477268 1.1467798 24 3201346988080 1 0
0 0 0 43 3201346990384 1 0
20.36589 11.650285 -1.6406722 7 3201346990384 1 0
28.423937 18.152246 0.98151463 33 3201346992688 1 0
17.574953 8.940723 -1.6097147 3 3201346992688 1 0
0 0 0 21 3201346994992 1 0
22.19289 14.168399 -1.6874558 5 3201346994992 1 0
23.506355 10.537886 -1.5002193 6 3201346997296 1 0
29.937859 17.108585 2.0081217 6 3201346997296 1 0
28.636736 16.359509 -1.5362716 10 3201346999600 1 0
0 0 0 14 3201346999600 1 0
43.905148 25.073532 6.2080245 13 3201347001904 1 0
40.544685 20.588776 3.7121727 27 3201347004208 1 0
27.037804 13.734866 -1.5893383 9 3201347001904 1 0
39.47199 17.667698 -1.510171 8 3201347006512 1 0
27.161856 17.318453 -1.3124027 40 3201347004208 1 0
0 0 0 9 3201347006512 1 0
29.947357 15.196447 6.1229353 18 3201347008816 1 0
0 0 0 39 3201347008816 1 0
0 0 0 4 3201347029552 1 0
39.37097 19.906399 -1.2839398 74 3201347031856 1 0
27.326088 17.36174 -0.5651089 50 3201347029552 1 0
0 0 0 1 3201347031856 1 0
7.79583 3.9402344 -1.7470129 1 3201347034160 1 0
0 0 0 34 3201347034160 1 0
0 0 0 148 3201347036464 1 0
9.598054 5.4535613 -1.7174431 4 3201347036464 1 0
12.031735 6.0767884 -1.7157326 3 3201347038768 1 0
27.667492 17.556067 0.19044478 38 3201347038768 1 0
40.562584 20.47927 -0.26409337 7 3201347041072 1 0
13.280165 7.5406075 -1.6450107 2 3201347041072 1 0
15.807509 7.031346 -1.6149961 3 3201347043376 1 0
0 0 0 21 3201347045680 1 0
42.85604 24.325836 1.1466867 24 3201347043376 1 0
20.368258 11.557462 -1.6376029 7 3201347045680 1 0
17.591816 8.872139 -1.6084129 5 3201347047984 1 0
28.622217 18.138527 0.9861691 37 3201347047984 1 0
157.98697 79.64928 3.088308 29 3201347050288 1 0
22.313026 14.135707 -1.6928282 5 3201347050288 1 0
23.5138 10.442802 -1.4983588 6 3201347052592 1 0
43.68816 24.764566 2.9246254 17 3201347052592 1 0
85.01766 42.830723 3.8784268 29 3201347054896 1 0
28.401655 16.093977 -1.5206372 5 3201347054896 1 0
26.971418 13.58291 -1.5826393 9 3201347057200 1 0
30.060612 17.028261 4.242028 18 3201347057200 1 0
40.59494 20.436367 3.7102199 40 3201347059504 1 0
27.468695 17.37953 -1.3242892 40 3201347059504 1 0
39.080273 17.328875 -1.4928609 8 3201347061808 1 0
0 0 0 9 3201347061808 1 0
29.90882 15.045839 6.104281 29 3201347064112 1 0
0 0 0 4 3201347064112 1 0
0 0 0 4 3201347085296 1 0
27.613539 17.41611 -0.569856 52 3201347085296 1 0
39.440628 19.776949 -1.2840562 83 3201347087600 1 0
0 0 0 1 3201347087600 1 0
7.8054605 3.9123762 -1.7462283 2 3201347089904 1 0
0 0 0 11 3201347089904 1 0
0 0 0 56 3201347092208 1 0
9.619765 5.4232244 -1.718058 4 3201347092208 1 0
12.041528 6.030824 -1.7142174 3 3201347094512 1 0
27.685959 17.437029 0.19016582 33 3201347094512 1 0
40.70329 20.377506 -0.26455832 22 3201347096816 1 0
13.295248 7.4897037 -1.6437255 3 3201347096816 1 0
15.820415 6.9726872 -1.6138808 3 3201347099120 1 0
42.921158 24.170029 1.1462214 24 3201347099120 1 0
20.331142 11.444715 -1.6314644 7 3201347101424 1 0
81.90588 36.08354 1.04197 28 3201347101424 1 0
17.57581 8.788525 -1.604182 5 3201347103728 1 0
28.829845 18.131706 0.9911727 20 3201347103728 1 0
158.26773 79.107796 3.0884476 29 3201347106032 1 0
22.381897 14.071457 -1.6943631 5 3201347106032 1 0
23.51691 10.346872 -1.4962659 6 3201347108336 1 0
35.77491 20.115644 2.3902113 10 3201347108336 1 0
85.16246 42.53315 3.878264 58 3201347110640 1 0
28.28327 15.897263 -1.5113308 10 3201347110640 1 0
26.954338 13.456563 -1.5788711 9 3201347112944 1 0
40.652058 20.286827 3.708918 40 3201347115248 1 0
29.867197 16.781258 4.2064424 6 3201347112944 1 0
27.688536 17.383018 -1.3319422 30 3201347115248 1 0
0 0 0 9 3201347117552 1 0
37.4281 16.438877 -1.427529 7 3201347117552 1 0
29.92307 14.920723 6.096389 5 3201347119856 1 0
43.54526 24.43896 -1.1619474 19 3201347119856 1 0
0 0 0 4 3201347140592 1 0
27.82602 17.401134 -0.5728578 38 3201347140592 1 0
39.530025 19.633627 -1.2845216 46 3201347142896 1 0
0 0 0 1 3201347142896 1 0
7.8096604 3.8775985 -1.7438749 1 3201347145200 1 0
43.636993 24.392889 0 18 3201347145200 1 0
0 0 0 28 3201347147504 1 0
9.636598 5.385161 -1.7174431 4 3201347147504 1 0
12.05679 5.98242 -1.7132072 3 3201347149808 1 0
27.84568 17.393156 0.19081675 14 3201347149808 1 0
40.491623 20.084805 -0.2626985 7 3201347152112 1 0
13.322825 7.4405365 -1.6437255 3 3201347152112 1 0
15.838564 6.91147 -1.6131372 3 3201347154416 1 0
43.623978 24.355644 1.1625987 8 3201347154416 1 0
85.515686 37.303135 1.0861596 28 3201347156720 1 0
20.33778 11.351266 -1.6286741 7 3201347156720 1 0
17.571674 8.70737 -1.6009274 5 3201347159024 1 0
29.051102 18.124954 0.99652535 25 3201347159024 1 0
158.65369 78.59251 3.0904722 29 3201347161328 1 0
22.44226 13.997624 -1.6951306 8 3201347161328 1 0
23.53518 10.255374 -1.4951031 6 3201347163632 1 0
35.66123 19.885485 2.377886 20 3201347163632 1 0
85.315216 42.23491 3.8784268 87 3201347165936 1 0
28.286697 15.768432 -1.5085391 10 3201347165936 1 0
26.872261 13.298611 -1.5713347 4 3201347168240 1 0
40.707745 20.138914 3.7076163 40 3201347170544 1 0
0 0 0 1 3201347168240 1 0
27.874056 17.365261 -1.3379669 15 3201347170544 1 0
37.443985 16.292765 -1.4259934 7 3201347172848 1 0
0 0 0 9 3201347172848 1 0
0 0 0 29 3201347175152 1 0
43.558308 24.25171 -1.1600863 38 3201347175152 1 0
0 0 0 4 3201347195888 1 0
28.485317 17.689188 -0.5852839 10 3201347195888 1 0
39.60256 19.514069 -1.2848707 18 3201347198192 1 0
0 0 0 1 3201347198192 1 0
43.773575 24.287397 0 9 3201347200496 1 0
7.818397 3.851084 -1.7430905 2 3201347200496 1 0
64.704666 28.020323 -0.8208826 11 3201347202800 1 0
9.639876 5.3467703 -1.7149835 5 3201347202800 1 0
12.06875 5.940306 -1.7121971 3 3201347205104 1 0
28.70682 17.803606 0.19632645 39 3201347205104 1 0
40.372932 19.864487 -0.26151288 7 3201347207408 1 0
13.325803 7.3861065 -1.6411551 3 3201347207408 1 0
15.864453 6.8618746 -1.613509 3 3201347209712 1 0
82.26599 35.568428 1.0434135 28 3201347212016 1 0
79.310715 43.944553 2.1098738 28 3201347209712 1 0
20.329111 11.260109 -1.6250468 4 3201347212016 1 0
17.557013 8.628974 -1.5970219 5 3201347214320 1 0
29.266357 18.127058 1.001878 25 3201347214320 1 0
158.91722 78.076416 3.0906117 29 3201347216624 1 0
23.45878 10.130464 -1.4881264 6 3201347218928 1 0
22.389524 13.863166 -1.6877116 5 3201347216624 1 0
35.61459 19.706293 2.370444 9 3201347218928 1 0
85.468544 41.96005 3.8790781 58 3201347221232 1 0
28.216228 15.607265 -1.5020247 10 3201347221232 1 0
26.855251 13.179508 -1.567776 9 3201347223536 1 0
30.19962 16.698605 4.2371535 12 3201347223536 1 0
40.74596 19.989172 3.7050126 40 3201347225840 1 0
28.761158 17.785221 -1.3776972 10 3201347225840 1 0
37.333088 16.096193 -1.4197115 7 3201347228144 1 0
0 0 0 29 3201347230448 1 0
0 0 0 9 3201347228144 1 0
43.688545 24.1323 -1.161389 9 3201347230448 1 0
0 0 0 4 3201347251184 1 0
28.802261 17.747 -0.5905196 15 3201347251184 1 0
39.70995 19.395012 -1.2861507 9 3201347253488 1 0
0 0 0 1 3201347253488 1 0
7.8317924 3.8237693 -1.7430905 1 3201347255792 1 0
79.24594 43.60786 0 28 3201347255792 1 0
64.07426 27.48212 -0.8116629 93 3201347258096 1 0
9.651555 5.3092785 -1.7137536 4 3201347258096 1 0
12.075148 5.8911824 -1.7101768 3 3201347260400 1 0
29.651102 18.246235 0.20234759 10 3201347260400 1 0
39.74816 19.385042 -0.25702608 7 3201347262704 1 0
13.334078 7.3299665 -1.6390133 3 3201347262704 1 0
15.873665 6.8001823 -1.6120219 3 3201347265008 1 0
79.2954 43.574997 2.1054072 28 3201347265008 1 0
79.27173 33.945885 1.003927 28 3201347267312 1 0
20.350807 11.179472 -1.6236516 4 3201347267312 1 0
17.56194 8.555414 -1.5947437 5 3201347269616 1 0
29.482742 18.118996 1.0071143 25 3201347269616 1 0
159.21036 77.53172 3.0910306 29 3201347271920 1 0
22.237108 13.661642 -1.6726176 7 3201347271920 1 0
23.453613 10.031241 -1.4855683 6 3201347274224 1 0
35.658657 19.568407 2.3688164 29 3201347274224 1 0
84.4573 41.098343 3.8266473 29 3201347276528 1 0
26.746634 13.0105505 -1.5587741 9 3201347278832 1 0
28.203976 15.472164 -1.4984883 10 3201347276528 1 0
30.149809 16.533907 4.2220416 6 3201347278832 1 0
40.801144 19.839846 3.7037108 40 3201347281136 1 0
29.732622 18.242785 -1.4211726 5 3201347281136 1 0
37.10964 15.846467 -1.4091021 7 3201347283440 1 0
0 0 0 9 3201347283440 1 0
0 0 0 29 3201347285744 1 0
0 0 0 1 3201347285744 1 0
0 0 0 4 3201347306480 1 0
29.710266 18.163706 -0.60783243 5 3201347306480 1 0
0 0 0 37 3201347308784 1 0
0 0 0 1 3201347308784 1 0
7.8415613 3.7946992 -1.742306 1 3201347311088 1 0
0 0 0 3 3201347311088 1 0
64.14771 27.248909 -0.8113835 46 3201347313392 1 0
9.66309 5.27177 -1.7125238 3 3201347313392 1 0
12.088494 5.8455415 -1.7091666 3 3201347315696 1 0
29.694128 18.130116 0.2022081 10 3201347315696 1 0
39.988445 19.329735 -0.25814196 14 3201347318000 1 0
13.345616 7.2757626 -1.6372997 3 3201347318000 1 0
15.886307 6.740065 -1.6109066 3 3201347320304 1 0
0 0 0 1 3201347320304 1 0
79.21299 33.59401 1.0016919 57 3201347322608 1 0
20.326635 11.074005 -1.6186292 4 3201347322608 1 0
17.566565 8.481925 -1.5924655 5 3201347324912 1 0
29.706255 18.113804 1.0125833 25 3201347324912 1 0
85.99992 41.509193 1.6668445 29 3201347327216 1 0
22.15173 13.502907 -1.6626402 7 3201347327216 1 0
23.45907 9.936852 -1.4837078 6 3201347329520 1 0
36.379128 19.798866 2.4120717 21 3201347329520 1 0
82.65632 39.86571 3.7387195 29 3201347331824 1 0
28.127949 15.302967 -1.4916017 10 3201347331824 1 0
26.755905 12.899761 -1.5566807 9 3201347334128 1 0
30.235243 16.443739 4.225941 6 3201347334128 1 0
40.855785 19.69038 3.702409 40 3201347336432 1 0
29.676636 18.066149 -1.4154736 5 3201347336432 1 0
36.12276 15.27619 -1.3695959 7 3201347338736 1 0
0 0 0 9 3201347338736 1 0
0 0 0 29 3201347341040 1 0
0 0 0 4 3201347361776 1 0
76.46418 41.542587 -2.024917 29 3201347341040 1 0
29.715357 18.024626 -0.60664564 10 3201347361776 1 0
0 0 0 9 3201347364080 1 0
0 0 0 1 3201347364080 1 0
7.854814 3.7671897 -1.742306 2 3201347366384 1 0
0 0 0 3 3201347366384 1 0
64.239334 27.021873 -0.81133693 34 3201347368688 1 0
9.674595 5.2340345 -1.7112939 4 3201347368688 1 0
29.696177 17.988186 0.20178965 10 3201347370992 1 0
12.101837 5.7995276 -1.7081566 3 3201347370992 1 0
41.239594 19.755384 -0.2657672 23 3201347373296 1 0
13.3607 7.2229733 -1.6360145 3 3201347373296 1 0
15.902685 6.680791 -1.6101631 3 3201347375600 1 0
79.32778 33.311714 1.0016453 57 3201347377904 1 0
0 0 0 1 3201347375600 1 0
20.320087 10.977292 -1.6150019 4 3201347377904 1 0
17.589363 8.416089 -1.5918145 5 3201347380208 1 0
33.46855 20.245333 1.1383708 14 3201347380208 1 0
