# .PCD v.7 - Point Cloud Data file format
VERSION .7
FIELDS x y z rgb timestamp_ns device_id active
SIZE 4 4 4 4 8 1 1
TYPE F F F F F U U
COUNT 1 1 1 1 1 1 1
WIDTH 1015
HEIGHT 1
VIEWPOINT 0 0 0 1 0 0 0
POINTS 1015               
DATA ascii
9.833487 -9.116541 0.7809233 15 3204767000592 1 0
0 0 0 29 3204767002896 1 0
0 0 0 112 3204767002896 1 0
20.414698 -20.883228 -1.5305127 4 3204767005200 1 0
9.710054 -9.007361 1.6262245 4 3204767005200 1 0
25.42658 -21.379585 -1.3534356 5 3204767007504 1 0
32.323082 -33.074543 3.7753115 28 3204767007504 1 0
23.017872 -25.98649 -1.212269 11 3204767009808 1 0
0 0 0 9 3204767009808 1 0
9.131361 -9.349089 2.382736 5 3204767012112 1 0
9.820327 -9.117629 -0.31181914 18 3204767012112 1 0
0 0 0 4 3204767032296 1 0
29.68624 -25.042442 -0.6779213 19 3204767032296 1 0
24.986311 -25.656258 -1.0422556 42 3204767034600 1 0
0 0 0 1 3204767034600 1 0
5.7842894 -5.941023 -1.6583678 48 3204767036904 1 0
9.910961 -9.231077 0 5 3204767036904 1 0
28.4175 -32.20357 -0.5000078 39 3204767039208 1 0
7.570931 -7.0535254 -1.6098338 103 3204767039208 1 0
8.805391 -9.048987 -1.607142 10 3204767041512 1 0
29.596958 -24.99514 0.22515354 11 3204767041512 1 0
0 0 0 85 3204767043816 1 0
9.602881 -8.951569 -1.4141095 37 3204767043816 1 0
9.920725 -9.250417 0.31563428 10 3204767046120 1 0
11.502361 -13.04572 -1.623547 3 3204767046120 1 0
28.389118 -32.20727 0.49982154 37 3204767048424 1 0
9.807504 -9.147379 -0.937806 106 3204767048424 1 0
0 0 0 9 3204767050728 1 0
28.429155 -29.256044 0.7120582 59 3204767053032 1 0
17.79102 -15.045891 -1.4932806 4 3204767053032 1 0
17.004675 -19.307821 -1.4983588 6 3204767055336 1 0
9.942386 -9.280891 0.792086 6 3204767055336 1 0
0 0 0 14 3204767057640 1 0
29.513105 -24.952282 1.1247565 9 3204767050728 1 0
9.806978 -9.157029 -0.6250061 100 3204767057640 1 0
20.432549 -21.044294 -1.5372117 9 3204767059944 1 0
32.329975 -33.307133 3.7893062 28 3204767062248 1 0
25.369078 -21.478727 -1.3542498 10 3204767062248 1 0
9.688047 -9.048487 1.627687 4 3204767059944 1 0
22.84254 -25.9653 -1.2076622 17 3204767064552 1 0
0 0 0 9 3204767064552 1 0
0 0 0 29 3204767066856 1 0
27.07798 -25.311438 -0.8625042 22 3204767066856 1 0
0 0 0 4 3204767087592 1 0
30.188326 -25.637815 -0.6913247 19 3204767087592 1 0
24.8479 -25.684736 -1.0400448 48 3204767089896 1 0
0 0 0 1 3204767089896 1 0
5.764383 -5.960339 -1.6583678 51 3204767092200 1 0
26.92059 -25.242565 0 30 3204767092200 1 0
28.41987 -32.425198 -0.5019635 40 3204767094504 1 0
7.550073 -7.081626 -1.6104487 102 3204767094504 1 0
8.755504 -9.058676 -1.6036065 5 3204767096808 1 0
31.66989 -26.929369 0.24161288 13 3204767096808 1 0
28.430508 -29.423948 -0.23780026 47 3204767099112 1 0
9.543492 -8.956843 -1.4098256 36 3204767099112 1 0
11.460519 -13.087788 -1.6239188 3 3204767101416 1 0
28.90371 -27.135271 0.9225231 42 3204767101416 1 0
28.386885 -32.427505 0.5017307 31 3204767103720 1 0
13.4348 -13.917004 -1.5791217 3 3204767106024 1 0
0 0 0 3 3204767103720 1 0
30.316252 -25.810278 1.1587342 10 3204767106024 1 0
28.430899 -29.460346 0.71464115 44 3204767108328 1 0
17.757284 -15.122657 -1.4948156 4 3204767108328 1 0
16.942995 -19.37258 -1.498824 6 3204767110632 1 0
9.974212 -9.375421 0.7972022 3 3204767110632 1 0
27.833893 -28.859358 1.6335018 8 3204767112936 1 0
0 0 0 4 3204767112936 1 0
20.370056 -21.126991 -1.5380491 4 3204767115240 1 0
9.662188 -9.087689 1.6286619 4 3204767115240 1 0
32.293262 -33.503494 3.7987444 29 3204767117544 1 0
25.375748 -21.637535 -1.3586462 10 3204767117544 1 0
22.68 -25.964249 -1.2038931 34 3204767119848 1 0
0 0 0 9 3204767119848 1 0
0 0 0 29 3204767122152 1 0
26.871885 -25.297338 -0.8587821 48 3204767122152 1 0
0 0 0 4 3204767142888 1 0
29.380016 -25.137278 -0.6749195 19 3204767142888 1 0
24.70116 -25.720663 -1.0378339 41 3204767145192 1 0
0 0 0 1 3204767145192 1 0
5.742585 -5.9813433 -1.6583678 43 3204767147496 1 0
28.904497 -27.301788 0 55 3204767147496 1 0
28.41181 -32.655262 -0.5039192 45 3204767149800 1 0
8.703277 -9.07041 -1.600071 4 3204767152104 1 0
0 0 0 38 3204767152104 1 0
28.431536 -29.6395 -0.23870692 48 3204767154408 1 0
7.5328407 -7.11723 -1.6122935 59 3204767149800 1 0
9.482027 -8.964095 -1.4055417 27 3204767154408 1 0
11.420884 -13.138224 -1.6250341 3 3204767156712 1 0
28.377066 -32.65367 0.5036398 38 3204767159016 1 0
0 0 0 1 3204767159016 1 0
28.840115 -27.27274 0.9236397 54 3204767156712 1 0
13.406583 -13.988399 -1.5817254 3 3204767161320 1 0
0 0 0 50 3204767161320 1 0
28.424274 -29.66646 0.71715426 60 3204767163624 1 0
17.71788 -15.199475 -1.4960947 6 3204767163624 1 0
0 0 0 35 3204767165928 1 0
32.36161 -30.638538 2.595326 25 3204767165928 1 0
0 0 0 2 3204767168232 1 0
27.865692 -29.100407 1.6414803 8 3204767168232 1 0
20.302622 -21.208395 -1.5386771 9 3204767170536 1 0
9.635375 -9.127662 1.6296369 4 3204767170536 1 0
32.34157 -33.794285 3.8185976 43 3204767172840 1 0
25.30742 -21.735817 -1.3591347 10 3204767172840 1 0
22.51924 -25.96638 -1.2002635 23 3204767175144 1 0
0 0 0 9 3204767175144 1 0
0 0 0 29 3204767177448 1 0
26.720816 -25.334957 -0.856828 43 3204767177448 1 0
0 0 0 4 3204767198184 1 0
24.553467 -25.745789 -1.0353903 41 3204767200488 1 0
29.283 -25.231848 -0.67471004 25 3204767198184 1 0
0 0 0 1 3204767200488 1 0
5.721759 -6.001269 -1.6583678 18 3204767202792 1 0
28.85869 -27.448963 0 55 3204767202792 1 0
28.36112 -32.82626 -0.5050368 55 3204767205096 1 0
0 0 0 21 3204767205096 1 0
8.644453 -9.071756 -1.5950202 20 3204767207400 1 0
29.179125 -25.170456 0.22396791 63 3204767207400 1 0
28.428305 -29.841795 -0.23954384 36 3204767209704 1 0
0 0 0 12 3204767209704 1 0
11.375528 -13.177514 -1.6250341 3 3204767212008 1 0
28.803854 -27.427143 0.92550075 30 3204767212008 1 0
15.879984 -15.125167 -1.5335263 4 3204767214312 1 0
13.363986 -14.040109 -1.5823762 3 3204767216616 1 0
28.329908 -32.826786 0.50480396 44 3204767214312 1 0
28.418987 -29.86505 0.71959764 52 3204767218920 1 0
29.098888 -25.129305 1.1189383 82 3204767216616 1 0
12.050284 -13.974765 -1.0746417 100 3204767221224 1 1
17.6778 -15.270512 -1.4971181 6 3204767218920 1 0
32.366535 -30.85367 2.604163 25 3204767221224 1 0
27.807592 -29.23872 1.6439228 17 3204767223528 1 0
20.233076 -21.280266 -1.5388864 9 3204767225832 1 0
21.890667 -20.873234 -1.4089624 4 3204767223528 1 0
32.336483 -34.019512 3.8316157 44 3204767228136 1 0
25.24555 -21.832096 -1.359786 10 3204767228136 1 0
22.360674 -25.960764 -1.1964943 16 3204767230440 1 0
9.604255 -9.160402 1.6296369 4 3204767225832 1 0
0 0 0 9 3204767230440 1 0
0 0 0 29 3204767232744 1 0
26.577139 -25.369947 -0.85496694 43 3204767232744 1 0
29.087387 -25.231852 -0.67212707 25 3204767253480 1 0
24.404524 -25.760489 -1.032714 41 3204767255784 1 0
0 0 0 1 3204767255784 1 0
0 0 0 49 3204767258088 1 0
28.807554 -27.583658 0 66 3204767258088 1 0
28.347767 -33.033047 -0.50675964 40 3204767260392 1 0
0 0 0 4 3204767253480 1 0
7.498493 -7.1820087 -1.615368 5 3204767260392 1 0
8.605875 -9.091977 -1.593505 23 3204767262696 1 0
29.38166 -25.51709 0.22617643 17 3204767262696 1 0
28.421576 -30.035715 -0.24033426 49 3204767265000 1 0
9.383464 -8.992657 -1.3999727 4 3204767265000 1 0
11.34156 -13.227753 -1.6265212 3 3204767267304 1 0
28.769278 -27.579107 0.92736185 24 3204767267304 1 0
28.30772 -33.02524 0.5063871 25 3204767269608 1 0
15.8404875 -15.189596 -1.5346425 4 3204767269608 1 0
29.351862 -25.521181 1.1319709 24 3204767271912 1 0
13.316535 -14.085123 -1.5823762 3 3204767271912 1 0
28.413986 -30.062708 0.72204095 67 3204767274216 1 0
17.617023 -15.322344 -1.4963506 6 3204767274216 1 0
11.943115 -13.945762 -1.0692929 93 3204767276520 1 1
32.36551 -31.06272 2.612535 26 3204767276520 1 0
27.80968 -29.440489 1.6499475 17 3204767278824 1 0
21.8283 -20.95576 -1.4095207 9 3204767278824 1 0
20.176989 -21.366428 -1.5401425 9 3204767281128 1 0
9.573022 -9.193036 1.6296369 4 3204767281128 1 0
32.346157 -34.262955 3.846587 45 3204767283432 1 0
22.201653 -25.955019 -1.1927252 45 3204767285736 1 0
25.189026 -21.93382 -1.360763 10 3204767283432 1 0
0 0 0 9 3204767285736 1 0
0 0 0 29 3204767288040 1 0
26.43819 -25.41095 -0.853292 43 3204767288040 1 0
0 0 0 4 3204767308776 1 0
28.878656 -25.227983 -0.6693347 31 3204767308776 1 0
24.26788 -25.796013 -1.0307359 41 3204767311080 1 0
0 0 0 1 3204767311080 1 0
5.686064 -6.045873 -1.6599368 4 3204767313384 1 0
28.783081 -27.75346 0 55 3204767313384 1 0
28.349026 -33.268795 -0.50885504 30 3204767315688 1 0
7.4762225 -7.2108836 -1.615983 6 3204767315688 1 0
8.549627 -9.095941 -1.5889593 23 3204767317992 1 0
29.349617 -25.669529 0.22661814 35 3204767317992 1 0
28.45899 -30.28632 -0.24154313 49 3204767320296 1 0
9.3262615 -9.000501 -1.3961171 3 3204767320296 1 0
11.303063 -13.276359 -1.6276366 3 3204767322600 1 0
28.72462 -27.729357 0.9290368 48 3204767322600 1 0
28.303741 -33.254826 0.5083894 26 3204767324904 1 0
15.798851 -15.255885 -1.5357585 4 3204767324904 1 0
13.272745 -14.137334 -1.5830272 3 3204767327208 1 0
28.448462 -30.310432 0.72560126 60 3204767329512 1 0
29.30471 -25.660358 1.1335999 24 3204767327208 1 0
17.569437 -15.389006 -1.4968623 6 3204767329512 1 0
11.852973 -13.938693 -1.065572 91 3204767331816 1 1
32.35738 -31.272636 2.6206746 26 3204767331816 1 0
27.821585 -29.659813 1.6567863 26 3204767334120 1 0
21.826836 -21.101255 -1.414174 9 3204767334120 1 0
20.110481 -21.44547 -1.5407705 9 3204767336424 1 0
9.555144 -9.240196 1.6320742 4 3204767336424 1 0
32.351788 -34.509445 3.861558 30 3204767338728 1 0
25.121325 -22.029518 -1.3612515 10 3204767338728 1 0
22.025517 -25.931812 -1.1881185 39 3204767341032 1 0
0 0 0 29 3204767343336 1 0
0 0 0 9 3204767341032 1 0
26.280365 -25.436335 -0.8510587 48 3204767343336 1 0
0 0 0 4 3204767364072 1 0
28.664303 -25.217684 -0.6664027 25 3204767364072 1 0
0 0 0 1 3204767366376 1 0
24.117638 -25.816288 -1.0281758 40 3204767366376 1 0
5.6676025 -6.068551 -1.6607212 4 3204767368680 1 0
28.743423 -27.909492 0 45 3204767368680 1 0
28.34123 -33.495792 -0.51081073 35 3204767370984 1 0
7.462347 -7.2479515 -1.6184427 6 3204767370984 1 0
8.493457 -9.099623 -1.5844136 22 3204767373288 1 0
29.271841 -25.782396 0.22671112 11 3204767373288 1 0
28.462252 -30.502455 -0.24247304 50 3204767375592 1 0
9.266266 -9.005283 -1.3918332 3 3204767375592 1 0
11.261793 -13.321816 -1.6283801 3 3204767377896 1 0
28.295921 -33.481728 0.5103451 26 3204767380200 1 0
28.685 -27.885202 0.93089783 49 3204767377896 1 0
15.7455015 -15.31094 -1.5357585 4 3204767380200 1 0
13.226034 -14.186494 -1.5833527 3 3204767382504 1 0
29.26594 -25.80745 1.135578 29 3204767382504 1 0
28.454285 -30.529505 0.7284635 61 3204767384808 1 0
17.512619 -15.4476 -1.4966065 6 3204767384808 1 0
11.757874 -13.925064 -1.061386 100 3204767387112 1 1
32.353905 -31.488441 2.6292791 26 3204767387112 1 0
21.755909 -21.180105 -1.41436 9 3204767389416 1 0
27.756021 -29.79769 1.659066 26 3204767389416 1 0
20.043667 -21.524307 -1.5413985 9 3204767391720 1 0
0 0 0 200 3204767391720 1 0
32.35337 -34.753475 3.8762035 30 3204767394024 1 0
25.056257 -22.127655 -1.3619028 10 3204767394024 1 0
21.862701 -25.922974 -1.1842097 44 3204767396328 1 0
0 0 0 9 3204767396328 1 0
0 0 0 29 3204767398632 1 0
26.131279 -25.469301 -0.84910464 48 3204767398632 1 0
0 0 0 4 3204767419368 1 0
23.97571 -25.844624 -1.025965 40 3204767421672 1 0
28.465342 -25.219456 -0.66381973 30 3204767419368 1 0
0 0 0 1 3204767421672 1 0
5.651719 -6.0940495 -1.6622902 4 3204767423976 1 0
28.688726 -28.051601 0 39 3204767423976 1 0
28.296175 -33.680264 -0.5121145 56 3204767426280 1 0
7.4398274 -7.2767196 -1.6190575 6 3204767426280 1 0
8.4400625 -9.105933 -1.580373 3 3204767428584 1 0
29.286398 -25.977316 0.2275248 41 3204767428584 1 0
28.458914 -30.713114 -0.24335645 43 3204767430888 1 0
0 0 0 85 3204767430888 1 0
11.212663 -13.357995 -1.6280082 3 3204767433192 1 0
28.638924 -28.035515 0.9325728 36 3204767433192 1 0
28.25858 -33.675274 0.5117886 39 3204767435496 1 0
15.703364 -15.376976 -1.5368747 4 3204767435496 1 0
13.179142 -14.2355 -1.5836781 3 3204767437800 1 0
29.226501 -25.954584 1.1375562 24 3204767437800 1 0
28.45349 -30.743114 0.73118603 61 3204767440104 1 0
17.461575 -15.511288 -1.4968623 6 3204767440104 1 0
0 0 0 36 3204767442408 1 0
27.746824 -29.997084 1.664765 26 3204767444712 1 0
32.34361 -31.699015 2.6374185 26 3204767442408 1 0
21.684698 -21.258715 -1.4145461 9 3204767444712 1 0
19.984682 -21.611738 -1.5426546 9 3204767447016 1 0
9.413868 -9.231624 1.6189123 185 3204767447016 1 0
32.2914 -34.930603 3.8833635 30 3204767449320 1 0
24.987823 -22.222952 -1.3623912 10 3204767449320 1 0
21.697649 -25.91025 -1.1801614 38 3204767451624 1 0
0 0 0 9 3204767451624 1 0
25.965158 -25.48473 -0.8465922 43 3204767453928 1 0
0 0 0 29 3204767453928 1 0
0 0 0 4 3204767474664 1 0
28.275671 -25.228136 -0.6614462 30 3204767474664 1 0
23.833878 -25.872284 -1.0237541 47 3204767476968 1 0
0 0 0 1 3204767476968 1 0
5.622441 -6.105085 -1.6599368 4 3204767479272 1 0
28.661888 -28.221735 0 33 3204767479272 1 0
7.417197 -7.3054185 -1.6196724 5 3204767481576 1 0
8.39479 -9.120742 -1.5778477 3 3204767483880 1 0
29.219408 -26.100704 0.22771078 17 3204767483880 1 0
28.451744 -30.921175 -0.2442166 51 3204767486184 1 0
21.57836 -25.867004 -0.3921648 14 3204767481576 1 0
9.163516 -9.030672 -1.3858358 64 3204767486184 1 0
11.176166 -13.409291 -1.6294954 3 3204767488488 1 0
28.60069 -28.194267 0.93452686 36 3204767488488 1 0
15.660958 -15.4429035 -1.5379907 2 3204767490792 1 0
13.137465 -14.290222 -1.5846545 3 3204767493096 1 0
28.243273 -33.89662 0.51365113 39 3204767490792 1 0
9.897682 -8.851622 0.38643867 9 3204767493096 1 0
28.440723 -30.94531 0.73362935 68 3204767495400 1 0
17.407324 -15.572145 -1.4968623 6 3204767495400 1 0
11.647598 -13.991465 -1.0602232 1 3204767497704 1 1
32.34929 -31.926727 2.6469533 27 3204767497704 1 0
27.739277 -30.19972 1.6706268 26 3204767500008 1 0
21.621733 -21.345509 -1.4152907 9 3204767500008 1 0
19.965858 -21.743155 -1.5470508 9 3204767502312 1 0
9.302488 -9.186317 1.605263 200 3204767502312 1 0
32.30677 -35.19289 3.899962 30 3204767504616 1 0
24.98453 -22.376701 -1.366462 10 3204767504616 1 0
21.5534 -25.921282 -1.1772299 44 3204767506920 1 0
0 0 0 77 3204767506920 1 0
0 0 0 29 3204767509224 1 0
25.81347 -25.513367 -0.84454507 43 3204767509224 1 0
0 0 0 4 3204767529960 1 0
9.942207 -8.933169 -0.23330377 3 3204767529960 1 0
23.697544 -25.905169 -1.021776 40 3204767532264 1 0
0 0 0 1 3204767532264 1 0
5.609037 -6.133357 -1.6622902 5 3204767534568 1 0
9.248387 -9.170164 0 5 3204767534568 1 0
28.279776 -34.14189 -0.51611906 47 3204767536872 1 0
8.352193 -9.138273 -1.5758275 3 3204767539176 1 0
7.3860393 -7.3256984 -1.6184427 5 3204767536872 1 0
28.483936 -31.173853 -0.24542549 51 3204767541480 1 0
28.069458 -25.250208 0.21943462 11 3204767539176 1 0
11.136908 -13.457426 -1.6306107 3 3204767543784 1 0
9.092417 -9.023384 -1.3798383 53 3204767541480 1 0
9.226359 -9.158974 0.30251387 2 3204767543784 1 0
28.236961 -34.130604 0.5157 39 3204767546088 1 0
0 0 0 38 3204767546088 1 0
13.095567 -14.344827 -1.5856309 3 3204767548392 1 0
9.902376 -8.918226 0.387835 11 3204767548392 1 0
28.475422 -31.200966 0.73732924 62 3204767550696 1 0
17.358791 -15.638157 -1.4973739 6 3204767550696 1 0
11.568159 -13.995102 -1.0574325 5 3204767553000 1 1
9.239079 -9.182279 0.75859797 4 3204767553000 1 0
27.730652 -30.402668 1.6764886 26 3204767555304 1 0
0 0 0 22 3204767555304 1 0
19.88984 -21.812716 -1.5470508 9 3204767557608 1 0
9.19154 -9.1403475 1.5916137 181 3204767557608 1 0
32.288475 -35.420353 3.9126549 15 3204767559912 1 0
24.918139 -22.474483 -1.3671134 10 3204767559912 1 0
21.42461 -25.950119 -1.1751359 49 3204767562216 1 0
9.125937 -9.080392 3.4495401 12 3204767562216 1 0
9.217196 -9.173863 -0.30260694 11 3204767564520 1 0
0 0 0 4 3204767585256 1 0
0 0 0 29 3204767564520 1 0
9.943585 -8.997336 -0.23407167 13 3204767585256 1 0
23.553205 -25.928541 -1.0194486 40 3204767587560 1 0
0 0 0 1 3204767587560 1 0
5.5902305 -6.1558027 -1.6630746 4 3204767589864 1 0
0 0 0 240 3204767589864 1 0
21.313408 -25.915075 -0.3906282 30 3204767592168 1 0
7.368812 -7.359815 -1.6202873 6 3204767592168 1 0
8.29091 -9.135052 -1.5702716 14 3204767594472 1 0
9.948588 -9.012396 0.07801913 7 3204767594472 1 0
28.474394 -31.382696 -0.24628565 19 3204767596776 1 0
9.058051 -9.052256 -1.37941 17 3204767596776 1 0
11.089865 -13.49622 -1.6306107 3 3204767599080 1 0
0 0 0 244 3204767599080 1 0
28.22936 -34.36495 0.51774883 40 3204767601384 1 0
9.195658 -9.195123 -0.9093454 20 3204767601384 1 0
13.050769 -14.3963585 -1.5862818 3 3204767603688 1 0
9.912648 -8.990343 0.38946408 10 3204767603688 1 0
28.460335 -31.403894 0.7397726 62 3204767605992 1 0
17.31001 -15.70402 -1.4978856 6 3204767605992 1 0
11.511636 -14.026137 -1.0567348 3 3204767608296 1 1
9.173101 -9.180575 0.7558073 16 3204767608296 1 0
9.185826 -9.195986 -0.60546297 26 3204767610600 1 0
27.720947 -30.60592 1.6823505 26 3204767610600 1 0
19.81894 -21.887934 -1.5474695 9 3204767612904 1 0
9.09786 -9.110572 1.5808891 154 3204767612904 1 0
31.870335 -35.20772 3.8768544 15 3204767615208 1 0
24.854328 -22.574762 -1.3679274 10 3204767615208 1 0
0 0 0 21 3204767617512 1 0
9.121479 -9.13954 3.459893 8 3204767617512 1 0
0 0 0 29 3204767619816 1 0
0 0 0 4 3204767640552 1 0
9.947593 -9.064316 -0.23490939 12 3204767640552 1 0
9.1879425 -9.208813 -0.30269998 28 3204767619816 1 0
23.406315 -25.948252 -1.0170051 26 3204767642856 1 0
0 0 0 1 3204767642856 1 0
5.5765886 -6.184017 -1.665428 4 3204767645160 1 0
9.158756 -9.208981 0 233 3204767645160 1 0
28.24818 -34.592525 -0.51993734 15 3204767647464 1 0
7.3458633 -7.3882947 -1.6209022 5 3204767647464 1 0
8.264284 -9.169831 -1.5712818 34 3204767649768 1 0
9.943665 -9.07133 0.07822836 10 3204767649768 1 0
23.376625 -25.945673 -0.20297527 23 3204767652072 1 0
0 0 0 6 3204767652072 1 0
11.060311 -13.55645 -1.6332132 3 3204767654376 1 0
0 0 0 237 3204767654376 1 0
28.207827 -34.58416 0.5195648 47 3204767656680 1 0
9.155069 -9.218671 -0.9085083 21 3204767656680 1 0
13.013774 -14.456642 -1.5879091 3 3204767658984 1 0
9.907776 -9.049157 0.39051133 12 3204767658984 1 0
0 0 0 54 3204767661288 1 0
11.444947 -14.044566 -1.055107 3 3204767663592 1 1
9.138186 -9.209705 0.7555747 22 3204767663592 1 0
27.726194 -30.827305 1.6891893 26 3204767665896 1 0
28.45488 -31.618988 0.7424952 62 3204767661288 1 0
9.150856 -9.225158 -0.6052769 24 3204767665896 1 0
19.747757 -21.962921 -1.5478883 9 3204767668200 1 0
8.987727 -9.063339 1.5672398 191 3204767668200 1 0
32.30426 -35.938435 3.944875 15 3204767670504 1 0
24.787172 -22.672173 -1.3685788 5 3204767670504 1 0
0 0 0 96 3204767672808 1 0
9.119438 -9.20151 3.471281 15 3204767672808 1 0
0 0 0 29 3204767675112 1 0
9.138854 -9.223784 -0.30214167 32 3204767675112 1 0
0 0 0 4 3204767696296 1 0
9.889371 -9.074648 -0.23428111 15 3204767696296 1 0
23.267576 -25.976189 -1.0149106 33 3204767698600 1 0
0 0 0 1 3204767698600 1 0
5.5497355 -6.197602 -1.6638591 4 3204767700904 1 0
9.129366 -9.24374 0 221 3204767700904 1 0
20.043756 -24.721087 -0.3705124 28 3204767703208 1 0
7.320029 -7.413892 -1.6209022 6 3204767703208 1 0
8.203117 -9.166099 -1.5657259 25 3204767705512 1 0
9.867755 -9.065393 0.077879645 18 3204767705512 1 0
28.481308 -31.834103 -0.2482617 86 3204767707816 1 0
8.947146 -9.067148 -1.3721274 3 3204767707816 1 0
11.007909 -13.588785 -1.6324697 3 3204767710120 1 0
9.115901 -9.240853 0.30204862 230 3204767710120 1 0
29.549427 -36.488335 0.5466187 22 3204767712424 1 0
9.139646 -9.267619 -0.9101825 17 3204767712424 1 0
12.965888 -14.504952 -1.5882345 3 3204767714728 1 0
9.852586 -9.062033 0.38958043 19 3204767714728 1 0
28.456263 -31.843372 0.7454272 55 3204767717032 1 0
0 0 0 114 3204767717032 1 0
11.383294 -14.068909 -1.0539442 5 3204767719336 1 1
9.119996 -9.25577 0.7567375 12 3204767719336 1 0
27.71426 -31.031212 1.6950512 26 3204767721640 1 0
9.129815 -9.26843 -0.60602134 13 3204767721640 1 0
19.692255 -22.055557 -1.549563 9 3204767723944 1 0
0 0 0 19 3204767723944 1 0
32.298077 -36.184822 3.9595208 32 3204767726248 1 0
0 0 0 101 3204767726248 1 0
20.015963 -24.767702 -1.1120375 39 3204767728552 1 0
9.0981045 -9.244303 3.4754221 7 3204767728552 1 0
0 0 0 29 3204767730856 1 0
9.11782 -9.267031 -0.30251387 15 3204767730856 1 0
0 0 0 4 3204767751592 1 0
9.848822 -9.10097 -0.23407167 17 3204767751592 1 0
23.107672 -25.979574 -1.0118852 33 3204767753896 1 0
0 0 0 1 3204767753896 1 0
5.5254617 -6.214005 -1.6630746 4 3204767756200 1 0
9.11665 -9.295542 0 108 3204767756200 1 0
28.648079 -35.586487 -0.5318578 11 3204767758504 1 0
7.3024063 -7.447865 -1.622747 6 3204767758504 1 0
8.152621 -9.173915 -1.5621904 40 3204767760808 1 0
9.844859 -9.107932 0.07794939 10 3204767760808 1 0
28.48159 -32.058918 -0.2492381 33 3204767763112 1 0
8.890391 -9.072759 -1.368272 3 3204767763112 1 0
10.9579115 -13.624023 -1.6320978 3 3204767765416 1 0
9.094783 -9.284044 0.30242082 146 3204767765416 1 0
29.512108 -36.703472 0.548295 45 3204767767720 1 0
0 0 0 5 3204767767720 1 0
12.92047 -14.5560875 -1.5888854 3 3204767770024 1 0
9.914761 -9.183312 0.39330402 9 3204767770024 1 0
28.467043 -32.080116 0.74863845 63 3204767772328 1 0
9.838754 -9.115571 -0.85958934 115 3204767772328 1 0
27.846582 -28.45917 2.3188167 18 3204767774632 1 0
11.266591 -14.024505 -1.0476651 3 3204767774632 1 1
27.703892 -31.238401 1.7010758 27 3204767776936 1 0
0 0 0 2 3204767776936 1 0
19.596596 -22.10324 -1.5480976 9 3204767779240 1 0
0 0 0 5 3204767779240 1 0
32.30379 -36.446518 3.9757936 32 3204767781544 1 0
9.819083 -9.107968 -0.5456404 100 3204767781544 1 0
11.500802 -14.333118 -0.6417319 7 3204767783848 1 1
9.044175 -9.253899 3.46714 11 3204767783848 1 0
0 0 0 29 3204767786152 1 0
9.1496935 -9.364588 -0.3046541 7 3204767786152 1 0
27.105795 -25.223545 -0.6462975 17 3204767806888 1 0
22.934793 -25.967176 -1.0082779 32 3204767809192 1 0
0 0 0 1 3204767809192 1 0
0 0 0 4 3204767806888 1 0
0 0 0 42 3204767811496 1 0
5.503737 -6.2332544 -1.6630746 4 3204767811496 1 0
28.568636 -35.742508 -0.53269595 11 3204767813800 1 0
7.273607 -7.470478 -1.6221321 6 3204767813800 1 0
8.10217 -9.18149 -1.5586549 34 3204767816104 1 0
29.008804 -27.025915 0.23043075 18 3204767816104 1 0
28.472712 -32.275127 -0.25014478 47 3204767818408 1 0
8.850347 -9.095186 -1.3669868 25 3204767818408 1 0
10.912774 -13.665303 -1.6324697 11 3204767820712 1 0
0 0 0 8 3204767820712 1 0
29.501095 -36.95318 0.5504835 30 3204767823016 1 0
15.406443 -15.84187 -1.5452454 4 3204767823016 1 0
12.872217 -14.60409 -1.5892109 3 3204767825320 1 0
9.967437 -9.296953 0.39667854 9 3204767825320 1 0
28.458008 -32.296314 0.751361 63 3204767827624 1 0
0 0 0 9 3204767827624 1 0
11.282309 -14.144914 -1.0537117 3 3204767829928 1 1
27.76377 -28.573383 2.3202121 27 3204767829928 1 0
27.702976 -31.457891 1.7077519 27 3204767832232 1 0
21.203373 -21.828032 -1.4175241 9 3204767832232 1 0
19.5378 -22.192497 -1.549563 9 3204767834536 1 0
0 0 0 1 3204767834536 1 0
32.300167 -36.699715 3.99109 48 3204767836840 1 0
0 0 0 3 3204767836840 1 0
11.358537 -14.25749 -0.6365668 20 3204767839144 1 1
9.116763 -9.393543 3.5075157 1 3204767839144 1 0
0 0 0 29 3204767841448 1 0
24.936556 -25.701094 -0.8332857 47 3204767841448 1 0
0 0 0 4 3204767862184 1 0
26.924196 -25.230497 -0.6440636 41 3204767862184 1 0
22.770193 -25.962906 -1.0050198 32 3204767864488 1 0
4.250405 -4.393488 -1.7112644 0 3204767864488 1 0
5.4845314 -6.2553773 -1.6638591 4 3204767866792 1 0
28.39762 -29.362123 0 47 3204767866792 1 0
28.67244 -36.130253 -0.5369799 22 3204767869096 1 0
7.25298 -7.501505 -1.6233618 5 3204767869096 1 0
0 0 0 22 3204767871400 1 0
26.895657 -25.233156 0.21434338 11 3204767871400 1 0
28.46794 -32.497677 -0.25109792 47 3204767873704 1 0
8.799199 -9.106005 -1.363988 52 3204767873704 1 0
0 0 0 10 3204767876008 1 0
10.892224 -13.737641 -1.6365591 35 3204767876008 1 0
29.49615 -37.212654 0.55281174 22 3204767878312 1 0
15.353822 -15.898422 -1.5455245 4 3204767878312 1 0
12.83429 -14.663934 -1.5908382 3 3204767880616 1 0
28.910074 -27.154697 1.1543124 35 3204767880616 1 0
28.450441 -32.51585 0.7541534 56 3204767882920 1 0
0 0 0 9 3204767882920 1 0
0 0 0 48 3204767885224 1 0
27.758135 -28.767826 2.328119 28 3204767885224 1 0
27.698236 -31.674746 1.714265 27 3204767887528 1 0
21.201948 -21.979557 -1.4225495 9 3204767887528 1 0
19.47336 -22.275599 -1.5506097 9 3204767889832 1 0
0 0 0 1 3204767889832 1 0
32.30042 -36.95933 4.0070376 32 3204767892136 1 0
0 0 0 3 3204767892136 1 0
11.21198 -14.174775 -0.63112247 37 3204767894440 1 1
0 0 0 9 3204767894440 1 0
0 0 0 29 3204767896744 1 0
24.796747 -25.736147 -0.83161074 47 3204767896744 1 0
26.789423 -25.280409 -0.64294666 41 3204767917480 1 0
0 0 0 4 3204767917480 1 0
22.600653 -25.951775 -1.0015289 32 3204767919784 1 0
4.1549854 -4.324965 -1.6789154 0 3204767919784 1 0
5.470389 -6.2833586 -1.6662126 2 3204767922088 1 0
28.405785 -29.576468 0 48 3204767922088 1 0
28.808537 -36.56314 -0.5419157 23 3204767924392 1 0
7.226751 -7.526777 -1.6233618 6 3204767924392 1 0
8.009224 -9.204902 -1.5530992 3 3204767926696 1 0
28.889202 -27.293703 0.2309887 18 3204767926696 1 0
28.461958 -32.72059 -0.2520511 55 3204767929000 1 0
8.72881 -9.096491 -1.3579906 48 3204767929000 1 0
10.831887 -13.759932 -1.6347003 33 3204767931304 1 0
29.494698 -37.478832 0.5552331 23 3204767933608 1 0
15.29547 -15.94904 -1.5452454 4 3204767933608 1 0
12.78564 -14.711654 -1.5911636 3 3204767935912 1 0
28.358744 -29.561893 0.95323044 37 3204767931304 1 0
28.867395 -27.304903 1.1564069 20 3204767935912 1 0
28.441689 -32.735725 0.7569458 64 3204767938216 1 0
17.032429 -16.115215 -1.5027463 4 3204767938216 1 0
11.052471 -14.056961 -1.0413861 99 3204767940520 1 1
27.751478 -28.962576 2.336026 28 3204767940520 1 0
27.700178 -31.901003 1.7212666 27 3204767942824 1 0
19.369299 -22.313272 -1.5485163 4 3204767945128 1 0
21.133389 -22.062088 -1.4231079 9 3204767942824 1 0
0 0 0 1 3204767945128 1 0
32.29663 -37.216385 4.02266 33 3204767947432 1 0
24.495071 -23.20301 -1.3746034 10 3204767947432 1 0
11.127867 -14.16981 -0.62916815 77 3204767949736 1 1
0 0 0 9 3204767949736 1 0
0 0 0 29 3204767952040 1 0
24.662527 -25.776318 -0.8301219 47 3204767952040 1 0
0 0 0 4 3204767972776 1 0
26.628536 -25.304892 -0.64120144 41 3204767972776 1 0
22.42362 -25.930704 -0.99768895 31 3204767975080 1 0
4.137204 -4.336655 -1.677837 0 3204767975080 1 0
28.393473 -29.770966 0 48 3204767977384 1 0
28.592014 -36.550068 -0.5402394 22 3204767979688 1 0
7.203161 -7.5548177 -1.6239768 5 3204767979688 1 0
7.9614787 -9.214788 -1.5500687 3 3204767981992 1 0
28.85461 -27.452276 0.2314769 18 3204767981992 1 0
5.456118 -6.3113174 -1.6685659 2 3204767977384 1 0
28.40509 -32.886333 -0.25256252 41 3204767984296 1 0
8.677799 -9.1067505 -1.3549919 48 3204767984296 1 0
10.7862425 -13.800796 -1.635072 31 3204767986600 1 0
28.349161 -29.75915 0.9563942 44 3204767986600 1 0
29.504059 -37.76121 0.55788726 23 3204767988904 1 0
15.253464 -16.016783 -1.5466405 4 3204767988904 1 0
12.739418 -14.76223 -1.5918145 3 3204767991208 1 0
28.826916 -27.457897 1.1586177 25 3204767991208 1 0
28.376884 -32.89234 0.7582722 48 3204767993512 1 0
16.990522 -16.18834 -1.5040255 4 3204767993512 1 0
10.983678 -14.070273 -1.0395257 91 3204767995816 1 1
27.741049 -29.154736 2.3437002 28 3204767995816 1 0
27.68261 -32.10647 1.7271285 27 3204767998120 1 0
21.059002 -22.138618 -1.4232941 9 3204767998120 1 0
0 0 0 76 3204768000424 1 0
0 0 0 1 3204768000424 1 0
32.29925 -37.48292 4.039258 33 3204768002728 1 0
24.439957 -23.313202 -1.376069 10 3204768002728 1 0
11.039008 -14.158127 -0.6269346 90 3204768005032 1 1
0 0 0 9 3204768005032 1 0
0 0 0 29 3204768007336 1 0
24.506294 -25.792671 -0.8278886 46 3204768007336 1 0
0 0 0 4 3204768028072 1 0
22.262642 -25.926916 -0.9945472 31 3204768030376 1 0
26.479364 -25.33962 -0.6397354 40 3204768028072 1 0
5.4238353 -6.3184195 -1.665428 3 3204768032680 1 0
28.380148 -29.965734 0 42 3204768032680 1 0
28.594286 -36.81707 -0.5427073 40 3204768034984 1 0
7.1821804 -7.5856557 -1.6252066 5 3204768034984 1 0
7.9163465 -9.227465 -1.5475434 4 3204768037288 1 0
28.833702 -27.624777 0.23208134 42 3204768037288 1 0
4.090252 -4.3175144 -1.6648974 0 3204768030376 1 0
28.394283 -33.106735 -0.25349241 28 3204768039592 1 0
0 0 0 17 3204768039592 1 0
10.745328 -13.847802 -1.6361874 36 3204768041896 1 0
28.352285 -29.971222 0.9600233 38 3204768041896 1 0
29.845219 -38.47391 0.5668742 16 3204768044200 1 0
15.191978 -16.06413 -1.5460825 4 3204768044200 1 0
12.695593 -14.815691 -1.592791 3 3204768046504 1 0
28.788605 -27.61371 1.160945 35 3204768046504 1 0
28.36337 -33.10965 0.76099473 40 3204768048808 1 0
16.971355 -16.283476 -1.5073513 6 3204768048808 1 0
10.91982 -14.089591 -1.0381304 93 3204768051112 1 1
27.740583 -29.358786 2.3523047 28 3204768051112 1 0
27.679537 -32.330418 1.7339673 27 3204768053416 1 0
20.981596 -22.211992 -1.4232941 9 3204768053416 1 0
11.958482 -13.97193 -0.96381897 57 3204768055720 1 1
0 0 0 1 3204768055720 1 0
24.393017 -23.431595 -1.3780229 10 3204768058024 1 0
10.96505 -14.164963 -0.6255386 61 3204768060328 1 1
0 0 0 9 3204768060328 1 0
32.292625 -37.74084 4.0548797 50 3204768058024 1 0
0 0 0 29 3204768062632 1 0
24.369457 -25.828611 -0.82630676 46 3204768062632 1 0
0 0 0 4 3204768083368 1 0
26.321634 -25.365292 -0.63806 40 3204768083368 1 0
22.083803 -25.901024 -0.9905909 31 3204768085672 1 0
4.106828 -4.3654327 -1.677837 0 3204768085672 1 0
5.40938 -6.346269 -1.6677815 3 3204768087976 1 0
28.38773 -30.184082 0 49 3204768087976 1 0
28.529099 -36.999012 -0.54391795 46 3204768090280 1 0
7.1502433 -7.604921 -1.6239768 5 3204768090280 1 0
0 0 0 36 3204768092584 1 0
28.768763 -27.755808 0.23233706 30 3204768092584 1 0
28.39525 -33.342686 -0.25453857 21 3204768094888 1 0
8.5895 -9.1410265 -1.3511363 2 3204768094888 1 0
10.701786 -13.891536 -1.636931 28 3204768097192 1 0
28.34606 -30.174932 0.9633732 44 3204768097192 1 0
29.542343 -38.359207 0.5636612 15 3204768099496 1 0
15.144007 -16.12579 -1.5469196 4 3204768099496 1 0
12.65155 -14.869026 -1.5937673 3 3204768101800 1 0
28.740927 -27.761255 1.1629232 30 3204768101800 1 0
28.364231 -33.345543 0.76413614 40 3204768104104 1 0
16.914412 -16.342619 -1.5073513 6 3204768104104 1 0
10.853525 -14.105469 -1.0365025 100 3204768106408 1 1
27.7363 -29.560272 2.3606768 29 3204768106408 1 0
27.67265 -32.551685 1.7406433 27 3204768108712 1 0
20.914867 -22.296755 -1.4240385 9 3204768108712 1 0
0 0 0 1 3204768111016 1 0
32.225224 -37.92929 4.0630164 51 3204768113320 1 0
24.322567 -23.527716 -1.3786741 10 3204768113320 1 0
11.865663 -13.961843 -0.96026015 90 3204768111016 1 1
0 0 0 10 3204768115624 1 0
0 0 0 9 3204768115624 1 0
0 0 0 29 3204768117928 1 0
24.213531 -25.843483 -0.8240735 46 3204768117928 1 0
26.16692 -25.392956 -0.63645434 40 3204768138664 1 0
0 0 0 4 3204768138664 1 0
21.915752 -25.886406 -0.9871 37 3204768140968 1 0
5.3846602 -6.3621187 -1.666997 3 3204768143272 1 0
4.0941944 -4.382556 -1.6789154 0 3204768140968 1 0
28.426897 -30.437927 0 50 3204768143272 1 0
7.1236534 -7.629833 -1.6239768 6 3204768145576 1 0
28.433811 -37.142834 -0.54456985 17 3204768145576 1 0
28.737686 -27.920168 0.23287176 18 3204768147880 1 0
7.828671 -9.25524 -1.5429977 43 3204768147880 1 0
8.5385475 -9.1505995 -1.3481376 3 3204768150184 1 0
10.662909 -13.941462 -1.6384181 28 3204768152488 1 0
28.387856 -30.431599 0.968398 45 3204768152488 1 0
28.389748 -33.572933 -0.25553823 64 3204768150184 1 0
29.459282 -38.52882 0.5646391 24 3204768154792 1 0
15.098511 -16.190226 -1.5480356 4 3204768154792 1 0
12.59957 -14.913097 -1.5937673 3 3204768157096 1 0
28.706902 -27.922743 1.1654831 25 3204768157096 1 0
28.356047 -33.572674 0.76706815 56 3204768159400 1 0
16.87729 -16.421047 -1.509142 4 3204768159400 1 0
10.784829 -14.117883 -1.034642 100 3204768161704 1 1
27.730944 -29.762087 2.3690488 19 3204768161704 1 0
27.677443 -32.78857 1.7481334 27 3204768164008 1 0
20.850527 -22.384243 -1.4249691 9 3204768164008 1 0
11.775636 -13.954332 -0.9569106 72 3204768166312 1 1
0 0 0 1 3204768166312 1 0
24.24888 -23.62084 -1.3791627 10 3204768168616 1 0
10.727675 -14.060014 -0.6175815 2 3204768170920 1 1
0 0 0 9 3204768170920 1 0
32.218594 -38.19086 4.0789638 34 3204768168616 1 0
0 0 0 29 3204768173224 1 0
24.068695 -25.869291 -0.8222124 46 3204768173224 1 0
0 0 0 4 3204768193960 1 0
26.012333 -25.419851 -0.6348487 46 3204768193960 1 0
21.768658 -25.895416 -0.98454005 37 3204768196264 1 0
4.0736322 -4.391173 -1.6767588 0 3204768196264 1 0
5.364943 -6.3838787 -1.6677815 3 3204768198568 1 0
28.418394 -30.642553 0 43 3204768198568 1 0
29.642344 -39.00285 -0.57031995 12 3204768200872 1 0
7.1050386 -7.663348 -1.6258215 6 3204768200872 1 0
7.773349 -9.255165 -1.538452 33 3204768203176 1 0
26.00964 -25.446817 0.21148391 10 3204768203176 1 0
28.32897 -33.73922 -0.25604966 57 3204768205480 1 0
8.476821 -9.14826 -1.3434254 3 3204768205480 1 0
10.623813 -13.991285 -1.6399051 26 3204768207784 1 0
28.39016 -30.647852 0.9721201 39 3204768207784 1 0
29.433437 -38.77478 0.5667345 24 3204768210088 1 0
15.060883 -16.263325 -1.5499889 4 3204768210088 1 0
11.689076 -13.933791 -1.484739 3 3204768212392 1 0
28.669243 -28.081532 1.1679268 30 3204768212392 1 0
28.308073 -33.75419 0.768953 56 3204768214696 1 0
16.819868 -16.47986 -1.509142 4 3204768214696 1 0
10.713765 -14.126807 -1.032549 100 3204768217000 1 1
27.719093 -29.95836 2.3769557 30 3204768217000 1 0
27.660378 -33.00138 1.754321 27 3204768219304 1 0
20.780405 -22.465689 -1.4255275 9 3204768219304 1 0
11.693502 -13.955548 -0.9541892 62 3204768221608 1 1
0 0 0 1 3204768221608 1 0
32.21821 -38.462013 4.0958877 35 3204768223912 1 0
24.177694 -23.716536 -1.379814 10 3204768223912 1 0
10.801634 -14.25989 -0.62470096 2 3204768226216 1 1
0 0 0 29 3204768228520 1 0
0 0 0 9 3204768226216 1 0
23.923973 -25.894405 -0.82035136 46 3204768228520 1 0
0 0 0 4 3204768249256 1 0
25.872133 -25.460003 -0.6335922 40 3204768249256 1 0
21.601269 -25.87916 -0.9810492 43 3204768251560 1 0
4.04262 -4.3883677 -1.6702889 0 3204768251560 1 0
5.3476524 -6.40859 -1.6693504 3 3204768253864 1 0
28.419647 -30.85926 0 44 3204768253864 1 0
13.531622 -17.934263 -0.26155186 14 3204768256168 1 1
7.0835996 -7.693918 -1.6270514 5 3204768256168 1 0
7.7282877 -9.267006 -1.5359267 23 3204768258472 1 0
28.644646 -28.221172 0.23370868 12 3204768258472 1 0
21.582178 -25.886887 -0.19588473 40 3204768260776 1 0
0 0 0 97 3204768260776 1 0
10.584498 -14.041005 -1.6413922 23 3204768263080 1 0
28.380466 -30.852716 0.97547 39 3204768263080 1 0
29.420675 -39.04019 0.56910926 24 3204768265384 1 0
15.006722 -16.318735 -1.5502678 4 3204768265384 1 0
0 0 0 57 3204768267688 1 0
28.305243 -33.991096 0.7720945 56 3204768269992 1 0
9.282672 -9.156089 0.37945694 62 3204768267688 1 0
0 0 0 45 3204768269992 1 0
10.647575 -14.1417885 -1.0309211 100 3204768272296 1 1
27.714314 -30.163734 2.3855603 30 3204768272296 1 0
27.649836 -33.223682 1.7609969 27 3204768274600 1 0
20.709967 -22.546917 -1.4260858 9 3204768274600 1 0
11.61406 -13.959434 -0.951677 77 3204768276904 1 1
0 0 0 1 3204768276904 1 0
32.208675 -38.72443 4.111835 52 3204768279208 1 0
9.2694025 -9.156309 -0.53082293 3 3204768279208 1 0
10.847897 -14.425307 -0.6302849 2 3204768281512 1 1
0 0 0 9 3204768281512 1 0
0 0 0 29 3204768283816 1 0
23.784777 -25.924719 -0.8186764 46 3204768283816 1 0
0 0 0 4 3204768304552 1 0
21.49039 -25.929777 -0.9801183 50 3204768306856 1 0
4.0324774 -4.408137 -1.6724455 0 3204768306856 1 0
9.246805 -9.163262 -0.22723033 12 3204768304552 1 0
5.322747 -6.4241977 -1.6685659 4 3204768309160 1 0
28.422434 -31.079298 0 51 3204768309160 1 0
13.56725 -18.11264 -0.263461 5 3204768311464 1 1
7.0647 -7.727349 -1.6288961 5 3204768311464 1 0
0 0 0 22 3204768313768 1 0
0 0 0 173 3204768313768 1 0
28.314642 -34.204235 -0.25807223 36 3204768316072 1 0
8.396651 -9.1896 -1.340855 67 3204768316072 1 0
0 0 0 84 3204768318376 1 0
28.380478 -31.069698 0.9791921 39 3204768318376 1 0
29.416002 -39.318794 0.5716703 24 3204768320680 1 0
14.949668 -16.37102 -1.5502678 4 3204768320680 1 0
11.568648 -13.987407 -1.4818097 13 3204768322984 1 0
0 0 0 252 3204768322984 1 0
28.301102 -34.228397 0.7752359 57 3204768325288 1 0
9.220131 -9.160781 -0.832983 16 3204768325288 1 0
10.574239 -14.146884 -1.0285956 100 3204768327592 1 1
27.703054 -30.36354 2.3937 30 3204768327592 1 0
27.648258 -33.458637 1.7683243 28 3204768329896 1 0
20.649986 -22.639736 -1.4273888 9 3204768329896 1 0
11.539822 -13.969092 -0.9495836 92 3204768332200 1 1
0 0 0 1 3204768332200 1 0
32.21293 -39.00569 4.129735 17 3204768334504 1 0
0 0 0 29 3204768334504 1 0
10.701818 -14.334951 -0.62470096 2 3204768336808 1 1
0 0 0 9 3204768336808 1 0
0 0 0 29 3204768339112 1 0
23.651049 -25.960287 -0.8171876 46 3204768339112 1 0
0 0 0 4 3204768359296 1 0
9.20098 -9.175323 -0.22681147 34 3204768359296 1 0
21.327301 -25.898552 -0.9763947 18 3204768361600 1 0
4.015986 -4.417962 -1.6713673 0 3204768361600 1 0
5.307431 -6.447021 -1.6701349 3 3204768363904 1 0
28.445255 -31.302061 0 26 3204768363904 1 0
13.600619 -18.277403 -0.26523045 54 3204768366208 1 1
7.058824 -7.7701373 -1.6332004 14 3204768366208 1 0
7.641176 -9.287638 -1.5308759 3 3204768368512 1 0
0 0 0 252 3204768368512 1 0
28.332842 -34.44851 -0.2592346 14 3204768370816 1 0
8.332652 -9.177959 -1.335286 60 3204768370816 1 0
10.509537 -14.136922 -1.6443665 2 3204768373120 1 0
28.418436 -31.310955 0.9839378 46 3204768373120 1 0
29.419159 -39.58586 0.5741848 24 3204768375424 1 0
14.894647 -16.415707 -1.5499889 4 3204768375424 1 0
9.170307 -9.167107 0.3773624 246 3204768377728 1 0
11.493461 -13.98739 -1.4779043 13 3204768377728 1 0
28.305422 -34.45805 0.77837735 66 3204768380032 1 0
9.199172 -9.1987705 -0.8337505 28 3204768380032 1 0
10.509668 -14.15515 -1.0267351 100 3204768382336 1 1
27.712591 -30.570772 2.403002 20 3204768382336 1 0
27.651907 -33.683456 1.7754887 28 3204768384640 1 0
20.649387 -22.786085 -1.432414 9 3204768384640 1 0
11.466782 -13.972314 -0.9472808 67 3204768386944 1 1
31.893559 -35.20455 5.832667 11 3204768386944 1 0
32.200325 -39.248432 4.1443806 54 3204768389248 1 0
9.185006 -9.195833 -0.52952033 23 3204768389248 1 0
10.640982 -14.35032 -0.6238634 2 3204768391552 1 1
0 0 0 9 3204768391552 1 0
23.510181 -25.97477 -0.81523347 46 3204768393856 1 0
0 0 0 4 3204768414592 1 0
9.161646 -9.203315 -0.22667186 29 3204768414592 1 0
0 0 0 29 3204768393856 1 0
20.162073 -24.666891 -0.9271735 16 3204768416896 1 0
4.0075397 -4.441202 -1.6746022 0 3204768416896 1 0
5.2838597 -6.466354 -1.6701349 3 3204768419200 1 0
23.400904 -25.940737 0 34 3204768419200 1 0
13.522058 -18.310747 -0.26499763 13 3204768421504 1 1
7.0251737 -7.789933 -1.6319706 36 3204768421504 1 0
7.589786 -9.293847 -1.5273404 3 3204768423808 1 0
9.143429 -9.195708 0.075368896 241 3204768423808 1 0
20.14579 -24.676256 -0.18514432 68 3204768426112 1 0
10.47955 -14.203733 -1.6477125 2 3204768428416 1 0
8.280654 -9.187457 -1.3322873 62 3204768426112 1 0
28.398546 -31.517649 0.9871946 46 3204768428416 1 0
29.39935 -39.859314 0.57660615 24 3204768430720 1 0
14.867266 -16.50501 -1.5533372 4 3204768430720 1 0
11.405134 -13.982415 -1.4730225 13 3204768433024 1 0
9.142817 -9.205798 0.37759513 220 3204768433024 1 0
28.294933 -34.6992 0.78151876 50 3204768435328 1 0
9.165999 -9.231826 -0.8337505 12 3204768435328 1 0
10.446904 -14.176742 -1.0255723 100 3204768437632 1 1
27.701427 -30.779953 2.4116066 20 3204768437632 1 0
27.619337 -33.890812 1.7811878 18 3204768439936 1 0
11.39401 -13.98538 -0.9453967 85 3204768442240 1 1
20.572906 -22.865911 -1.4327863 9 3204768439936 1 0
31.743502 -35.291874 5.8282795 11 3204768442240 1 0
32.25132 -39.598087 4.1691155 55 3204768444544 1 0
10.561343 -14.349512 -0.6221882 2 3204768446848 1 1
9.149298 -9.225733 -0.5293575 15 3204768444544 1 0
0 0 0 9 3204768446848 1 0
0 0 0 29 3204768449152 1 0
23.364204 -25.998724 -0.81337243 40 3204768449152 1 0
0 0 0 4 3204768469888 1 0
9.146335 -9.252304 -0.22709072 13 3204768469888 1 0
20.068108 -24.727953 -0.9268244 45 3204768472192 1 0
3.98941 -4.452324 -1.6735239 0 3204768472192 1 0
5.268575 -6.493973 -1.6724882 3 3204768474496 1 0
28.460735 -31.772959 0 26 3204768474496 1 0
13.445835 -18.342001 -0.2647648 1 3204768476800 1 1
6.9819484 -7.7968946 -1.6282811 56 3204768476800 1 0
7.547031 -9.308175 -1.5253202 3 3204768479104 1 0
9.119436 -9.236373 0.07543864 149 3204768479104 1 0
0 0 0 19 3204768481408 1 0
0 0 0 17 3204768481408 1 0
10.433991 -14.247108 -1.648456 2 3204768483712 1 0
28.398962 -31.742992 0.9911028 33 3204768483712 1 0
29.387953 -40.140682 0.5791672 25 3204768486016 1 0
14.814039 -16.563509 -1.5538952 4 3204768486016 1 0
11.337878 -14.001114 -1.4707443 4 3204768488320 1 0
0 0 0 54 3204768488320 1 0
29.590624 -36.552788 0.8208914 53 3204768490624 1 0
0 0 0 9 3204768490624 1 0
10.375104 -14.18487 -1.0234793 99 3204768492928 1 1
27.692678 -30.99162 2.4204438 21 3204768492928 1 0
27.623838 -34.144573 1.7893292 19 3204768495232 1 0
20.517748 -22.969023 -1.4346476 9 3204768495232 1 0
11.321291 -13.998105 -0.9435126 100 3204768497536 1 1
31.595871 -35.38153 5.8243794 33 3204768497536 1 0
32.234474 -39.86847 4.1853886 56 3204768499840 1 0
0 0 0 3 3204768499840 1 0
10.448417 -14.3034315 -0.6185587 2 3204768502144 1 1
0 0 0 9 3204768502144 1 0
21.788763 -26.965773 6.3209586 6 3204768504448 1 0
23.222546 -26.02895 -0.8116975 40 3204768504448 1 0
9.162784 -9.337147 -0.22834729 5 3204768525184 1 0
19.99257 -24.819878 -0.9275226 45 3204768527488 1 0
0 0 0 4 3204768525184 1 0
3.980777 -4.4755216 -1.6767588 1 3204768527488 1 0
5.239913 -6.5070534 -1.6709193 3 3204768529792 1 0
28.432266 -31.97529 0 59 3204768529792 1 0
19.042488 -26.176096 -0.37684515 3 3204768532096 1 0
6.956121 -7.8252344 -1.6288961 46 3204768532096 1 0
7.5006967 -9.320099 -1.5227947 30 3204768534400 1 0
0 0 0 3 3204768534400 1 0
28.925024 -35.951912 -0.26818496 23 3204768536704 1 0
8.193567 -9.222692 -1.3288602 2 3204768536704 1 0
10.379985 -14.281581 -1.6480842 2 3204768539008 1 0
28.38207 -31.956259 0.99454576 33 3204768539008 1 0
29.376692 -40.431076 0.5818213 25 3204768541312 1 0
14.759376 -16.622911 -1.5544533 4 3204768541312 1 0
11.254832 -14.001524 -1.4665133 3 3204768543616 1 0
0 0 0 20 3204768543616 1 0
29.571587 -36.79936 0.82403284 53 3204768545920 1 0
16.521309 -16.879845 -1.5137471 4 3204768545920 1 0
10.307657 -14.1994295 -1.0218514 100 3204768548224 1 1
27.687162 -31.210394 2.429746 21 3204768548224 1 0
27.623873 -34.39608 1.7973078 28 3204768550528 1 0
20.432617 -23.039446 -1.4344615 9 3204768550528 1 0
11.25863 -14.022948 -0.9424659 100 3204768552832 1 1
31.532288 -35.56565 5.836079 22 3204768552832 1 0
32.224174 -40.148094 4.2026377 38 3204768555136 1 0
23.720413 -24.2634 -1.3824192 11 3204768555136 1 0
10.369224 -14.301736 -0.6168835 2 3204768557440 1 1
0 0 0 9 3204768557440 1 0
21.650873 -26.990902 6.3087616 18 3204768559744 1 0
23.055592 -26.027552 -0.80909204 40 3204768559744 1 0
0 0 0 4 3204768580480 1 0
24.992733 -25.646801 -0.6250754 33 3204768580480 1 0
19.920794 -24.908249 -0.92822075 45 3204768582784 1 0
3.9625804 -4.4865026 -1.6756804 1 3204768582784 1 0
5.2196164 -6.528368 -1.6717038 4 3204768585088 1 0
13.434066 -18.602829 -0.26713958 3 3204768587392 1 1
0 0 0 9 3204768587392 1 0
7.470595 -9.349324 -1.5232998 47 3204768589696 1 0
0 0 0 10 3204768589696 1 0
28.789366 -36.040157 -0.26809195 23 3204768592000 1 0
28.418436 -32.185284 0 47 3204768585088 1 0
8.142908 -9.23036 -1.3258615 2 3204768592000 1 0
10.341721 -14.333876 -1.6499431 2 3204768594304 1 0
28.386732 -32.1871 0.99864006 40 3204768594304 1 0
29.364069 -40.711792 0.58438236 25 3204768596608 1 0
14.711817 -16.686302 -1.5555694 4 3204768596608 1 0
11.208376 -14.043841 -1.4668387 3 3204768598912 1 0
28.41496 -29.226547 1.186312 36 3204768598912 1 0
29.555197 -37.04304 0.82717425 44 3204768601216 1 0
16.44003 -16.91451 -1.5117004 4 3204768601216 1 0
27.680992 -31.42371 2.4388156 21 3204768603520 1 0
10.239352 -14.209406 -1.019991 100 3204768603520 1 1
27.608294 -34.623543 1.8041466 28 3204768605824 1 0
20.365274 -23.125622 -1.4353921 9 3204768605824 1 0
11.189693 -14.037174 -0.94079113 97 3204768608128 1 1
31.518133 -35.80066 5.856553 33 3204768608128 1 0
32.203094 -40.40999 4.21826 38 3204768610432 1 0
23.641142 -24.351786 -1.3827449 11 3204768610432 1 0
10.281875 -14.285931 -0.61464995 2 3204768612736 1 1
0 0 0 9 3204768612736 1 0
21.475624 -26.964733 6.2850847 18 3204768615040 1 0
22.890648 -26.023798 -0.80648655 40 3204768615040 1 0
0 0 0 4 3204768635776 1 0
24.847433 -25.676405 -0.6236792 33 3204768635776 1 0
3.9418812 -4.494458 -1.6735239 1 3204768638080 1 0
19.86144 -25.011787 -0.92950076 45 3204768638080 1 0
5.1969867 -6.5463967 -1.6717038 4 3204768640384 1 0
29.536278 -41.19884 -0.5901564 6 3204768642688 1 0
28.422888 -32.4158 0 47 3204768640384 1 0
6.9120865 -7.885194 -1.6313556 4 3204768642688 1 0
7.418729 -9.350045 -1.5192592 49 3204768644992 1 0
28.434788 -29.41425 0.23777701 26 3204768644992 1 0
8.092966 -9.237199 -1.3228627 3 3204768647296 1 0
28.618784 -36.078804 -0.26765025 23 3204768647296 1 0
10.297516 -14.375465 -1.6506866 2 3204768649600 1 0
28.392954 -32.415882 1.0027344 33 3204768649600 1 0
29.356346 -40.99317 0.58699 25 3204768651904 1 0
14.699873 -16.787096 -1.5603127 6 3204768651904 1 0
11.215404 -14.150318 -1.4739988 1 3204768654208 1 0
28.410612 -29.420052 1.1902683 26 3204768654208 1 0
29.574635 -37.32394 0.8312232 54 3204768656512 1 0
16.385881 -16.972523 -1.5119562 4 3204768656512 1 0
10.173172 -14.217599 -1.0181305 100 3204768658816 1 1
27.67301 -31.627327 2.4474201 21 3204768658816 1 0
27.60696 -34.85943 1.8116368 28 3204768661120 1 0
20.29866 -23.205353 -1.4361366 14 3204768661120 1 0
11.118287 -14.042886 -0.9386977 92 3204768663424 1 1
31.558668 -36.087284 5.886289 34 3204768663424 1 0
31.9928 -40.419186 4.2081704 19 3204768665728 1 0
23.543966 -24.412445 -1.381768 16 3204768665728 1 0
10.232536 -14.316398 -0.61451036 2 3204768668032 1 1
0 0 0 9 3204768668032 1 0
21.262753 -26.877474 6.2484937 18 3204768670336 1 0
22.723791 -26.005219 -0.8036019 40 3204768670336 1 0
0 0 0 4 3204768691072 1 0
24.716745 -25.70245 -0.62242264 33 3204768691072 1 0
19.806984 -25.105883 -0.93066436 45 3204768693376 1 0
3.9301744 -4.5098095 -1.6746022 1 3204768693376 1 0
5.176109 -6.562917 -1.6717038 3 3204768695680 1 0
28.427221 -32.62982 0 41 3204768695680 1 0
0 0 0 35 3204768697984 1 0
6.8919544 -7.9132814 -1.6325855 4 3204768697984 1 0
7.3688498 -9.349019 -1.5152187 43 3204768700288 1 0
28.42279 -29.592451 0.23847444 26 3204768700288 1 0
28.568193 -36.256474 -0.26827794 23 3204768702592 1 0
0 0 0 97 3204768702592 1 0
10.252726 -14.412332 -1.6510584 2 3204768704896 1 0
28.394346 -32.632313 1.0065496 34 3204768704896 1 0
29.355589 -41.278713 0.5896907 25 3204768707200 1 0
0 0 0 64 3204768707200 1 0
12.1844015 -15.478053 -1.6080874 3 3204768709504 1 0
28.41254 -29.617973 1.1944573 48 3204768709504 1 0
29.578499 -37.58588 0.8348533 45 3204768711808 1 0
16.403736 -17.104912 -1.5188637 4 3204768711808 1 0
27.684467 -31.855757 2.4578853 22 3204768714112 1 0
27.602575 -35.097095 1.819127 28 3204768716416 1 0
10.109158 -14.228911 -1.0165026 99 3204768714112 1 1
20.222694 -23.276878 -1.4363227 9 3204768716416 1 0
11.048209 -14.052382 -0.9368136 95 3204768718720 1 1
31.524181 -36.296394 5.9028635 34 3204768718720 1 0
31.925613 -40.619427 4.217609 19 3204768721024 1 0
23.493385 -24.52758 -1.3837218 11 3204768721024 1 0
10.150741 -14.305941 -0.612556 2 3204768723328 1 1
21.108624 -26.873703 6.230557 24 3204768725632 1 0
0 0 0 9 3204768723328 1 0
22.554823 -25.993277 -0.80081034 40 3204768725632 1 0
0 0 0 4 3204768746368 1 0
24.564383 -25.732119 -0.6209566 33 3204768746368 1 0
19.73985 -25.209503 -0.93182796 45 3204768748672 1 0
5.157047 -6.5878716 -1.6732727 3 3204768750976 1 0
3.9212446 -4.5328665 -1.677837 1 3204768748672 1 0
28.384268 -32.82071 0 61 3204768750976 1 0
13.796174 -19.523846 -0.278315 8 3204768753280 1 1
6.865836 -7.9411793 -1.6332004 5 3204768753280 1 0
7.322855 -9.359912 -1.5126933 11 3204768755584 1 0
28.409718 -29.793203 0.23926486 26 3204768755584 1 0
28.464867 -36.393528 -0.26853365 24 3204768757888 1 0
8.000962 -9.259262 -1.3181505 64 3204768757888 1 0
