# .PCD v.7 - Point Cloud Data file format
VERSION .7
FIELDS x y z rgb timestamp_ns device_id active
SIZE 4 4 4 4 8 1 1
TYPE F F F F F U U
COUNT 1 1 1 1 1 1 1
WIDTH 1033
HEIGHT 1
VIEWPOINT 0 0 0 1 0 0 0
POINTS 1033               
DATA ascii
16.2622 -8.152972 -1.4850644 3 3203761825024 1 0
83.41559 -32.064796 2.60081 74 3203761825024 1 0
42.64591 -21.388073 0.832759 27 3203761827328 1 0
20.38386 -7.838921 -1.3996468 5 3203761827328 1 0
55.421947 -24.494078 3.528806 56 3203761829632 1 0
42.75014 -21.455915 1.9487389 20 3203761831936 1 0
21.233475 -11.985615 -1.4199874 6 3203761829632 1 0
25.935411 -11.466827 -1.3209256 4 3203761831936 1 0
24.61405 -12.358054 -1.4434257 4 3203761834240 1 0
0 0 0 1 3203761834240 1 0
43.164787 -21.679743 3.9432478 15 3203761836544 1 0
29.313992 -11.292718 -1.2798369 4 3203761836544 1 0
31.035563 -17.542395 -1.2449348 6 3203761838848 1 0
41.052734 -20.633911 8.377243 27 3203761841152 1 0
41.175285 -18.23348 -1.0478649 7 3203761841152 1 0
0 0 0 9 3203761838848 1 0
0 0 0 8 3203761861888 1 0
48.922947 -18.936678 -0.91569287 9 3203761861888 1 0
38.297115 -19.318705 -1.248333 9 3203761864192 1 0
0 0 0 1 3203761864192 1 0
56.12744 -24.962164 0 13 3203761866496 1 0
7.3256164 -3.6966913 -1.6411095 2 3203761866496 1 0
45.857395 -26.034748 -0.6139042 14 3203761868800 1 0
9.345698 -4.158042 -1.5913866 4 3203761868800 1 0
11.206808 -5.65933 -1.5980506 3 3203761871104 1 0
41.910934 -21.172268 -0.27290422 24 3203761873408 1 0
0 0 0 1 3203761871104 1 0
12.803108 -5.700757 -1.50964 3 3203761873408 1 0
14.331624 -8.144804 -1.538782 3 3203761875712 1 0
75.706535 -33.722557 1.9285144 28 3203761875712 1 0
51.228287 -29.123404 0.6860323 10 3203761878016 1 0
18.77781 -8.3676195 -1.4375414 5 3203761878016 1 0
16.230083 -8.207889 -1.484739 4 3203761880320 1 0
83.28824 -32.349983 2.6003447 37 3203761880320 1 0
41.903645 -21.199192 0.81970465 26 3203761882624 1 0
20.367537 -7.9143634 -1.4004142 5 3203761882624 1 0
21.274801 -12.107061 -1.4255688 6 3203761884928 1 0
55.41269 -24.721554 3.5336897 56 3203761884928 1 0
42.57871 -21.556269 1.9443425 20 3203761887232 1 0
25.884281 -11.552403 -1.3203672 4 3203761887232 1 0
24.585016 -12.451117 -1.4442631 4 3203761889536 1 0
0 0 0 1 3203761889536 1 0
55.3654 -28.050005 5.0667286 57 3203761891840 1 0
29.281843 -11.397874 -1.2801626 4 3203761891840 1 0
30.981085 -17.654581 -1.245214 6 3203761894144 1 0
0 0 0 9 3203761894144 1 0
41.033108 -20.803778 8.388005 18 3203761896448 1 0
41.016468 -18.334667 -1.0454456 7 3203761896448 1 0
0 0 0 4 3203761917184 1 0
48.878895 -19.116076 -0.9161117 9 3203761917184 1 0
38.25097 -19.46287 -1.2490312 9 3203761919488 1 0
0 0 0 1 3203761919488 1 0
7.312722 -3.7221336 -1.6411095 2 3203761921792 1 0
56.058575 -25.165308 0 13 3203761921792 1 0
44.860775 -25.675116 -0.60175085 13 3203761924096 1 0
9.338429 -4.1936736 -1.5926164 3 3203761924096 1 0
11.197759 -5.7034917 -1.5995659 3 3203761926400 1 0
41.819733 -21.307835 -0.272788 24 3203761928704 1 0
12.779712 -5.7433186 -1.5092117 3 3203761928704 1 0
14.313831 -8.200097 -1.5398973 3 3203761931008 1 0
0 0 0 1 3203761926400 1 0
75.60444 -33.989876 1.9288865 28 3203761931008 1 0
45.964012 -26.340265 0.6167446 27 3203761933312 1 0
18.756193 -8.435434 -1.4380995 5 3203761933312 1 0
16.205366 -8.265361 -1.4850644 3 3203761935616 1 0
0 0 0 251 3203761935616 1 0
41.777348 -21.315332 0.81865746 26 3203761937920 1 0
20.34774 -7.986997 -1.400926 5 3203761937920 1 0
21.247152 -12.1876545 -1.426499 6 3203761940224 1 0
55.41526 -24.950151 3.539271 56 3203761940224 1 0
42.5085 -21.703182 1.9445053 30 3203761942528 1 0
25.8593 -11.647182 -1.3211117 4 3203761942528 1 0
24.546055 -12.536534 -1.4444724 4 3203761944832 1 0
55.40828 -28.30861 5.0794215 57 3203761947136 1 0
29.242966 -11.497252 -1.2801626 4 3203761947136 1 0
0 0 0 1 3203761944832 1 0
30.92801 -17.76345 -1.2454933 6 3203761949440 1 0
0 0 0 9 3203761949440 1 0
38.870773 -19.872992 7.9596725 17 3203761951744 1 0
41.06359 -18.52259 -1.0482371 7 3203761951744 1 0
0 0 0 4 3203761972480 1 0
48.856155 -19.294218 -0.91687965 9 3203761972480 1 0
38.16473 -19.578936 -1.248333 9 3203761974784 1 0
0 0 0 1 3203761974784 1 0
7.3002844 -3.7464693 -1.6411095 2 3203761977088 1 0
56.12384 -25.419542 0 13 3203761977088 1 0
44.82333 -25.852692 -0.60240275 6 3203761979392 1 0
9.32078 -4.2231903 -1.5920014 3 3203761979392 1 0
11.171557 -5.7372932 -1.5985557 3 3203761981696 1 0
0 0 0 116 3203761981696 1 0
41.826336 -21.488127 -0.27329943 24 3203761984000 1 0
12.76763 -5.789415 -1.5100684 3 3203761984000 1 0
14.296547 -8.254115 -1.5410126 3 3203761986304 1 0
75.65369 -34.318035 1.9330739 28 3203761986304 1 0
45.62915 -26.352852 0.61343855 27 3203761988608 1 0
18.734951 -8.501837 -1.4386575 5 3203761988608 1 0
16.18093 -8.321819 -1.4853898 3 3203761990912 1 0
0 0 0 223 3203761990912 1 0
41.81172 -21.511374 0.8207518 26 3203761993216 1 0
20.328035 -8.058701 -1.4014376 5 3203761993216 1 0
21.209185 -12.261586 -1.4267316 6 3203761995520 1 0
55.39583 -25.167532 3.543457 56 3203761995520 1 0
51.463707 -26.49608 2.3582542 25 3203761997824 1 0
25.819597 -11.734937 -1.3211117 4 3203761997824 1 0
24.499695 -12.618172 -1.4442631 4 3203762000128 1 0
0 0 0 1 3203762000128 1 0
55.350388 -28.51751 5.083001 28 3203762002432 1 0
29.177582 -11.586598 -1.2790228 4 3203762002432 1 0
30.898252 -17.887083 -1.2467496 6 3203762004736 1 0
0 0 0 9 3203762004736 1 0
38.82696 -20.018639 7.964695 17 3203762007040 1 0
41.156406 -18.734373 -1.0522383 7 3203762007040 1 0
0 0 0 8 3203762027776 1 0
48.825653 -19.47946 -0.91757774 9 3203762027776 1 0
37.939907 -19.63119 -1.243213 9 3203762030080 1 0
0 0 0 1 3203762030080 1 0
7.2871623 -3.7719293 -1.6411095 2 3203762032384 1 0
33.8513 -19.682158 -0.45586482 8 3203762034688 1 1
56.074783 -25.63359 0 13 3203762032384 1 0
9.305981 -4.2557 -1.5920014 4 3203762034688 1 0
11.151463 -5.776254 -1.5985557 3 3203762036992 1 0
0 0 0 110 3203762036992 1 0
41.832756 -21.676323 -0.27383414 24 3203762039296 1 0
12.747343 -5.8339467 -1.5100684 3 3203762039296 1 0
14.267648 -8.303969 -1.5410126 3 3203762041600 1 0
75.587975 -34.606876 1.9344697 28 3203762041600 1 0
45.384792 -26.423418 0.6113897 45 3203762043904 1 0
18.77409 -8.598752 -1.443959 5 3203762043904 1 0
16.169477 -8.387429 -1.4870172 3 3203762046208 1 0
50.77562 -20.325933 1.5917177 218 3203762046208 1 0
41.821575 -21.701403 0.8224272 26 3203762048512 1 0
20.314606 -8.135546 -1.4024609 5 3203762048512 1 0
21.176605 -12.341578 -1.4274292 6 3203762050816 1 0
55.394756 -25.400692 3.5490384 56 3203762050816 1 0
51.505688 -26.74555 2.3644416 25 3203762053120 1 0
25.793005 -11.8316555 -1.3218561 4 3203762053120 1 0
24.451956 -12.701774 -1.4440536 4 3203762055424 1 0
0 0 0 1 3203762055424 1 0
41.98798 -21.818764 3.8628597 15 3203762057728 1 0
29.144377 -11.691352 -1.2793484 4 3203762057728 1 0
30.818365 -17.984755 -1.2460517 6 3203762060032 1 0
0 0 0 9 3203762060032 1 0
40.60025 -21.112642 8.343522 18 3203762062336 1 0
41.090763 -18.87792 -1.0522383 7 3203762062336 1 0
0 0 0 8 3203762083072 1 0
38.24334 -19.957735 -1.255431 9 3203762085376 1 0
48.89461 -19.70509 -0.92016065 9 3203762083072 1 0
0 0 0 1 3203762085376 1 0
7.2739515 -3.797343 -1.6411095 2 3203762087680 1 0
56.024918 -25.847605 0 13 3203762087680 1 0
0 0 0 23 3203762089984 1 0
9.28748 -4.286502 -1.5913866 5 3203762089984 1 0
11.134748 -5.8169823 -1.5990608 3 3203762092288 1 0
0 0 0 3 3203762092288 1 0
41.863186 -21.877794 -0.27453154 25 3203762094592 1 0
12.72329 -5.87674 -1.50964 4 3203762094592 1 0
14.245445 -8.357753 -1.5417562 3 3203762096896 1 0
75.63007 -34.946 1.938657 28 3203762096896 1 0
45.364723 -26.624195 0.6123675 27 3203762099200 1 0
18.718605 -8.652514 -1.4420059 3 3203762099200 1 0
16.143633 -8.445668 -1.4873426 3 3203762101504 1 0
50.79332 -20.539022 1.5945103 188 3203762101504 1 0
41.82707 -21.889906 0.82403284 26 3203762103808 1 0
20.282383 -8.20491 -1.4022051 5 3203762103808 1 0
21.12651 -12.411377 -1.4269642 6 3203762106112 1 0
55.385483 -25.630798 3.5541546 56 3203762106112 1 0
51.496986 -26.969677 2.3683496 25 3203762108416 1 0
25.784182 -11.936726 -1.3235313 4 3203762108416 1 0
24.418083 -12.792611 -1.4446818 4 3203762110720 1 0
0 0 0 1 3203762110720 1 0
29.10339 -11.793014 -1.2793484 4 3203762113024 1 0
42.402397 -22.222435 3.9080985 15 3203762113024 1 0
30.779518 -18.10641 -1.2470288 6 3203762115328 1 0
0 0 0 9 3203762115328 1 0
40.68661 -21.338308 8.376526 18 3203762117632 1 0
40.850475 -18.940498 -1.0477718 7 3203762117632 1 0
0 0 0 8 3203762138368 1 0
48.729218 -19.836437 -0.91834563 18 3203762138368 1 0
38.12037 -20.063175 -1.2536857 9 3203762140672 1 0
0 0 0 1 3203762140672 1 0
7.260652 -3.8227108 -1.6411095 2 3203762142976 1 0
33.38248 -19.722689 -0.45139465 53 3203762145280 1 1
9.276044 -4.320564 -1.5920014 3 3203762145280 1 0
56.054016 -26.098726 0 13 3203762142976 1 0
0 0 0 1 3203762147584 1 0
41.875027 -22.070415 -0.27511275 25 3203762149888 1 0
11.114375 -5.8558145 -1.5990608 3 3203762147584 1 0
12.699095 -5.919437 -1.5092117 3 3203762149888 1 0
14.216184 -8.407428 -1.5417562 3 3203762152192 1 0
75.56924 -35.238514 1.940239 28 3203762152192 1 0
45.17168 -26.723326 0.61101717 27 3203762154496 1 0
18.70637 -8.726236 -1.443401 5 3203762154496 1 0
16.121107 -8.505689 -1.4879935 3 3203762156800 1 0
0 0 0 6 3203762156800 1 0
41.83529 -22.08058 0.82570827 17 3203762159104 1 0
20.272095 -8.283209 -1.4034842 5 3203762159104 1 0
21.093365 -12.491151 -1.4276618 3 3203762161408 1 0
55.37166 -25.859457 3.5590384 56 3203762161408 1 0
51.501484 -27.201536 2.3729088 25 3203762163712 1 0
25.727877 -12.019892 -1.3227868 4 3203762163712 1 0
24.41213 -12.898294 -1.4469845 4 3203762166016 1 0
0 0 0 1 3203762166016 1 0
45.53204 -24.065598 4.204265 19 3203762168320 1 0
29.08424 -11.903615 -1.2803254 4 3203762168320 1 0
30.70925 -18.209661 -1.2467496 6 3203762170624 1 0
0 0 0 9 3203762170624 1 0
40.950726 -19.160936 -1.0520523 7 3203762172928 1 0
40.831028 -21.596111 8.421727 9 3203762172928 1 0
0 0 0 8 3203762193664 1 0
48.47843 -19.931892 -0.914925 18 3203762193664 1 0
38.050102 -20.196117 -1.2536857 9 3203762195968 1 0
0 0 0 1 3203762195968 1 0
7.2437997 -3.8461926 -1.6403251 1 3203762198272 1 0
56.12911 -26.372478 0 27 3203762198272 1 0
33.27563 -19.816584 -0.45088243 70 3203762200576 1 1
9.260906 -4.352917 -1.5920014 4 3203762200576 1 0
11.097371 -5.8964367 -1.5995659 3 3203762202880 1 0
58.511295 -24.096706 0.36777788 19 3203762202880 1 0
49.69176 -26.412308 -0.32707125 10 3203762205184 1 0
12.685553 -5.9671144 -1.5100684 3 3203762205184 1 0
14.197013 -8.463119 -1.5428715 3 3203762207488 1 0
0 0 0 92 3203762207488 1 0
44.88918 -26.768171 0.60845613 18 3203762209792 1 0
18.683016 -8.794879 -1.443959 5 3203762209792 1 0
16.098356 -8.565656 -1.4886444 3 3203762212096 1 0
0 0 0 6 3203762212096 1 0
49.57787 -26.388775 0.98033655 37 3203762214400 1 0
20.261507 -8.361535 -1.4047633 5 3203762214400 1 0
21.042776 -12.560611 -1.4271967 3 3203762216704 1 0
51.476772 -27.418722 2.3761654 25 3203762219008 1 0
25.685762 -12.109626 -1.3227868 4 3203762219008 1 0
24.338757 -12.968403 -1.4453098 4 3203762221312 1 0
0 0 0 1 3203762221312 1 0
55.367744 -26.09344 3.5646195 56 3203762216704 1 0
45.609596 -24.310648 4.219236 19 3203762223616 1 0
29.053593 -12.009645 -1.2808139 4 3203762223616 1 0
30.65236 -18.320848 -1.2470288 6 3203762225920 1 0
40.49274 -19.112017 11.997816 9 3203762225920 1 0
40.74498 -21.73295 8.419575 18 3203762228224 1 0
40.908905 -19.315716 -1.0527036 7 3203762228224 1 0
0 0 0 8 3203762248960 1 0
37.979374 -20.328815 -1.2536857 9 3203762251264 1 0
48.194332 -20.012037 -0.910876 18 3203762248960 1 0
7.2337875 -3.8733063 -1.6411095 2 3203762253568 1 0
0 0 0 115 3203762253568 1 0
0 0 0 1 3203762251264 1 0
33.141098 -19.893503 -0.44999772 41 3203762255872 1 1
9.245655 -4.385217 -1.5920014 5 3203762255872 1 0
11.083716 -5.938886 -1.600576 3 3203762258176 1 0
58.43421 -24.303875 0.3678244 19 3203762258176 1 0
44.212406 -23.698206 -0.29154885 9 3203762260480 1 0
12.664646 -6.0113587 -1.5100684 4 3203762260480 1 0
14.170798 -8.514675 -1.5432433 3 3203762262784 1 0
0 0 0 232 3203762262784 1 0
42.5089 -25.55034 0.5773977 16 3203762265088 1 0
18.655806 -8.861753 -1.4442381 5 3203762265088 1 0
16.064846 -8.619912 -1.4883189 3 3203762267392 1 0
49.580597 -26.612743 0.9822214 37 3203762269696 1 0
20.24325 -8.436817 -1.4055309 5 3203762269696 1 0
77.13098 -32.13286 2.431736 41 3203762267392 1 0
55.35927 -26.325993 3.5699685 56 3203762272000 1 0
45.5149 -24.447508 2.104892 13 3203762274304 1 0
25.639727 -12.197495 -1.3226006 4 3203762274304 1 0
24.296858 -13.055173 -1.4455191 4 3203762276608 1 0
21.012491 -12.642222 -1.4281269 6 3203762272000 1 0
0 0 0 1 3203762276608 1 0
51.322117 -27.585989 4.756567 26 3203762278912 1 0
29.007805 -12.109449 -1.2806511 4 3203762278912 1 0
30.608768 -18.440111 -1.2478664 6 3203762281216 1 0
40.408337 -19.24494 11.99264 9 3203762281216 1 0
40.842148 -21.968248 8.455448 18 3203762283520 1 0
40.704044 -19.393038 -1.0491676 7 3203762283520 1 0
0 0 0 8 3203762304256 1 0
47.90289 -20.087349 -0.90668744 18 3203762304256 1 0
37.91522 -20.465061 -1.2539184 9 3203762306560 1 0
0 0 0 1 3203762306560 1 0
7.2236743 -3.9003968 -1.641894 2 3203762308864 1 0
0 0 0 110 3203762308864 1 0
32.90035 -19.905542 -0.4476695 4 3203762311168 1 1
9.230291 -4.417464 -1.5920014 5 3203762311168 1 0
11.062918 -5.977539 -1.600576 3 3203762313472 1 0
55.490944 -23.307253 0.34980747 14 3203762313472 1 0
49.71729 -26.872692 -0.32846612 10 3203762315776 1 0
12.650759 -6.0589657 -1.5109252 4 3203762315776 1 0
14.127364 -8.555836 -1.5417562 3 3203762318080 1 0
43.380833 -20.78461 1.1193292 221 3203762318080 1 0
44.256493 -26.811481 0.60240275 8 3203762320384 1 0
18.635555 -8.931994 -1.4450752 5 3203762320384 1 0
16.045177 -8.681628 -1.4892954 3 3203762322688 1 0
76.39551 -32.139866 2.4120708 41 3203762322688 1 0
49.554226 -26.82182 0.9835478 50 3203762324992 1 0
20.221035 -8.510525 -1.4060426 5 3203762324992 1 0
20.978477 -12.7217045 -1.4288245 6 3203762327296 1 0
55.357044 -26.56226 3.5757823 56 3203762327296 1 0
51.544155 -27.918283 2.3882148 26 3203762329600 1 0
25.600595 -12.28865 -1.3227868 4 3203762329600 1 0
24.265188 -13.147517 -1.4463565 4 3203762331904 1 0
0 0 0 1 3203762331904 1 0
51.37623 -27.846659 4.7705617 26 3203762334208 1 0
28.961676 -12.209079 -1.2804883 4 3203762334208 1 0
30.533962 -18.540619 -1.2474476 6 3203762336512 1 0
17.036236 -8.186783 5.064571 1 3203762336512 1 0
40.29132 -21.853645 8.357154 18 3203762338816 1 0
40.64331 -19.538467 -1.0493537 7 3203762338816 1 0
0 0 0 8 3203762359552 1 0
47.659386 -20.181143 -0.9034064 9 3203762359552 1 0
37.720634 -20.530388 -1.2498457 9 3203762361856 1 0
0 0 0 1 3203762361856 1 0
7.210016 -3.9255884 -1.641894 2 3203762364160 1 0
0 0 0 7 3203762364160 1 0
32.711143 -19.947382 -0.44603974 12 3203762366464 1 1
9.218374 -4.451375 -1.5926164 6 3203762366464 1 0
11.035016 -6.012323 -1.5995659 3 3203762368768 1 0
55.523403 -23.549227 0.35052815 44 3203762368768 1 0
49.682888 -27.078617 -0.32886133 10 3203762371072 1 0
12.61879 -6.097897 -1.50964 4 3203762371072 1 0
14.114409 -8.615472 -1.5436151 3 3203762373376 1 0
43.358418 -20.96028 1.1206319 217 3203762373376 1 0
44.6542 -27.265955 0.60910803 9 3203762375680 1 0
18.61504 -9.002202 -1.4459122 5 3203762375680 1 0
16.035774 -8.749041 -1.491248 3 3203762377984 1 0
75.77133 -32.189037 2.3958964 84 3203762377984 1 0
49.569126 -27.05403 0.98571193 25 3203762380288 1 0
20.2059 -8.587303 -1.4070659 5 3203762380288 1 0
20.93394 -12.794855 -1.4288245 6 3203762382592 1 0
55.343056 -26.793612 3.5808985 56 3203762382592 1 0
51.172794 -27.948608 2.375514 25 3203762384896 1 0
25.582718 -12.390129 -1.3240896 4 3203762384896 1 0
24.229664 -13.237884 -1.4469845 4 3203762387200 1 0
0 0 0 1 3203762387200 1 0
51.43264 -28.109953 4.784882 27 3203762389504 1 0
28.929914 -12.3147955 -1.2809767 4 3203762389504 1 0
30.482697 -18.655436 -1.248006 6 3203762391808 1 0
0 0 0 9 3203762391808 1 0
40.19753 -21.984715 8.353567 18 3203762394112 1 0
40.556873 -19.671495 -1.0488884 7 3203762394112 1 0
0 0 0 8 3203762414296 1 0
47.412136 -20.271912 -0.9000555 18 3203762414296 1 0
37.93266 -20.817747 -1.259271 9 3203762416600 1 0
0 0 0 1 3203762416600 1 0
0 0 0 3 3203762418904 1 0
7.1928306 -3.9488444 -1.6411095 1 3203762418904 1 0
32.61405 -20.04469 -0.44566724 12 3203762421208 1 1
9.199227 -4.4817953 -1.5920014 5 3203762421208 1 0
11.013963 -6.0508056 -1.5995659 3 3203762423512 1 0
55.66148 -23.837378 0.351923 30 3203762423512 1 0
45.066036 -24.766727 -0.29887185 28 3203762425816 1 0
12.601002 -6.1436505 -1.5100684 5 3203762425816 1 0
14.087642 -8.666775 -1.5439869 3 3203762428120 1 0
0 0 0 8 3203762428120 1 0
41.142162 -25.319077 0.56240404 15 3203762430424 1 0
18.594261 -9.072375 -1.4467492 5 3203762430424 1 0
16.015615 -8.810727 -1.4922245 3 3203762432728 1 0
75.809166 -32.517956 2.4006672 42 3203762432728 1 0
45.430943 -25.001692 0.9051516 21 3203762435032 1 0
20.227158 -8.67982 -1.4106475 5 3203762435032 1 0
20.895952 -12.872039 -1.4292897 6 3203762437336 1 0
55.34607 -27.033953 3.5871775 56 3203762437336 1 0
45.399933 -25.001835 2.111568 14 3203762439640 1 0
25.532131 -12.475845 -1.3237174 4 3203762439640 1 0
24.197302 -13.3300905 -1.4478219 4 3203762441944 1 0
0 0 0 1 3203762441944 1 0
45.628853 -25.145203 4.2530837 19 3203762444248 1 0
28.879408 -12.412549 -1.2806511 4 3203762444248 1 0
0 0 0 9 3203762446552 1 0
30.522865 -18.826784 -1.2523335 6 3203762446552 1 0
39.941357 -22.026081 8.316257 18 3203762448856 1 0
40.495144 -19.81646 -1.0490745 7 3203762448856 1 0
0 0 0 8 3203762469592 1 0
47.183197 -20.369125 -0.8970537 9 3203762469592 1 0
37.74416 -20.886421 -1.255431 9 3203762471896 1 0
7.1926713 -3.981631 -1.6442474 2 3203762474200 1 0
50.63744 -24.88104 0 22 3203762474200 1 0
0 0 0 1 3203762471896 1 0
32.594448 -20.190714 -0.44636568 8 3203762476504 1 1
9.190522 -4.5175667 -1.5932313 5 3203762476504 1 0
10.992597 -6.0895343 -1.5995659 3 3203762478808 1 0
45.11135 -24.999197 -0.29975528 9 3203762481112 1 0
12.586392 -6.1915674 -1.5109252 6 3203762481112 1 0
55.826885 -24.1411 0.35350385 46 3203762478808 1 0
14.067078 -8.722807 -1.5451022 3 3203762483416 1 0
0 0 0 1 3203762483416 1 0
43.931126 -27.250395 0.601844 8 3203762485720 1 0
15.987734 -8.869442 -1.4925499 3 3203762488024 1 0
18.569174 -9.141695 -1.4473073 5 3203762485720 1 0
55.815132 -24.1765 1.7702172 33 3203762488024 1 0
49.5556 -27.501633 0.9892722 51 3203762490328 1 0
20.207151 -8.756456 -1.411415 5 3203762490328 1 0
20.87709 -12.963269 -1.4311502 6 3203762492632 1 0
55.331768 -27.271603 3.5925264 28 3203762492632 1 0
45.36278 -25.19289 2.1140106 14 3203762494936 1 0
25.516092 -12.581068 -1.3252064 4 3203762494936 1 0
0 0 0 1 3203762497240 1 0
24.14247 -13.412701 -1.4474032 4 3203762497240 1 0
28.856718 -12.525555 -1.281628 4 3203762499544 1 0
45.36417 -25.211794 4.2368107 19 3203762499544 1 0
30.455034 -18.936316 -1.2523335 6 3203762501848 1 0
0 0 0 9 3203762501848 1 0
39.87557 -22.177368 8.319128 27 3203762504152 1 0
40.41279 -19.95679 -1.0487955 7 3203762504152 1 0
0 0 0 8 3203762524888 1 0
46.932255 -20.46519 -0.8937028 18 3203762524888 1 0
37.604816 -20.988997 -1.2533365 9 3203762527192 1 0
0 0 0 1 3203762527192 1 0
7.167872 -4.002022 -1.641894 2 3203762529496 1 0
50.485714 -25.03479 0 11 3203762529496 1 0
40.63952 -25.378366 -0.55779415 12 3203762531800 1 0
9.16702 -4.547308 -1.5920014 5 3203762531800 1 0
10.97056 -6.129145 -1.5995659 3 3203762534104 1 0
0 0 0 7 3203762534104 1 0
44.69304 -24.977667 -0.29757 19 3203762536408 1 0
14.049287 -8.781527 -1.5465893 3 3203762538712 1 0
12.571193 -6.24028 -1.5117819 5 3203762536408 1 0
51.550613 -25.598356 1.3393055 11 3203762538712 1 0
40.85271 -25.542892 0.560914 23 3203762541016 1 0
18.554348 -9.216682 -1.4487025 5 3203762541016 1 0
15.970074 -8.933909 -1.4938518 3 3203762543320 1 0
0 0 0 21 3203762545624 1 0
55.78027 -24.396856 1.7718463 33 3203762543320 1 0
20.179735 -8.82942 -1.4116708 5 3203762545624 1 0
20.800869 -13.017605 -1.4290571 6 3203762547928 1 0
50.740944 -25.23127 3.3002033 24 3203762547928 1 0
45.36835 -25.404463 2.1184068 14 3203762550232 1 0
25.471836 -12.670429 -1.3252064 4 3203762550232 1 0
24.119898 -13.510557 -1.4488686 4 3203762552536 1 0
0 0 0 1 3203762552536 1 0
50.141945 -28.095688 4.6921263 25 3203762554840 1 0
28.805681 -12.622581 -1.2813023 4 3203762554840 1 0
30.37914 -19.035255 -1.2519147 6 3203762557144 1 0
41.44486 -20.637308 12.405714 20 3203762557144 1 0
39.623833 -22.216537 8.2825365 18 3203762559448 1 0
40.358074 -20.10311 -1.0491676 7 3203762559448 1 0
0 0 0 8 3203762580184 1 0
37.48607 -21.086412 -1.2517076 9 3203762582488 1 0
46.81288 -20.598162 -0.89272547 18 3203762580184 1 0
7.1613398 -4.0297203 -1.6434629 2 3203762584792 1 0
0 0 0 1 3203762582488 1 0
42.78164 -21.392326 0 25 3203762584792 1 0
40.34468 -25.381824 -0.55490714 5 3203762587096 1 0
9.151791 -4.577882 -1.5920014 6 3203762587096 1 0
10.946538 -6.1638627 -1.5990608 3 3203762589400 1 0
0 0 0 1 3203762589400 1 0
44.406914 -25.013502 -0.2962216 19 3203762591704 1 0
12.546645 -6.2806096 -1.5113535 4 3203762591704 1 0
14.019704 -8.828679 -1.5465893 3 3203762594008 1 0
51.475044 -25.776781 1.3395847 11 3203762594008 1 0
43.33849 -27.300508 0.59630287 26 3203762596312 1 0
18.533915 -9.284465 -1.4495395 5 3203762596312 1 0
15.953729 -8.995579 -1.4951535 3 3203762598616 1 0
83.072754 -36.66832 2.6427004 36 3203762598616 1 0
51.17562 -28.865406 1.0255733 27 3203762600920 1 0
20.160717 -8.902446 -1.4124383 5 3203762600920 1 0
20.78028 -13.10293 -1.430685 6 3203762603224 1 0
43.09846 -21.613472 2.807882 31 3203762603224 1 0
45.445396 -25.650724 2.1260598 14 3203762605528 1 0
24.143345 -13.631847 -1.4530555 4 3203762607832 1 0
25.435802 -12.760446 -1.3255787 4 3203762605528 1 0
43.137955 -21.648985 5.9262624 34 3203762607832 1 0
51.34757 -29.001781 4.814173 27 3203762610136 1 0
28.78805 -12.732069 -1.2824422 4 3203762610136 1 0
41.38789 -20.78578 12.409856 30 3203762612440 1 0
30.337563 -19.153917 -1.2528919 6 3203762612440 1 0
39.35566 -22.243696 8.242358 18 3203762614744 1 0
40.2997 -20.24661 -1.0494468 7 3203762614744 1 0
0 0 0 8 3203762635480 1 0
46.59815 -20.698126 -0.8900029 17 3203762635480 1 0
37.360218 -21.187277 -1.2499621 18 3203762637784 1 0
0 0 0 1 3203762637784 1 0
7.147289 -4.0545893 -1.6434629 2 3203762640088 1 0
0 0 0 11 3203762640088 1 0
40.060467 -25.397406 -0.5522064 5 3203762642392 1 0
9.139384 -4.6113806 -1.5926164 7 3203762642392 1 0
56.127968 -24.968266 0.35703748 16 3203762644696 1 0
10.928587 -6.2036767 -1.5995659 3 3203762644696 1 0
44.017635 -24.994913 -0.29419908 19 3203762647000 1 0
12.524875 -6.3239117 -1.5113535 4 3203762647000 1 0
14.009364 -8.889755 -1.5488199 3 3203762649304 1 0
42.565758 -21.499182 1.1096518 23 3203762649304 1 0
43.315243 -27.494434 0.5972807 35 3203762651608 1 0
18.519674 -9.357159 -1.4509346 3 3203762651608 1 0
15.926223 -9.052257 -1.495479 3 3203762653912 1 0
75.744156 -33.74459 2.4132342 41 3203762653912 1 0
46.156895 -26.243414 0.92679256 22 3203762656216 1 0
20.148336 -8.979573 -1.4137175 3 3203762656216 1 0
20.752226 -13.184587 -1.4318478 3 3203762658520 1 0
49.823277 -25.19939 3.251599 23 3203762658520 1 0
45.385437 -25.821386 2.1273625 14 3203762660824 1 0
25.406393 -12.85434 -1.3263232 4 3203762660824 1 0
24.107225 -13.719865 -1.4536835 4 3203762663128 1 0
43.138416 -21.833324 5.9364996 11 3203762663128 1 0
0 0 0 8 3203762665432 1 0
28.803038 -12.855826 -1.2850474 4 3203762665432 1 0
30.282598 -19.263052 -1.2533107 6 3203762667736 1 0
41.286194 -20.910206 12.400538 10 3203762667736 1 0
39.12977 -22.290949 8.210789 9 3203762670040 1 0
40.22744 -20.380964 -1.0493537 7 3203762670040 1 0
0 0 0 8 3203762690776 1 0
46.156994 -20.685703 -0.88288236 26 3203762690776 1 0
37.202812 -21.261724 -1.247053 18 3203762693080 1 0
0 0 0 1 3203762693080 1 0
7.140555 -4.0822654 -1.6450318 2 3203762695384 1 0
41.86491 -21.291368 0 24 3203762695384 1 0
39.699055 -25.354448 -0.5483881 5 3203762697688 1 0
9.120418 -4.6400695 -1.5920014 7 3203762697688 1 0
10.918105 -6.2461114 -1.6010811 3 3203762699992 1 0
55.98939 -25.131315 0.35668877 16 3203762699992 1 0
43.707935 -25.013203 -0.29268798 19 3203762702296 1 0
12.514236 -6.371279 -1.5126387 4 3203762702296 1 0
14.019686 -8.962516 -1.5532813 3 3203762704600 1 0
41.816246 -21.297249 1.0919718 23 3203762704600 1 0
44.411907 -28.40078 0.6137179 18 3203762706904 1 0
18.505842 -9.428519 -1.4523298 5 3203762706904 1 0
75.77208 -34.063923 2.4177725 83 3203762709208 1 0
15.916344 -9.117835 -1.4974318 3 3203762709208 1 0
45.828457 -26.26214 0.92197573 32 3203762711512 1 0
20.117857 -9.047655 -1.4137175 3 3203762711512 1 0
20.69061 -13.244073 -1.430685 3 3203762713816 1 0
42.573277 -21.71401 2.7832313 15 3203762713816 1 0
45.366825 -26.015135 2.130619 15 3203762716120 1 0
24.08118 -13.813757 -1.4549396 4 3203762718424 1 0
25.344797 -12.931468 -1.3253925 4 3203762716120 1 0
0 0 0 1 3203762718424 1 0
51.093643 -29.318872 4.8089657 27 3203762720728 1 0
28.780888 -12.963838 -1.2860245 4 3203762720728 1 0
30.250238 -19.388016 -1.2547067 6 3203762723032 1 0
0 0 0 9 3203762723032 1 0
39.41833 -22.634516 8.287559 18 3203762725336 1 0
40.663055 -20.777002 -1.0625672 16 3203762725336 1 0
0 0 0 8 3203762746072 1 0
45.978832 -20.798893 -0.8808579 26 3203762746072 1 0
34.30832 -19.766687 -1.1523342 16 3203762748376 1 0
0 0 0 1 3203762748376 1 0
7.119465 -4.1032486 -1.6434629 2 3203762750680 1 0
41.79389 -21.439201 0 24 3203762750680 1 0
38.96118 -25.075096 -0.53940123 11 3203762752984 1 0
9.107682 -4.6736817 -1.5926164 6 3203762752984 1 0
10.896236 -6.284185 -1.6010811 3 3203762755288 1 0
56.036133 -25.387678 0.35754892 16 3203762755288 1 0
43.329323 -24.997715 -0.2907352 28 3203762757592 1 0
12.498996 -6.418556 -1.5134954 4 3203762757592 1 0
41.734535 -21.43943 1.0917857 23 3203762759896 1 0
13.991663 -9.013556 -1.553653 3 3203762759896 1 0
44.349483 -28.579466 0.6142301 18 3203762762200 1 0
18.487013 -9.500355 -1.4534459 5 3203762762200 1 0
15.894776 -9.179319 -1.4984081 3 3203762764504 1 0
75.70733 -34.35299 2.419518 83 3203762764504 1 0
45.46639 -26.265905 0.91653055 53 3203762766808 1 0
20.107962 -9.127724 -1.4152524 3 3203762766808 1 0
20.64761 -13.31838 -1.4309176 3 3203762769112 1 0
42.376488 -21.800377 2.7753243 45 3203762769112 1 0
25.391876 -13.067397 -1.3302318 4 3203762771416 1 0
24.063936 -13.9157295 -1.4568237 4 3203762773720 1 0
45.24806 -26.157333 2.1293163 15 3203762771416 1 0
0 0 0 1 3203762773720 1 0
51.17389 -29.602846 4.8262153 27 3203762776024 1 0
28.775482 -13.082418 -1.2878156 4 3203762776024 1 0
30.199167 -19.504333 -1.2554047 6 3203762778328 1 0
40.165295 -20.6924 12.10652 28 3203762778328 1 0
39.461685 -22.842943 8.313388 18 3203762780632 1 0
40.451653 -20.84737 -1.0589381 16 3203762780632 1 0
0 0 0 8 3203762801368 1 0
45.28383 -20.675222 -0.8689204 17 3203762801368 1 0
34.19762 -19.862228 -1.1509379 8 3203762803672 1 0
0 0 0 1 3203762803672 1 0
7.10849 -4.130046 -1.6442474 2 3203762805976 1 0
41.80051 -21.627235 0 33 3203762805976 1 0
39.07476 -25.341524 -0.5421951 17 3203762808280 1 0
9.091312 -4.7054453 -1.5926164 6 3203762808280 1 0
10.877665 -6.324176 -1.6015861 3 3203762810584 1 0
56.132694 -25.66796 0.35873455 16 3203762810584 1 0
33.771206 -19.640846 -0.22705984 10 3203762812888 1 1
12.472983 -6.4603176 -1.5130671 4 3203762812888 1 0
13.963455 -9.064509 -1.5540248 3 3203762815192 1 0
41.75886 -21.636492 1.0943911 23 3203762815192 1 0
38.989567 -25.318508 0.54121727 7 3203762817496 1 0
18.464367 -9.570337 -1.454283 5 3203762817496 1 0
15.8626375 -9.234747 -1.4984081 4 3203762819800 1 0
75.72509 -34.680313 2.4239397 83 3203762819800 1 0
45.419353 -26.450617 0.9174381 96 3203762822104 1 0
20.090492 -9.204509 -1.4162757 3 3203762822104 1 0
20.614386 -13.399077 -1.4318478 6 3203762824408 1 0
48.34706 -25.08572 3.172065 22 3203762824408 1 0
44.956196 -26.198404 2.1198723 14 3203762826712 1 0
25.356747 -13.161474 -1.3307902 4 3203762826712 1 0
24.018665 -14.001655 -1.457033 4 3203762829016 1 0
0 0 0 1 3203762829016 1 0
51.173565 -29.841545 4.835979 27 3203762831320 1 0
28.755068 -13.194451 -1.2889553 4 3203762831320 1 0
30.231415 -19.675047 -1.2595927 6 3203762833624 1 0
40.226532 -20.901955 12.146895 19 3203762833624 1 0
38.05958 -22.209047 8.03429 17 3203762835928 1 0
40.215416 -20.903608 -1.0546577 15 3203762835928 1 0
0 0 0 8 3203762856664 1 0
33.672626 -19.714817 -1.135578 8 3203762858968 1 0
45.007973 -20.739435 -0.8650111 25 3203762856664 1 0
0 0 0 1 3203762858968 1 0
7.100799 -4.158798 -1.6458163 2 3203762861272 1 0
41.834698 -21.83038 0 25 3203762861272 1 0
9.071328 -4.735322 -1.5920014 7 3203762863576 1 0
38.945885 -25.45151 -0.5416363 17 3203762863576 1 0
10.855522 -6.3621073 -1.6015861 3 3203762865880 1 0
56.0137 -25.850334 0.35854858 16 3203762865880 1 0
0 0 0 95 3203762868184 1 0
12.457406 -6.5075 -1.5139239 4 3203762868184 1 0
13.931729 -9.113195 -1.5540248 3 3203762870488 1 0
41.778774 -21.83213 1.0969036 23 3203762870488 1 0
19.154276 -12.533411 0.2664877 2 3203762872792 1 1
18.444992 -9.642125 -1.455399 5 3203762872792 1 0
15.847498 -9.300151 -1.5000354 4 3203762875096 1 0
75.65801 -34.969593 2.4256852 83 3203762875096 1 0
45.406075 -26.655567 0.9190437 32 3203762877400 1 0
20.050995 -9.271231 -1.4157641 3 3203762877400 1 0
20.560808 -13.466578 -1.4313827 3 3203762879704 1 0
48.22028 -25.233963 3.1695068 22 3203762879704 1 0
0 0 0 14 3203762882008 1 0
25.33543 -13.262877 -1.332093 4 3203762882008 1 0
24.007528 -14.107672 -1.4593358 4 3203762884312 1 0
0 0 0 1 3203762884312 1 0
46.525486 -27.349125 4.4057236 21 3203762886616 1 0
28.726969 -13.303143 -1.2897695 4 3203762886616 1 0
19.602484 -12.855212 -0.8186026 3 3203762888920 1 1
39.985634 -20.954367 12.096167 9 3203762888920 1 0
37.652817 -22.148233 7.964695 26 3203762891224 1 0
40.081997 -21.012295 -1.0530758 15 3203762891224 1 0
0 0 0 8 3203762911960 1 0
44.83739 -20.850883 -0.8631262 25 3203762911960 1 0
33.44851 -19.741032 -1.1303418 8 3203762914264 1 0
0 0 0 1 3203762914264 1 0
7.0828004 -4.1816683 -1.6450318 2 3203762916568 1 0
41.842873 -22.021595 0 33 3203762916568 1 0
19.474892 -12.824872 -0.27147007 54 3203762918872 1 1
9.058137 -4.7689967 -1.5926164 7 3203762918872 1 0
10.846727 -6.4083505 -1.6036065 4 3203762921176 1 0
56.09641 -26.128393 0.35966447 17 3203762921176 1 0
33.284748 -19.671806 -0.22471184 64 3203762923480 1 1
12.444932 -6.556958 -1.5152091 4 3203762923480 1 0
13.906084 -9.166761 -1.5547683 3 3203762925784 1 0
41.79333 -22.028131 1.0993229 23 3203762925784 1 0
19.296759 -12.724471 0.26909527 2 3203762928088 1 1
18.442495 -9.724139 -1.4579103 3 3203762928088 1 0
15.83155 -9.366482 -1.5016627 4 3203762930392 1 0
75.678375 -35.305485 2.4303396 82 3203762930392 1 0
20.046837 -9.355982 -1.4178107 3 3203762932696 1 0
20.526022 -13.548557 -1.432313 3 3203762935000 1 0
42.36828 -25.075249 0.8593565 9 3203762932696 1 0
47.635654 -25.144659 3.136949 21 3203762935000 1 0
44.023857 -26.073244 2.0845385 13 3203762937304 1 0
25.280844 -13.349525 -1.3317207 4 3203762937304 1 0
24.022194 -14.232163 -1.4633133 4 3203762939608 1 0
41.423836 -21.881905 5.752233 32 3203762939608 1 0
46.238506 -27.403957 4.387823 21 3203762941912 1 0
28.765985 -13.446668 -1.2936773 4 3203762941912 1 0
0 0 0 15 3203762944216 1 0
0 0 0 9 3203762944216 1 0
37.535614 -22.261549 7.956803 26 3203762946520 1 0
39.829346 -21.062971 -1.0484232 15 3203762946520 1 0
0 0 0 8 3203762967256 1 0
44.688263 -20.981087 -0.86173004 17 3203762967256 1 0
33.29032 -19.811888 -1.1274327 8 3203762969560 1 0
0 0 0 1 3203762969560 1 0
7.0641785 -4.205388 -1.6442474 2 3203762971864 1 0
41.850845 -22.220488 0 8 3203762971864 1 0
19.351671 -12.844443 -0.2703991 43 3203762974168 1 1
9.037315 -4.7999163 -1.5920014 6 3203762974168 1 0
10.826951 -6.4494634 -1.6041116 4 3203762976472 1 0
56.034378 -26.34588 0.35987368 17 3203762976472 1 0
33.17263 -19.766684 -0.22443286 80 3203762978776 1 1
12.421296 -6.601624 -1.5152091 4 3203762978776 1 0
13.876514 -9.218661 -1.5551401 3 3203762981080 1 0
49.53523 -26.335575 1.3054343 21 3203762981080 1 0
19.431181 -12.912694 0.27160975 2 3203762983384 1 1
18.418297 -9.795416 -1.4587474 3 3203762983384 1 0
15.811906 -9.430776 -1.5029645 4 3203762985688 1 0
0 0 0 251 3203762985688 1 0
42.018364 -25.0691 0.85405093 9 3203762987992 1 0
20.024479 -9.431877 -1.4185783 3 3203762987992 1 0
20.54138 -13.662739 -1.4367315 6 3203762990296 1 0
55.601166 -29.59998 3.6683397 28 3203762990296 1 0
45.34261 -27.06941 2.1514611 16 3203762992600 1 0
25.23037 -13.436179 -1.3315346 4 3203762992600 1 0
23.95865 -14.307738 -1.462476 4 3203762994904 1 0
41.305153 -22.00397 5.746383 21 3203762994904 1 0
45.82467 -27.374378 4.357556 21 3203762997208 1 0
28.733528 -13.5534 -1.2943287 4 3203762997208 1 0
19.301695 -12.853576 -0.8098079 56 3203762999512 1 1
0 0 0 9 3203762999512 1 0
37.914642 -22.66337 8.053662 26 3203763001816 1 0
39.583603 -21.107939 -1.0438637 15 3203763001816 1 0
0 0 0 8 3203763022552 1 0
43.55214 -20.624212 -0.84113616 16 3203763022552 1 0
33.07013 -19.829647 -1.1221964 7 3203763024856 1 0
0 0 0 1 3203763024856 1 0
7.0501943 -4.2287908 -1.6442474 2 3203763027160 1 0
49.627296 -26.56069 0 11 3203763027160 1 0
19.232492 -12.857418 -0.2693281 41 3203763029464 1 1
9.028317 -4.8335896 -1.5932313 6 3203763029464 1 0
10.808907 -6.4873734 -1.6046166 3 3203763031768 1 0
0 0 0 142 3203763031768 1 0
33.10347 -19.87452 -0.22440961 75 3203763034072 1 1
12.399337 -6.6427784 -1.5152091 3 3203763034072 1 0
13.849177 -9.266842 -1.555512 3 3203763036376 1 0
49.54279 -26.550695 1.3079468 10 3203763036376 1 0
0 0 0 86 3203763038680 1 0
18.392746 -9.860209 -1.4593054 3 3203763038680 1 0
15.794214 -9.491372 -1.5042664 4 3203763040984 1 0
41.719055 -25.078487 0.84965295 9 3203763043288 1 0
0 0 0 235 3203763040984 1 0
20.003908 -9.503367 -1.4193457 3 3203763043288 1 0
51.428143 -27.597681 3.3990397 52 3203763045592 1 0
45.430687 -27.326746 2.1599283 16 3203763047896 1 0
20.505913 -13.737449 -1.4374292 6 3203763045592 1 0
25.22088 -13.538671 -1.3333958 4 3203763047896 1 0
23.931608 -14.399466 -1.463732 4 3203763050200 1 0
42.029453 -22.569061 5.857528 33 3203763050200 1 0
45.47746 -27.371998 4.3331466 41 3203763052504 1 0
28.684816 -13.646893 -1.2941658 4 3203763052504 1 0
19.179285 -12.864069 -0.8064576 59 3203763054808 1 1
0 0 0 9 3203763054808 1 0
37.84265 -22.791004 8.054379 8 3203763057112 1 0
39.40772 -21.182287 -1.041072 15 3203763057112 1 0
0 0 0 8 3203763078296 1 0
43.42575 -20.750248 -0.840089 16 3203763078296 1 0
32.86711 -19.864544 -1.1176584 23 3203763080600 1 0
0 0 0 1 3203763080600 1 0
7.0420413 -4.2575355 -1.6458163 2 3203763082904 1 0
0 0 0 11 3203763082904 1 0
19.110914 -12.873496 -0.2682571 46 3203763085208 1 1
9.004329 -4.861516 -1.5920014 6 3203763085208 1 0
10.786005 -6.5253778 -1.6046166 4 3203763087512 1 0
33.09134 -20.02636 -0.22480482 69 3203763089816 1 1
12.379329 -6.68836 -1.5156374 3 3203763089816 1 0
13.819642 -9.317957 -1.5558836 3 3203763092120 1 0
49.53659 -26.773163 1.310273 21 3203763092120 1 0
43.44481 -20.79041 0.27992502 102 3203763087512 1 0
0 0 0 21 3203763094424 1 0
15.7843 -9.561822 -1.5065446 4 3203763096728 1 0
18.36824 -9.93098 -1.4601425 3 3203763094424 1 0
41.427807 -25.104397 0.8455342 9 3203763099032 1 0
43.422268 -20.810678 1.4013492 221 3203763096728 1 0
20.031178 -9.603781 -1.4236948 3 3203763099032 1 0
20.46014 -13.812666 -1.4376618 6 3203763101336 1 0
51.371616 -27.803574 3.4018304 26 3203763101336 1 0
45.33282 -27.488789 2.1599283 16 3203763103640 1 0
25.204 -13.645761 -1.335071 4 3203763103640 1 0
23.890182 -14.491214 -1.46436 4 3203763105944 1 0
45.12878 -24.441772 6.30162 15 3203763105944 1 0
45.42675 -27.56382 4.3377028 62 3203763108248 1 0
28.621294 -13.742725 -1.2935145 4 3203763108248 1 0
19.060087 -12.883636 -0.8033864 56 3203763110552 1 1
0 0 0 9 3203763110552 1 0
39.381645 -23.911478 8.400203 9 3203763112856 1 0
39.260902 -21.285889 -1.039211 15 3203763112856 1 0
0 0 0 8 3203763133592 1 0
43.403492 -20.926022 -0.84106636 25 3203763133592 1 0
32.76001 -19.95627 -1.1163783 15 3203763135896 1 0
0 0 0 1 3203763135896 1 0
7.027137 -4.282091 -1.6458163 2 3203763138200 1 0
0 0 0 7 3203763138200 1 0
18.986435 -12.88622 -0.26713958 50 3203763140504 1 1
8.9942465 -4.896697 -1.5932313 6 3203763140504 1 0
10.763162 -6.5629883 -1.6046166 4 3203763142808 1 0
0 0 0 3 3203763142808 1 0
33.127094 -20.206318 -0.2255255 26 3203763145112 1 1
12.359399 -6.7334337 -1.5160658 3 3203763145112 1 0
13.793621 -9.370616 -1.5566273 3 3203763147416 1 0
0 0 0 10 3203763147416 1 0
0 0 0 21 3203763149720 1 0
18.35098 -10.004586 -1.4615376 3 3203763149720 1 0
0 0 0 60 3203763152024 1 0
15.764438 -9.625172 -1.5078465 4 3203763152024 1 0
41.060043 -25.077915 0.8398098 9 3203763154328 1 0
19.997532 -9.673644 -1.4236948 3 3203763154328 1 0
20.418406 -13.888493 -1.4381268 3 3203763156632 1 0
51.431988 -28.068808 3.4122953 26 3203763156632 1 0
45.76177 -27.967829 2.185004 17 3203763158936 1 0
25.250906 -13.785351 -1.3400964 4 3203763158936 1 0
12.183781 -2.4703305 -1.5823934 3 3203757613176 1 0
0 0 0 1 3203757613176 1 0
81.693954 -16.575665 -0.48448113 28 3203757615480 1 0
13.748642 -2.0963688 -1.4980735 3 3203757615480 1 0
15.650965 -3.982836 -1.5075527 3 3203757617784 1 0
0 0 0 1 3203757617784 1 0
91.172485 -23.214863 1.0952863 28 3203757620088 1 0
19.896044 -3.0393403 -1.4074066 4 3203757620088 1 0
17.514162 -3.5611746 -1.4590278 4 3203757622392 1 0
0 0 0 6 3203757622392 1 0
192.64651 -39.198753 3.431562 29 3203757624696 1 0
21.401836 -2.2121365 -1.3789246 3 3203757624696 1 0
22.63569 -5.773622 -1.3604531 5 3203757627000 1 0
0 0 0 14 3203757629304 1 0
0 0 0 3 3203757627000 1 0
27.105503 -4.1559963 -1.2773724 3 3203757629304 1 0
26.055359 -5.3128633 -1.3936019 4 3203757631608 1 0
0 0 0 1 3203757631608 1 0
102.460815 -20.907196 8.53676 28 3203757633912 1 0
30.303534 -3.149162 -1.2412463 4 3203757633912 1 0
33.07927 -8.456911 -1.1923064 5 3203757636216 1 0
0 0 0 9 3203757636216 1 0
0 0 0 29 3203757638520 1 0
42.551426 -6.5483403 -1.0018039 49 3203757638520 1 0
0 0 0 4 3203757659256 1 0
47.914963 -5.052976 -0.84099656 16 3203757659256 1 0
40.298218 -8.2925005 -1.1973664 8 3203757661560 1 0
0 0 0 1 3203757661560 1 0
8.04071 -1.6557621 -1.641894 1 3203757663864 1 0
102.25986 -15.896155 0 28 3203757663864 1 0
40.758835 -10.498271 -0.48999646 4 3203757666168 1 1
12.175522 -2.5107198 -1.5823934 3 3203757668472 1 0
0 0 0 1 3203757668472 1 0
10.07219 -1.5671337 -1.5858524 6 3203757666168 1 0
0 0 0 9 3203757670776 1 0
15.633815 -4.0337195 -1.507181 3 3203757673080 1 0
13.745544 -2.142562 -1.4985019 3 3203757670776 1 0
0 0 0 1 3203757673080 1 0
98.97607 -25.55165 1.1900446 28 3203757675384 1 0
19.881914 -3.1046855 -1.4071276 4 3203757675384 1 0
17.50616 -3.6200414 -1.4593532 4 3203757677688 1 0
0 0 0 3 3203757677688 1 0
0 0 0 21 3203757679992 1 0
21.386444 -2.2822483 -1.3784128 3 3203757679992 1 0
22.616419 -5.848653 -1.3604531 5 3203757682296 1 0
0 0 0 3 3203757682296 1 0
0 0 0 14 3203757684600 1 0
27.119205 -4.2501893 -1.2786753 3 3203757684600 1 0
26.002396 -5.3919373 -1.3917178 4 3203757686904 1 0
0 0 0 1 3203757686904 1 0
103.483925 -21.47366 8.627889 28 3203757689208 1 0
30.292925 -3.249635 -1.2412463 4 3203757689208 1 0
33.054913 -8.567562 -1.192446 5 3203757691512 1 0
0 0 0 9 3203757691512 1 0
42.49787 -6.684439 -1.0010594 14 3203757693816 1 0
0 0 0 4 3203757714552 1 0
0 0 0 29 3203757693816 1 0
47.91782 -5.214003 -0.8413456 8 3203757714552 1 0
40.223534 -8.416262 -1.19597 8 3203757716856 1 0
0 0 0 1 3203757716856 1 0
0 0 0 3 3203757719160 1 0
8.046693 -1.6848284 -1.6442474 1 3203757719160 1 0
40.75863 -10.642469 -0.49041554 4 3203757721464 1 1
10.066938 -1.6005256 -1.5858524 5 3203757721464 1 0
12.1671295 -2.5510814 -1.5823934 3 3203757723768 1 0
78.84052 -8.622837 0.4609545 42 3203757723768 1 1
0 0 0 9 3203757726072 1 0
13.726582 -2.1862555 -1.4972167 3 3203757726072 1 0
15.628058 -4.087557 -1.5079246 3 3203757728376 1 0
0 0 0 1 3203757728376 1 0
91.1829 -23.86257 1.0972885 28 3203757730680 1 0
19.87545 -3.171228 -1.4074066 4 3203757730680 1 0
17.497963 -3.6788943 -1.4596786 4 3203757732984 1 0
0 0 0 3 3203757732984 1 0
115.69708 -24.341658 2.0637121 29 3203757735288 1 0
21.279562 -2.3422372 -1.3720171 3 3203757735288 1 0
22.593037 -5.922607 -1.3602206 5 3203757737592 1 0
0 0 0 3 3203757737592 1 0
0 0 0 14 3203757739896 1 0
27.093126 -4.338201 -1.278117 3 3203757739896 1 0
26.003916 -5.4822545 -1.3927644 4 3203757742200 1 0
0 0 0 1 3203757742200 1 0
103.78273 -21.894888 8.658807 28 3203757744504 1 0
30.305817 -3.3527088 -1.2422234 4 3203757744504 1 0
33.126842 -8.70354 -1.1960756 5 3203757746808 1 0
0 0 0 9 3203757746808 1 0
0 0 0 29 3203757749112 1 0
42.72816 -6.865935 -1.0070149 7 3203757749112 1 0
0 0 0 4 3203757770296 1 0
48.02651 -5.395524 -0.84357953 8 3203757770296 1 0
0 0 0 1 3203757772600 1 0
40.40881 -8.603287 -1.2023699 8 3203757772600 1 0
8.033015 -1.7116224 -1.6426784 1 3203757774904 1 0
0 0 0 3 3203757774904 1 0
40.70506 -10.783247 -0.4902293 4 3203757777208 1 1
10.0572815 -1.6356801 -1.5852375 5 3203757777208 1 0
12.161804 -2.5954263 -1.5828985 3 3203757779512 1 0
78.62235 -8.883759 0.45986184 42 3203757779512 1 1
0 0 0 9 3203757781816 1 0
13.714697 -2.2350137 -1.4967884 3 3203757781816 1 0
15.609303 -4.143106 -1.5075527 3 3203757784120 1 0
0 0 0 1 3203757784120 1 0
90.9098 -24.145342 1.0950534 57 3203757786424 1 0
19.85195 -3.2416914 -1.4065695 4 3203757786424 1 0
0 0 0 3 3203757788728 1 0
17.515549 -3.7496793 -1.4622823 7 3203757788728 1 0
0 0 0 21 3203757791032 1 0
21.362005 -2.4310606 -1.3779012 3 3203757791032 1 0
22.55934 -6.0032787 -1.3595228 5 3203757793336 1 0
0 0 0 3 3203757793336 1 0
27.108297 -4.444417 -1.2796059 3 3203757795640 1 0
91.15177 -19.559275 3.7981522 29 3203757795640 1 0
25.967539 -5.57644 -1.3919271 4 3203757797944 1 0
0 0 0 1 3203757797944 1 0
0 0 0 8 3203757800248 1 0
30.25721 -3.462977 -1.240758 4 3203757800248 1 0
33.093567 -8.829229 -1.1960756 5 3203757802552 1 0
0 0 0 9 3203757802552 1 0
42.67007 -7.0238204 -1.0062704 7 3203757804856 1 0
0 0 0 29 3203757804856 1 0
0 0 0 4 3203757825592 1 0
48.045166 -5.58451 -0.8442776 8 3203757825592 1 0
40.402958 -8.763728 -1.2031845 8 3203757827896 1 0
0 0 0 1 3203757827896 1 0
8.037933 -1.7447168 -1.6450318 1 3203757830200 1 0
0 0 0 3 3203757830200 1 0
40.829918 -10.982362 -0.49223155 4 3203757832504 1 1
10.058798 -1.6751451 -1.5864673 5 3203757832504 1 0
12.155781 -2.642241 -1.5834035 3 3203757834808 1 0
78.552444 -9.176831 0.45965263 41 3203757834808 1 1
44.51433 -9.682637 -0.26476753 7 3203757837112 1 1
13.694412 -2.2846975 -1.4955032 3 3203757837112 1 0
15.612875 -4.2068305 -1.5094117 3 3203757839416 1 0
0 0 0 1 3203757839416 1 0
19.851501 -3.3178465 -1.4074066 4 3203757841720 1 0
89.46341 -24.119537 1.0787094 28 3203757841720 1 0
17.49757 -3.8140209 -1.4619569 25 3203757844024 1 0
191.53859 -22.489315 5.6126113 44 3203757844024 1 0
105.12382 -22.930307 1.8780884 29 3203757846328 1 0
21.356806 -2.5107377 -1.378157 3 3203757846328 1 0
22.537008 -6.0865784 -1.3595228 5 3203757848632 1 0
0 0 0 3 3203757848632 1 0
91.20413 -19.921848 3.8033626 29 3203757850936 1 0
27.075996 -4.5414944 -1.2788614 3 3203757850936 1 0
25.946926 -5.671578 -1.3919271 4 3203757853240 1 0
0 0 0 1 3203757853240 1 0
0 0 0 8 3203757855544 1 0
30.264212 -3.5757568 -1.241572 4 3203757855544 1 0
33.0651 -8.950547 -1.1962152 5 3203757857848 1 0
0 0 0 9 3203757857848 1 0
42.660126 -7.180961 -1.0066426 7 3203757860152 1 0
0 0 0 4 3203757880888 1 0
48.045235 -5.754563 -0.84462667 8 3203757880888 1 0
40.325397 -8.893786 -1.2017882 8 3203757883192 1 0
0 0 0 29 3203757860152 1 0
0 0 0 1 3203757883192 1 0
0 0 0 3 3203757885496 1 0
40.853558 -11.1398735 -0.49297658 4 3203757887800 1 1
8.016525 -1.7691491 -1.641894 1 3203757885496 1 0
12.146639 -2.6839497 -1.5834035 3 3203757890104 1 0
10.05686 -1.7104708 -1.5870821 4 3203757887800 1 0
78.53637 -9.448318 0.45974562 83 3203757890104 1 1
0 0 0 9 3203757892408 1 0
13.682603 -2.330823 -1.4950747 3 3203757892408 1 0
15.598467 -4.259943 -1.5094117 3 3203757894712 1 0
0 0 0 1 3203757894712 1 0
87.9613 -24.034616 1.0615736 28 3203757897016 1 0
19.840143 -3.385101 -1.4074066 4 3203757897016 1 0
17.48071 -3.872179 -1.4616314 36 3203757899320 1 0
0 0 0 3 3203757899320 1 0
104.83143 -23.23577 1.8742489 29 3203757901624 1 0
21.25314 -2.5709717 -1.3720171 3 3203757901624 1 0
22.516521 -6.1619353 -1.3595228 5 3203757903928 1 0
0 0 0 3 3203757903928 1 0
91.16848 -20.232435 3.8046653 29 3203757906232 1 0
27.163118 -4.649176 -1.2837006 4 3203757906232 1 0
25.935774 -5.7593217 -1.3923458 4 3203757908536 1 0
0 0 0 1 3203757908536 1 0
0 0 0 8 3203757910840 1 0
30.256208 -3.6761389 -1.2417349 4 3203757910840 1 0
33.074055 -9.0697565 -1.1976111 5 3203757913144 1 0
0 0 0 9 3203757913144 1 0
0 0 0 29 3203757915448 1 0
42.644283 -7.321881 -1.0068287 7 3203757915448 1 0
48.16585 -5.9225564 -0.84707 8 3203757936184 1 0
0 0 0 4 3203757936184 1 0
40.34395 -9.031496 -1.2031845 8 3203757938488 1 0
0 0 0 1 3203757938488 1 0
8.014703 -1.7954154 -1.6426784 1 3203757940792 1 0
0 0 0 3 3203757940792 1 0
40.78317 -11.260365 -0.49255753 4 3203757943096 1 1
10.051361 -1.7424954 -1.5870821 5 3203757943096 1 0
12.130245 -2.7210653 -1.5823934 3 3203757945400 1 0
78.497795 -9.698586 0.45969912 41 3203757945400 1 1
0 0 0 9 3203757947704 1 0
13.667203 -2.37343 -1.494218 3 3203757947704 1 0
0 0 0 1 3203757950008 1 0
15.596147 -4.313471 -1.510527 3 3203757950008 1 0
86.957726 -24.063763 1.0503982 28 3203757952312 1 0
17.448553 -3.924735 -1.4600041 42 3203757954616 1 0
19.836922 -3.4508007 -1.4079647 4 3203757952312 1 0
0 0 0 3 3203757954616 1 0
21.339685 -2.6523252 -1.378157 3 3203757956920 1 0
104.57925 -23.539183 1.8711073 29 3203757956920 1 0
22.480753 -6.2316475 -1.3585926 5 3203757959224 1 0
0 0 0 3 3203757959224 1 0
91.11678 -20.536839 3.8053167 29 3203757961528 1 0
27.155493 -4.7402062 -1.2840729 4 3203757961528 1 0
25.908741 -5.8435383 -1.3919271 4 3203757963832 1 0
0 0 0 1 3203757963832 1 0
80.368416 -18.138828 6.7259126 28 3203757966136 1 0
30.247763 -3.7773871 -1.2418977 4 3203757966136 1 0
33.039677 -9.1792755 -1.1974715 5 3203757968440 1 0
0 0 0 9 3203757968440 1 0
0 0 0 29 3203757970744 1 0
0 0 0 6 3203757970744 1 0
48.303593 -6.1107283 -0.8498624 8 3203757991480 1 0
40.312107 -9.172561 -1.2031845 8 3203757993784 1 0
0 0 0 4 3203757991480 1 0
7.9356966 -1.8069519 -1.6277735 1 3203757996088 1 0
0 0 0 1 3203757993784 1 0
94.10813 -16.640379 0 28 3203757996088 1 0
40.793438 -11.417559 -0.49316284 4 3203757998392 1 1
10.045178 -1.7777897 -1.5870821 5 3203757998392 1 0
12.12833 -2.7655082 -1.5834035 3 3203758000696 1 0
78.6576 -9.999536 0.46083826 84 3203758000696 1 1
42.892784 -9.787326 -0.25570095 7 3203758003000 1 1
13.654831 -2.4209254 -1.4937897 3 3203758003000 1 0
15.580804 -4.368565 -1.510527 3 3203758005304 1 0
0 0 0 1 3203758005304 1 0
19.84422 -3.5245214 -1.4093598 4 3203758007608 1 0
17.430628 -3.9857435 -1.4596786 30 3203758009912 1 0
83.67558 -23.474848 1.0117499 28 3203758007608 1 0
112.83014 -25.818237 2.0203605 29 3203758012216 1 0
205.5617 -26.260134 6.0310497 44 3203758009912 1 0
21.326159 -2.7276878 -1.3779012 3 3203758012216 1 0
22.473782 -6.3160367 -1.3595228 5 3203758014520 1 0
154.40897 -27.497475 9.133873 28 3203758014520 1 0
91.19481 -20.896868 3.811667 29 3203758016824 1 0
27.154129 -4.8399434 -1.2848173 4 3203758016824 1 0
25.90324 -5.9397717 -1.3927644 8 3203758019128 1 0
0 0 0 1 3203758019128 1 0
0 0 0 8 3203758021432 1 0
30.23799 -3.8863163 -1.2420605 4 3203758021432 1 0
33.044968 -9.308749 -1.1988676 5 3203758023736 1 0
0 0 0 9 3203758023736 1 0
0 0 0 29 3203758026040 1 0
42.68283 -7.634679 -1.008969 72 3203758026040 1 0
0 0 0 4 3203758046776 1 0
48.30467 -6.2908278 -0.85028124 8 3203758046776 1 0
40.254982 -9.314257 -1.2024863 8 3203758049080 1 0
0 0 0 1 3203758049080 1 0
0 0 0 49 3203758051384 1 0
0 0 0 3 3203758051384 1 0
0 0 0 28 3203758053688 1 0
10.042563 -1.8148601 -1.5876971 4 3203758053688 1 0
12.122142 -2.8101332 -1.5839086 3 3203758055992 1 0
