# .PCD v.7 - Point Cloud Data file format
VERSION .7
FIELDS x y z rgb timestamp_ns device_id active
SIZE 4 4 4 4 8 1 1
TYPE F F F F F U U
COUNT 1 1 1 1 1 1 1
WIDTH 1016
HEIGHT 1
VIEWPOINT 0 0 0 1 0 0 0
POINTS 1016               
DATA ascii
8.550971 19.965345 -1.391972 64 3207537328288 1 0
11.58551 18.83689 -1.2878956 97 3207537330592 1 0
9.910822 20.326199 1.3169651 9 3207537330592 1 0
11.287395 20.53028 0.9545043 35 3207537332896 1 0
9.404822 19.28132 -0.9993024 83 3207537332896 1 0
10.485392 19.064974 -1.1402959 78 3207537335200 1 0
25.225887 51.69783 7.06306 50 3207537335200 1 0
28.409132 51.63687 4.811244 27 3207537337504 1 0
8.560435 19.955355 -0.88465065 61 3207537337504 1 0
11.598558 18.833542 -0.7723957 81 3207537339808 1 0
10.400986 21.300014 6.3514194 8 3207537339808 1 0
9.4166765 19.277151 -0.499227 100 3207537342112 1 0
28.466127 51.70485 10.761415 58 3207537342112 1 0
0 0 0 4 3207537362296 1 0
8.4111805 19.530542 -0.3711778 85 3207537362296 1 0
2.9545808 6.02883 -1.8794794 5 3207537364600 1 0
10.537737 19.082518 -0.6344064 81 3207537364600 1 0
4.701641 8.511156 -1.944699 2 3207537366904 1 0
9.53474 19.448505 0 70 3207537366904 1 0
11.647681 18.84081 -0.25787327 40 3207537369208 1 0
5.7954903 11.817014 -2.0476496 7 3207537369208 1 0
7.905233 14.300634 -2.0798903 7 3207537371512 1 0
0 0 0 3 3207537371512 1 0
8.023472 16.347841 -1.9615896 6 3207537373816 1 0
11.149361 18.017166 -1.9778497 4 3207537376120 1 0
10.560868 19.09814 -0.1268392 90 3207537373816 1 0
10.666127 21.724268 0.5631541 7 3207537376120 1 0
11.65443 18.827229 0.25778013 28 3207537378424 1 0
10.559435 19.07589 -1.7799292 83 3207537380728 1 0
9.464051 19.268852 -1.5011593 76 3207537378424 1 0
9.365642 21.67731 0.68723476 50 3207537380728 1 0
11.483068 20.737339 0.41376165 47 3207537383032 1 0
8.6234665 19.951536 -1.3929952 59 3207537383032 1 0
11.671048 18.835705 -1.2904537 75 3207537385336 1 0
10.346428 21.042168 1.3655694 42 3207537385336 1 0
9.484582 19.282295 -1.0009775 87 3207537387640 1 0
10.569859 19.06853 -1.1425986 75 3207537389944 1 0
25.48658 51.79557 7.087921 51 3207537389944 1 0
28.920473 52.15602 4.8685246 28 3207537392248 1 0
8.636089 19.948864 -0.88562757 63 3207537392248 1 0
11.34379 20.47176 0.95352733 65 3207537387640 1 0
0 0 0 86 3207537394552 1 0
9.756389 19.81305 5.917639 5 3207537394552 1 0
28.685162 51.696194 10.779351 58 3207537396856 1 0
9.499989 19.285278 -0.5002506 98 3207537396856 1 0
0 0 0 4 3207537417592 1 0
8.487277 19.519402 -0.37152684 76 3207537417592 1 0
10.627624 19.087538 -0.6358027 66 3207537419896 1 0
2.972193 6.0115743 -1.8773228 4 3207537419896 1 0
4.7236876 8.480986 -1.9415612 2 3207537422200 1 0
9.61321 19.436617 0 63 3207537422200 1 0
0 0 0 84 3207537424504 1 0
5.8261876 11.775456 -2.04396 7 3207537424504 1 0
7.949308 14.262554 -2.0783749 7 3207537426808 1 0
21.342089 49.00546 0.31065843 36 3207537426808 1 0
8.073429 16.30548 -1.959876 6 3207537429112 1 0
11.566332 20.74508 -0.13804458 49 3207537429112 1 0
11.203754 17.96462 -1.9763627 4 3207537431416 1 0
21.222874 42.847046 1.1126294 7 3207537431416 1 0
9.545427 19.264301 -1.5033915 76 3207537433720 1 0
0 0 0 43 3207537433720 1 0
10.641501 19.066765 -1.7825329 51 3207537436024 1 0
0 0 0 13 3207537436024 1 0
11.567083 20.71808 0.41418052 100 3207537438328 1 0
8.715409 19.972534 -1.3965769 19 3207537438328 1 0
0 0 0 24 3207537440632 1 0
10.389649 20.945108 1.3616159 24 3207537440632 1 0
11.432725 20.46344 0.9549928 52 3207537442936 1 0
10.655843 19.066385 -1.1446921 69 3207537445240 1 0
9.564264 19.274124 -1.0022804 87 3207537442936 1 0
25.700766 51.773857 7.097183 51 3207537445240 1 0
0 0 0 8 3207537447544 1 0
8.718476 19.947893 -0.8869302 17 3207537447544 1 0
0 0 0 10 3207537449848 1 0
10.263821 20.66124 6.181634 5 3207537449848 1 0
28.91155 51.67817 10.796571 58 3207537452152 1 0
9.576147 19.269905 -0.50071585 98 3207537452152 1 0
0 0 0 4 3207537472888 1 0
8.568221 19.518953 -0.3720853 70 3207537472888 1 0
10.954495 19.51403 -0.65127885 31 3207537475192 1 0
2.9948785 6.0046096 -1.8784012 4 3207537475192 1 0
4.7590246 8.474705 -1.9439145 1 3207537477496 1 0
10.314968 20.673563 0 35 3207537477496 1 0
25.002045 39.81807 -0.54736376 17 3207537479800 1 0
5.8601956 11.740902 -2.0415006 7 3207537479800 1 0
7.999045 14.234719 -2.0783749 7 3207537482104 1 0
21.575806 49.073467 0.31156507 36 3207537482104 1 0
11.656316 20.735962 -0.13825381 100 3207537484408 1 0
8.124965 16.266523 -1.9585909 5 3207537484408 1 0
11.257916 17.911915 -1.9748756 4 3207537486712 1 0
10.297388 20.608309 0.53607583 2 3207537486712 1 0
32.261333 51.312843 0.7056359 22 3207537489016 1 0
9.628671 19.262987 -1.5059028 80 3207537489016 1 0
0 0 0 9 3207537491320 1 0
10.15485 23.060453 0.73331416 19 3207537491320 1 0
11.65895 20.71243 0.4148786 100 3207537493624 1 0
8.727139 19.81048 -1.3873669 14 3207537493624 1 0
16.381512 26.03019 -1.791147 8 3207537495928 1 0
10.409089 20.801582 1.3546392 10 3207537495928 1 0
11.527623 20.465195 0.95694673 52 3207537498232 1 0
9.644006 19.265633 -1.0035833 90 3207537498232 1 0
0 0 0 8 3207537500536 1 0
29.44049 52.23069 4.8945613 28 3207537502840 1 0
9.57054 21.690777 -0.9659023 7 3207537502840 1 0
23.509163 37.307846 -1.5399054 8 3207537505144 1 0
0 0 0 48 3207537505144 1 0
25.927553 51.776127 7.1098576 51 3207537500536 1 0
29.161364 51.700325 10.8224 58 3207537507448 1 0
9.654105 19.25781 -0.50127417 90 3207537507448 1 0
8.649265 19.518177 -0.37264377 82 3207537528184 1 0
0 0 0 4 3207537528184 1 0
11.034362 19.496552 -0.65197706 15 3207537530488 1 0
3.0140889 5.990678 -1.8773228 4 3207537530488 1 0
10.39786 20.658869 0 85 3207537532792 1 0
24.96123 39.446644 -0.5434523 23 3207537535096 1 0
4.753794 8.396603 -1.9297942 2 3207537532792 1 0
5.8975883 11.713314 -2.0402708 7 3207537535096 1 0
8.033037 14.179091 -2.0743344 7 3207537537400 1 0
9.677582 21.804447 0.13864902 34 3207537537400 1 0
11.738488 20.712547 -0.13837004 52 3207537539704 1 0
8.185275 16.245167 -1.9594476 5 3207537539704 1 0
11.309717 17.855684 -1.9730167 4 3207537542008 1 0
0 0 0 31 3207537542008 1 0
32.506615 51.304657 0.7070794 22 3207537544312 1 0
9.713818 19.264889 -1.508693 26 3207537544312 1 0
11.146153 19.647383 -1.8440444 5 3207537546616 1 0
10.251526 23.061401 0.7344778 23 3207537546616 1 0
11.739075 20.68552 0.41515785 41 3207537548920 1 0
8.789749 19.765306 -1.3863436 3 3207537548920 1 0
16.455164 25.94587 -1.7892865 8 3207537551224 1 0
10.411459 20.626093 1.3455695 10 3207537551224 1 0
11.612805 20.44916 0.95808655 52 3207537553528 1 0
9.752621 19.313887 -1.0078641 27 3207537553528 1 0
11.268145 19.835522 -1.1955626 6 3207537555832 1 0
26.12782 51.72429 7.1152196 77 3207537555832 1 0
29.480812 51.878044 4.871128 28 3207537558136 1 0
8.7892275 19.733204 -0.8800914 4 3207537558136 1 0
23.61139 37.181686 -1.5380906 8 3207537560440 1 0
10.4235 20.620115 6.1909513 8 3207537560440 1 0
29.36305 51.635845 10.830292 58 3207537562744 1 0
10.425055 20.615744 -0.53756464 33 3207537562744 1 0
0 0 0 4 3207537583480 1 0
8.732041 19.520723 -0.37327206 76 3207537583480 1 0
11.127968 19.503143 -0.65348977 62 3207537585784 1 0
3.0331953 5.9767075 -1.8762445 3 3207537585784 1 0
10.4786625 20.640434 0 82 3207537588088 1 0
4.825727 8.45497 -1.9470525 2 3207537588088 1 0
5.925657 11.668118 -2.0359664 7 3207537590392 1 0
8.086006 14.158091 -2.0753446 7 3207537592696 1 0
9.939426 22.18696 0.14129925 21 3207537592696 1 0
0 0 0 38 3207537595000 1 0
24.925877 39.090023 -0.53972715 45 3207537590392 1 0
8.243144 16.22034 -1.959876 6 3207537595000 1 0
10.378498 20.415173 0.532912 47 3207537597304 1 0
32.805576 51.3847 0.70973355 23 3207537599608 1 0
0 0 0 5 3207537599608 1 0
11.344147 19.837423 -1.8655246 7 3207537601912 1 0
9.775794 21.789412 0.69503105 38 3207537601912 1 0
0 0 0 43 3207537604216 1 0
0 0 0 49 3207537604216 1 0
11.364771 17.806522 -1.9719013 4 3207537597304 1 0
16.535149 25.876017 -1.7883563 8 3207537606520 1 0
11.019941 21.647306 1.4146386 10 3207537606520 1 0
11.696382 20.433714 0.95922637 45 3207537608824 1 0
0 0 0 2 3207537608824 1 0
26.370384 51.76596 7.1332564 78 3207537611128 1 0
11.363375 19.845587 -1.1984934 9 3207537611128 1 0
8.910264 19.823538 -0.8854648 31 3207537613432 1 0
29.551805 51.594273 4.853879 28 3207537613432 1 0
23.687706 37.024006 -1.5348799 8 3207537615736 1 0
0 0 0 9 3207537615736 1 0
29.61185 51.665993 10.857556 58 3207537618040 1 0
0 0 0 4 3207537618040 1 0
0 0 0 4 3207537638776 1 0
8.811533 19.524467 -0.37390035 74 3207537638776 1 0
0 0 0 37 3207537641080 1 0
3.0530415 5.966594 -1.8762445 3 3207537641080 1 0
4.8362603 8.408251 -1.9399922 1 3207537643384 1 0
10.563754 20.637465 0 97 3207537643384 1 0
24.898415 38.76094 -0.53632796 33 3207537645688 1 0
5.9573655 11.634201 -2.0335066 7 3207537645688 1 0
9.204661 20.363949 0.12988465 6 3207537647992 1 0
8.127385 14.1206455 -2.0738294 9 3207537647992 1 0
20.778622 36.08896 -0.24203134 6 3207537650296 1 0
11.415916 17.754839 -1.9704143 4 3207537652600 1 0
8.302917 16.203234 -1.9611611 8 3207537650296 1 0
10.452501 20.390863 0.53319114 42 3207537652600 1 0
33.036823 51.36478 0.7109908 34 3207537654904 1 0
10.035901 19.571142 -1.5379907 4 3207537654904 1 0
11.273657 19.560698 -1.843068 7 3207537657208 1 0
9.474947 20.929466 0.66861683 9 3207537657208 1 0
30.071558 52.159023 1.050914 14 3207537659512 1 0
8.922436 19.701382 -1.3860878 4 3207537659512 1 0
16.635714 25.83998 -1.7897516 8 3207537661816 1 0
11.082295 21.588524 1.4132433 32 3207537661816 1 0
0 0 0 14 3207537664120 1 0
10.049959 19.570505 -1.0248015 2 3207537664120 1 0
11.416875 19.78258 -1.197028 9 3207537666424 1 0
26.54641 51.67591 7.1332564 52 3207537666424 1 0
0 0 0 8 3207537668728 1 0
8.918389 19.662 -0.8796029 6 3207537668728 1 0
23.792454 36.90923 -1.5334839 8 3207537671032 1 0
0 0 0 9 3207537671032 1 0
10.091473 19.623243 -0.51346403 2 3207537673336 1 0
0 0 0 4 3207537694072 1 0
29.824076 51.625595 10.870471 58 3207537673336 1 0
8.887922 19.51179 -0.3742494 76 3207537694072 1 0
11.290681 19.478752 -0.6552352 6 3207537696376 1 0
3.0738502 5.9559007 -1.8762445 4 3207537696376 1 0
10.652244 20.632452 0 97 3207537698680 1 0
24.883596 38.442112 -0.533115 55 3207537700984 1 0
5.996126 11.609823 -2.0328918 7 3207537700984 1 0
8.170651 14.081893 -2.072314 7 3207537703288 1 0
9.257426 20.291664 0.12962893 29 3207537703288 1 0
4.8596787 8.381138 -1.9376389 1 3207537698680 1 0
22.663408 39.046677 -0.26239628 7 3207537705592 1 0
8.3594265 16.174152 -1.9611611 8 3207537705592 1 0
11.471326 17.704855 -1.969299 4 3207537707896 1 0
10.540145 20.386223 0.53402865 42 3207537707896 1 0
10.111488 19.550167 -1.5391068 4 3207537710200 1 0
33.28118 51.34984 0.71238774 23 3207537710200 1 0
11.325846 19.493649 -1.8404644 26 3207537712504 1 0
0 0 0 62 3207537712504 1 0
30.378042 52.26812 1.0552423 14 3207537714808 1 0
9.060851 19.8226 -1.3968327 7 3207537714808 1 0
16.727983 25.7851 -1.7899842 8 3207537717112 1 0
11.141062 21.517792 1.4111503 21 3207537717112 1 0
10.132913 19.56369 -1.0262904 5 3207537719416 1 0
11.530051 19.818567 -1.2016336 3 3207537721720 1 0
26.766813 51.660484 7.143981 52 3207537721720 1 0
0 0 0 8 3207537724024 1 0
11.203894 19.264393 0.9079352 45 3207537719416 1 0
9.427833 20.593754 -0.9227526 78 3207537724024 1 0
23.888481 36.775665 -1.53139 8 3207537726328 1 0
0 0 0 9 3207537726328 1 0
30.079353 51.650394 10.897735 58 3207537728632 1 0
10.169115 19.605648 -0.5139293 4 3207537728632 1 0
0 0 0 4 3207537749368 1 0
8.966001 19.502449 -0.37466827 74 3207537749368 1 0
17.763075 30.39989 -1.024685 6 3207537751672 1 0
3.0910645 5.938301 -1.8740879 3 3207537751672 1 0
4.8928633 8.370896 -1.9392078 1 3207537753976 1 0
10.738978 20.623526 0 42 3207537753976 1 0
24.921488 38.207615 -0.53106624 11 3207537756280 1 0
6.031138 11.578306 -2.031047 7 3207537756280 1 0
8.20974 14.03616 -2.0697887 7 3207537758584 1 0
9.299762 20.19746 0.12923372 12 3207537758584 1 0
22.823809 39.00876 -0.26267526 7 3207537760888 1 0
8.415833 16.144873 -1.9611611 6 3207537760888 1 0
11.50693 17.624687 -1.9648376 4 3207537763192 1 0
10.626034 20.377674 0.53477305 42 3207537763192 1 0
33.517086 51.320423 0.7135984 35 3207537765496 1 0
0 0 0 7 3207537765496 1 0
11.407926 19.478075 -1.8427426 9 3207537767800 1 0
9.73971 21.1206 0.6768786 12 3207537767800 1 0
0 0 0 15 3207537770104 1 0
16.817888 25.726553 -1.7899842 8 3207537772408 1 0
9.079825 19.68211 -1.3891578 5 3207537770104 1 0
11.21056 21.468153 1.4104526 7 3207537772408 1 0
11.204366 19.111387 0.90256184 51 3207537774712 1 0
0 0 0 6 3207537774712 1 0
17.667501 30.125574 -1.830293 7 3207537777016 1 0
26.996626 51.66174 7.1571426 52 3207537777016 1 0
9.092317 19.67908 -0.88318515 10 3207537779320 1 0
24.01014 36.682022 -1.5309712 8 3207537781624 1 0
0 0 0 9 3207537781624 1 0
30.329191 51.66386 10.922846 58 3207537783928 1 0
10.254172 19.601921 -0.51476675 4 3207537783928 1 0
30.53623 52.051216 4.926456 28 3207537779320 1 0
0 0 0 4 3207537804664 1 0
9.045805 19.496428 -0.37515694 70 3207537804664 1 0
0 0 0 14 3207537806968 1 0
3.1081932 5.920654 -1.8719313 2 3207537806968 1 0
4.9061246 8.326731 -1.932932 1 3207537809272 1 0
0 0 0 3 3207537809272 1 0
6.0678406 11.550185 -2.0298173 7 3207537811576 1 0
0 0 0 13 3207537811576 1 0
8.254655 14.000582 -2.0687785 7 3207537813880 1 0
9.252215 19.910955 0.12760638 21 3207537813880 1 0
0 0 0 31 3207537816184 1 0
8.473989 16.11892 -1.9615896 6 3207537816184 1 0
11.561814 17.57443 -1.9637222 4 3207537818488 1 0
10.25038 19.491022 0.51244044 28 3207537818488 1 0
33.777378 51.326736 0.7153213 36 3207537820792 1 0
10.331328 19.638012 -1.551663 6 3207537820792 1 0
11.230602 19.022732 -1.8033621 47 3207537823096 1 0
9.772886 20.999474 0.67408586 16 3207537823096 1 0
11.18157 18.93339 0.38381332 54 3207537825400 1 0
0 0 0 78 3207537825400 1 0
16.905392 25.664356 -1.7897516 8 3207537827704 1 0
22.211735 42.17587 2.776022 15 3207537827704 1 0
11.285243 19.096247 0.9037016 51 3207537830008 1 0
10.380989 19.704576 -1.037458 10 3207537830008 1 0
27.213816 51.637436 7.1668925 53 3207537832312 1 0
30.510748 51.59428 4.8932595 28 3207537834616 1 0
9.605152 20.59988 -0.92600924 45 3207537834616 1 0
24.085215 36.5179 -1.5276208 8 3207537836920 1 0
0 0 0 9 3207537836920 1 0
0 0 0 100 3207537832312 1 0
30.533394 51.598316 10.931456 58 3207537839224 1 0
0 0 0 4 3207537859960 1 0
10.337461 19.594303 -0.5155112 4 3207537839224 1 0
9.130764 19.500954 -0.37585503 63 3207537859960 1 0
11.220517 18.898756 -0.63964266 66 3207537862264 1 0
3.1306436 5.9131727 -1.8730096 2 3207537862264 1 0
10.214344 19.286112 0 21 3207537864568 1 0
4.9331574 8.306183 -1.9321475 1 3207537864568 1 0
25.074986 37.86263 -0.5286914 73 3207537866872 1 0
6.10257 11.518456 -2.0279725 7 3207537866872 1 0
8.301448 13.968271 -2.0682735 7 3207537869176 1 0
9.235051 19.69384 0.12642075 36 3207537869176 1 0
11.236075 18.899906 -0.12779236 100 3207537871480 1 0
8.537655 16.103296 -1.9633031 8 3207537871480 1 0
11.605486 17.507408 -1.9607481 4 3207537873784 1 0
10.249027 19.32441 0.5089975 34 3207537873784 1 0
10.440958 19.679377 -1.5578016 12 3207537876088 1 0
34.02486 51.311855 0.71676475 36 3207537876088 1 0
11.233733 18.877209 -1.793273 67 3207537878392 1 0
10.0211935 21.337996 0.68607116 20 3207537878392 1 0
11.247592 18.894243 0.38381332 90 3207537880696 1 0
9.264538 19.719402 -1.396321 5 3207537880696 1 0
17.005917 25.621824 -1.7909144 8 3207537883000 1 0
22.452473 42.274414 2.7876499 15 3207537883000 1 0
11.376377 19.09794 0.90565556 51 3207537885304 1 0
10.404714 19.583536 -1.0329909 7 3207537885304 1 0
11.258479 18.893772 -1.1526471 71 3207537887608 1 0
27.444206 51.636784 7.180054 79 3207537887608 1 0
30.690659 51.487465 4.8932595 28 3207537889912 1 0
9.248198 19.654903 -0.88497627 12 3207537889912 1 0
24.212538 36.4336 -1.5276208 8 3207537892216 1 0
30.797985 51.63336 10.96159 58 3207537894520 1 0
0 0 0 9 3207537892216 1 0
0 0 0 21 3207537894520 1 0
9.212448 19.49789 -0.3764135 74 3207537915256 1 0
0 0 0 4 3207537915256 1 0
11.30079 18.883492 -0.6404572 78 3207537917560 1 0
4.9923415 8.339393 -1.9439145 2 3207537919864 1 0
3.149451 5.898811 -1.8719313 3 3207537917560 1 0
10.23826 19.16919 0 68 3207537919864 1 0
25.231419 37.811466 -0.52920365 66 3207537922168 1 0
6.1390147 11.490111 -2.0267427 7 3207537922168 1 0
8.342 13.925592 -2.0662532 7 3207537924472 1 0
9.250702 19.549402 0.12570007 38 3207537924472 1 0
11.314316 18.881155 -0.12793185 96 3207537926776 1 0
8.588188 16.062874 -1.9620179 8 3207537926776 1 0
11.653255 17.44692 -1.9585174 4 3207537929080 1 0
10.329621 19.313198 0.50964886 58 3207537929080 1 0
34.2882 51.31915 0.71853423 36 3207537931384 1 0
0 0 0 64 3207537931384 1 0
11.3200655 18.872068 -1.7965276 81 3207537933688 1 0
10.141848 21.400438 0.6892129 32 3207537933688 1 0
11.331996 18.88573 0.3844416 87 3207537935992 1 0
0 0 0 34 3207537935992 1 0
17.07083 25.525793 -1.7883563 8 3207537938296 1 0
22.66589 42.31899 2.7957892 15 3207537938296 1 0
10.257889 19.14559 -1.0117728 65 3207537940600 1 0
11.328476 18.861206 -1.1530658 75 3207537942904 1 0
27.661795 51.610657 7.1898036 53 3207537942904 1 0
30.937954 51.492794 4.9039993 28 3207537945208 1 0
9.246467 19.474476 -0.8783003 36 3207537945208 1 0
24.315102 36.312325 -1.5260851 8 3207537947512 1 0
11.465603 19.095804 0.9074467 51 3207537940600 1 0
0 0 0 9 3207537947512 1 0
31.008446 51.57613 10.972352 29 3207537949816 1 0
10.267925 19.137568 -0.5053685 57 3207537949816 1 0
0 0 0 4 3207537970552 1 0
9.227097 19.353703 -0.3742494 48 3207537970552 1 0
11.387288 18.878164 -0.6416208 78 3207537972856 1 0
3.1700225 5.887781 -1.8719313 2 3207537972856 1 0
4.9991307 8.284974 -1.9352854 1 3207537975160 1 0
10.28804 19.101639 0 93 3207537975160 1 0
25.369946 37.73312 -0.5293433 66 3207537977464 1 0
6.1903334 11.48949 -2.0304322 8 3207537977464 1 0
8.384405 13.886198 -2.064738 9 3207537979768 1 0
9.33095 19.54226 0.1258628 40 3207537979768 1 0
11.404971 18.882633 -0.12821081 94 3207537982072 1 0
8.64043 16.025797 -1.9611611 8 3207537982072 1 0
11.69185 17.373095 -1.9547997 4 3207537984376 1 0
10.402669 19.287582 0.50992805 50 3207537984376 1 0
34.507336 51.258873 0.7193724 24 3207537986680 1 0
11.406499 18.866556 -1.7997822 81 3207537988984 1 0
10.301465 19.093292 -1.5170637 86 3207537986680 1 0
11.422688 18.887127 0.38527933 81 3207537991288 1 0
9.243499 19.322952 -1.3727846 66 3207537991288 1 0
10.200964 21.332443 0.68816566 26 3207537988984 1 0
17.173216 25.48592 -1.7897516 8 3207537993592 1 0
11.554952 19.093279 0.9092378 54 3207537995896 1 0
22.828653 42.26772 2.7976496 15 3207537993592 1 0
10.318958 19.09912 -1.0112144 90 3207537995896 1 0
11.417001 18.859137 -1.1553686 75 3207537998200 1 0
27.894636 51.61158 7.203453 54 3207537998200 1 0
31.13403 51.411766 4.9066033 28 3207538000504 1 0
9.255678 19.319532 -0.8727641 60 3207538000504 1 0
24.426056 36.20403 -1.525108 8 3207538002808 1 0
0 0 0 9 3207538002808 1 0
31.247435 51.565174 10.993159 58 3207538005112 1 0
10.323248 19.080505 -0.50481015 91 3207538005112 1 0
0 0 0 4 3207538026296 1 0
9.291129 19.314167 -0.37410977 76 3207538026296 1 0
11.469733 18.865633 -0.6425517 78 3207538028600 1 0
3.1868796 5.8699093 -1.8697747 2 3207538028600 1 0
5.0178294 8.250717 -1.9313631 2 3207538030904 1 0
10.375654 19.104277 0 89 3207538030904 1 0
25.555344 37.72381 -0.5304609 66 3207538033208 1 0
6.2077594 11.426136 -2.0230532 7 3207538033208 1 0
8.430763 13.853457 -2.0642328 7 3207538035512 1 0
9.412997 19.538397 0.12604879 38 3207538035512 1 0
11.491613 18.876873 -0.12844329 94 3207538037816 1 0
8.703917 16.009514 -1.9628747 6 3207538037816 1 0
11.736775 17.309103 -1.9521972 4 3207538040120 1 0
10.483306 19.275743 0.5105794 54 3207538040120 1 0
34.782593 51.28044 0.72137463 37 3207538042424 1 0
10.371864 19.064228 -1.5176219 88 3207538042424 1 0
11.495107 18.864075 -1.8033621 83 3207538044728 1 0
10.235404 21.21388 0.68548936 30 3207538044728 1 0
11.509362 18.881289 0.38597742 78 3207538047032 1 0
9.316097 19.301353 -1.3735521 78 3207538047032 1 0
17.262075 25.425817 -1.7897516 8 3207538049336 1 0
22.981787 42.198296 2.7983475 15 3207538049336 1 0
11.625691 19.059652 0.9095635 21 3207538051640 1 0
10.389387 19.07 -1.0115867 87 3207538051640 1 0
11.499406 18.846447 -1.1570433 75 3207538053944 1 0
28.116423 51.590588 7.2141776 54 3207538053944 1 0
0 0 0 8 3207538056248 1 0
9.324799 19.290705 -0.87292695 82 3207538056248 1 0
24.552282 36.118546 -1.525108 8 3207538058552 1 0
31.478518 51.539745 11.011096 58 3207538060856 1 0
0 0 0 9 3207538058552 1 0
10.403194 19.068928 -0.5054615 100 3207538060856 1 0
0 0 0 4 3207538081592 1 0
9.370716 19.306803 -0.37459844 74 3207538081592 1 0
11.554317 18.856163 -0.643599 81 3207538083896 1 0
3.2110496 5.8655066 -1.8719313 2 3207538083896 1 0
5.0424995 8.226463 -1.9297942 1 3207538086200 1 0
10.457648 19.09601 0 87 3207538086200 1 0
25.731964 37.700443 -0.53139216 60 3207538088504 1 0
6.2172227 11.348935 -2.0132146 6 3207538088504 1 0
8.4769945 13.820561 -2.0637279 7 3207538090808 1 0
9.500377 19.544992 0.1263045 38 3207538090808 1 0
11.578354 18.870739 -0.12867577 92 3207538093112 1 0
8.76166 15.982521 -1.9633031 8 3207538093112 1 0
11.790384 17.258163 -1.9510819 4 3207538095416 1 0
10.569756 19.274096 0.51150995 54 3207538095416 1 0
35.03586 51.267693 0.72291124 37 3207538097720 1 0
10.45754 19.062891 -1.5204121 90 3207538097720 1 0
11.588008 18.867998 -1.8075931 87 3207538100024 1 0
10.295392 21.149263 0.68455845 6 3207538100024 1 0
11.596135 18.875074 0.3866755 68 3207538102328 1 0
9.399144 19.301018 -1.3758546 81 3207538102328 1 0
17.357485 25.375296 -1.7904493 8 3207538104632 1 0
23.228897 42.299828 2.8104403 15 3207538104632 1 0
0 0 0 14 3207538106936 1 0
10.473205 19.065138 -1.0132618 97 3207538106936 1 0
11.581862 18.833412 -1.1587181 75 3207538109240 1 0
32.085438 52.15753 4.9990335 28 3207538111544 1 0
28.347961 51.586075 7.2273397 54 3207538109240 1 0
9.409598 19.293959 -0.87455523 74 3207538111544 1 0
24.673693 36.026028 -1.5248288 8 3207538113848 1 0
0 0 0 9 3207538113848 1 0
31.740746 51.563595 11.039795 58 3207538116152 1 0
0 0 0 4 3207538136888 1 0
10.4870405 19.064032 -0.50629896 100 3207538116152 1 0
9.450364 19.299118 -0.3750871 76 3207538136888 1 0
11.638975 18.846333 -0.6446462 37 3207538139192 1 0
3.2277813 5.847518 -1.8697747 2 3207538139192 1 0
5.0629387 8.195463 -1.9266562 2 3207538141496 1 0
10.543577 19.094406 0 89 3207538141496 1 0
25.917799 37.68949 -0.5325097 55 3207538143800 1 0
6.2415113 11.299486 -2.0082953 7 3207538143800 1 0
8.521013 13.784137 -2.0627177 9 3207538146104 1 0
9.57911 19.533258 0.126444 38 3207538146104 1 0
0 0 0 85 3207538148408 1 0
8.823167 15.962282 -1.9645883 8 3207538148408 1 0
11.850554 17.216902 -1.9510819 4 3207538150712 1 0
10.656321 19.27208 0.51244044 36 3207538150712 1 0
10.5414 19.057697 -1.5229234 92 3207538153016 1 0
35.296257 51.26368 0.72458756 25 3207538153016 1 0
11.670585 18.854551 -1.8101968 21 3207538155320 1 0
10.517209 21.41466 0.69433284 19 3207538155320 1 0
0 0 0 21 3207538157624 1 0
9.478782 19.293169 -1.3776454 79 3207538157624 1 0
17.44369 25.311264 -1.7902167 8 3207538159928 1 0
32.166336 51.916077 2.4881918 29 3207538162232 1 0
0 0 0 27 3207538159928 1 0
10.557116 19.059921 -1.0149369 92 3207538162232 1 0
11.6664715 18.823427 -1.1606022 40 3207538164536 1 0
28.564417 51.552788 7.236602 54 3207538164536 1 0
32.10975 51.79109 4.9746237 28 3207538166840 1 0
9.489241 19.286098 -0.875695 82 3207538166840 1 0
24.742538 35.85742 -1.5213388 8 3207538169144 1 0
0 0 0 9 3207538169144 1 0
31.995226 51.572865 11.065624 58 3207538171448 1 0
10.56904 19.055286 -0.5070434 100 3207538171448 1 0
0 0 0 4 3207538192184 1 0
0 0 0 9 3207538194488 1 0
3.244427 5.8294835 -1.8676181 3 3207538194488 1 0
9.537159 19.305456 -0.37585503 72 3207538192184 1 0
5.097735 8.18773 -1.9290097 2 3207538196792 1 0
10.631568 19.095928 0 89 3207538196792 1 0
26.149427 37.74345 -0.53455853 44 3207538199096 1 0
6.2713003 11.260365 -2.005221 6 3207538199096 1 0
8.56488 13.747573 -2.0617075 7 3207538201400 1 0
9.718184 19.643108 0.1273739 74 3207538201400 1 0
0 0 0 9 3207538203704 1 0
8.876896 15.927913 -1.9641598 8 3207538203704 1 0
11.915119 17.181976 -1.9518254 4 3207538206008 1 0
11.525796 20.673792 0.5507781 61 3207538206008 1 0
35.484104 51.153305 0.7247738 25 3207538208312 1 0
0 0 0 19 3207538210616 1 0
0 0 0 6 3207538210616 1 0
10.629238 19.059118 -1.5259926 88 3207538208312 1 0
9.558478 19.285002 -1.3794363 79 3207538212920 1 0
32.14034 51.50528 1.0597101 30 3207538212920 1 0
11.274216 20.194899 1.3469648 30 3207538215224 1 0
17.52055 25.23382 -1.7890539 8 3207538215224 1 0
32.20977 51.583126 2.477608 29 3207538217528 1 0
0 0 0 8 3207538219832 1 0
28.806156 51.56368 7.252201 55 3207538219832 1 0
32.155136 51.462303 4.9537945 28 3207538222136 1 0
9.567165 19.274338 -0.87667197 82 3207538222136 1 0
10.645013 19.061327 -1.0169842 87 3207538217528 1 0
24.906343 35.826637 -1.523712 8 3207538224440 1 0
0 0 0 9 3207538224440 1 0
32.212605 51.520924 11.078539 58 3207538226744 1 0
10.655009 19.053179 -0.5079739 99 3207538226744 1 0
0 0 0 4 3207538247480 1 0
9.61876 19.300684 -0.3764135 70 3207538247480 1 0
3.2665985 5.821506 -1.8686965 2 3207538249784 1 0
5.1136575 8.150025 -1.9243028 2 3207538252088 1 0
0 0 0 9 3207538249784 1 0
11.63571 20.729647 0 100 3207538252088 1 0
35.679714 51.119522 -0.7257517 39 3207538254392 1 0
6.3083878 11.235097 -2.004606 4 3207538254392 1 0
8.608197 13.711122 -2.0606973 7 3207538256696 1 0
9.787909 19.61293 0.12739715 66 3207538256696 1 0
8.931863 15.897154 -1.9641598 6 3207538259000 1 0
0 0 0 9 3207538259000 1 0
11.971994 17.137537 -1.9514537 4 3207538261304 1 0
11.616584 20.668798 0.55170864 75 3207538261304 1 0
35.70338 51.09324 0.72565854 38 3207538263608 1 0
10.708423 19.046793 -1.5279458 20 3207538263608 1 0
0 0 0 43 3207538265912 1 0
32.299538 51.367805 1.0591516 29 3207538268216 1 0
12.6749735 20.16392 -1.9442854 8 3207538265912 1 0
9.633403 19.27 -1.3807154 27 3207538268216 1 0
17.615849 25.186876 -1.7899842 8 3207538270520 1 0
11.313799 20.104046 1.3434765 20 3207538270520 1 0
32.84099 52.19689 2.5124533 87 3207538272824 1 0
0 0 0 12 3207538272824 1 0
18.45566 29.324114 -1.8158484 6 3207538275128 1 0
0 0 0 8 3207538277432 1 0
29.024338 51.541447 7.2629256 55 3207538275128 1 0
9.652248 19.281048 -0.8784631 36 3207538277432 1 0
24.977167 35.669987 -1.5206409 8 3207538279736 1 0
0 0 0 9 3207538279736 1 0
32.466347 51.538223 11.105803 58 3207538282040 1 0
0 0 0 6 3207538282040 1 0
0 0 0 4 3207538302776 1 0
10.383055 20.662373 -0.40363926 72 3207538302776 1 0
0 0 0 9 3207538305080 1 0
3.2858853 5.810642 -1.8686965 2 3207538305080 1 0
5.140656 8.133023 -1.9243028 2 3207538307384 1 0
11.724083 20.725763 0 100 3207538307384 1 0
35.92954 51.11545 -0.72738147 29 3207538309688 1 0
6.34561 11.214115 -2.004606 1 3207538309688 1 0
8.645134 13.669086 -2.0586772 7 3207538311992 1 0
9.8475 19.569645 0.12732741 74 3207538311992 1 0
8.98845 15.874369 -1.9650166 8 3207538314296 1 0
24.965185 39.46115 -0.27139312 8 3207538314296 1 0
12.028759 17.097742 -1.9514537 4 3207538316600 1 0
11.698855 20.65452 0.55236 75 3207538316600 1 0
35.93937 51.06942 0.72700894 38 3207538318904 1 0
0 0 0 1 3207538318904 1 0
12.733238 20.108303 -1.9429836 5 3207538321208 1 0
10.246537 20.334644 0.66268235 26 3207538321208 1 0
33.002586 52.101692 1.0765343 15 3207538323512 1 0
0 0 0 9 3207538323512 1 0
17.706173 25.138117 -1.7906818 8 3207538325816 1 0
11.402073 20.104628 1.3460346 20 3207538325816 1 0
0 0 0 4 3207538328120 1 0
33.05241 52.148464 2.5153842 87 3207538328120 1 0
18.582747 29.309982 -1.8187791 6 3207538330424 1 0
29.251923 51.54505 7.2770624 56 3207538330424 1 0
33.12972 52.238503 5.0498047 28 3207538332728 1 0
0 0 0 3 3207538332728 1 0
25.088404 35.577164 -1.5202221 8 3207538335032 1 0
0 0 0 9 3207538335032 1 0
32.664482 51.473473 11.115129 29 3207538337336 1 0
0 0 0 3 3207538337336 1 0
0 0 0 4 3207538358072 1 0
24.9357 39.173264 -1.3514298 9 3207538360376 1 0
10.467785 20.659935 -0.40426755 75 3207538358072 1 0
3.3033133 5.7963185 -1.8676181 3 3207538360376 1 0
5.1594067 8.102547 -1.921165 2 3207538362680 1 0
0 0 0 11 3207538362680 1 0
36.165783 51.085854 -0.72868526 19 3207538364984 1 0
6.383251 11.192733 -2.004606 1 3207538364984 1 0
8.682679 13.6264515 -2.0566568 7 3207538367288 1 0
9.906237 19.522038 0.12723441 80 3207538367288 1 0
0 0 0 9 3207538369592 1 0
9.050078 15.857634 -1.9667302 6 3207538369592 1 0
12.091485 17.063204 -1.9521972 4 3207538371896 1 0
11.792875 20.65626 0.55347663 17 3207538371896 1 0
36.192356 51.057224 0.7285921 39 3207538374200 1 0
11.34106 19.85782 -1.5990974 9 3207538374200 1 0
12.800039 20.061117 -1.9426582 5 3207538376504 1 0
10.310841 20.28866 0.66233325 30 3207538376504 1 0
33.205654 52.024704 1.0773021 31 3207538378808 1 0
9.973358 19.617176 -1.4103917 3 3207538378808 1 0
17.797707 25.083187 -1.791147 8 3207538381112 1 0
11.225835 19.635172 1.3171977 29 3207538381112 1 0
33.229183 52.02652 2.5150585 29 3207538383416 1 0
11.32891 19.80844 -1.062957 11 3207538383416 1 0
18.646233 29.184347 -1.8150109 6 3207538385720 1 0
29.471102 51.51155 7.286812 56 3207538385720 1 0
33.205273 51.954094 5.0335317 28 3207538388024 1 0
9.977584 19.595848 -0.8958858 4 3207538388024 1 0
25.20421 35.4756 -1.5196637 8 3207538390328 1 0
32.93949 51.50357 11.146699 29 3207538392632 1 0
0 0 0 9 3207538390328 1 0
11.159439 19.484493 -0.52249014 4 3207538392632 1 0
0 0 0 4 3207538413368 1 0
10.561644 20.65704 -0.40496564 82 3207538413368 1 0
24.800268 38.647694 -1.3364191 9 3207538415672 1 0
3.326413 5.787536 -1.8686965 2 3207538415672 1 0
5.1847143 8.077056 -1.9195961 2 3207538417976 1 0
0 0 0 3 3207538417976 1 0
36.170475 50.69978 -0.72505325 9 3207538420280 1 0
6.3983707 11.124861 -1.9966121 1 3207538420280 1 0
8.723591 13.581436 -2.0546365 7 3207538422584 1 0
9.97351 19.478767 0.12718792 84 3207538422584 1 0
0 0 0 9 3207538424888 1 0
9.107564 15.824688 -1.9667302 6 3207538424888 1 0
12.155515 17.022543 -1.952569 4 3207538427192 1 0
0 0 0 3 3207538427192 1 0
36.464996 51.049763 0.7303616 39 3207538429496 1 0
11.368946 19.74063 -1.5929588 6 3207538429496 1 0
10.400373 20.283358 0.66338056 31 3207538431800 1 0
12.87663 20.021524 -1.9433091 5 3207538431800 1 0
33.258556 51.6963 1.072974 46 3207538434104 1 0
10.051198 19.595356 -1.411415 3 3207538434104 1 0
17.88538 25.01584 -1.7909144 8 3207538436408 1 0
33.261894 51.668453 2.5034978 29 3207538438712 1 0
11.216525 19.456335 1.3078954 32 3207538436408 1 0
11.405843 19.77808 -1.0635153 8 3207538438712 1 0
18.8046 29.201406 -1.8202446 7 3207538441016 1 0
29.714735 51.508945 7.301436 56 3207538441016 1 0
33.17899 51.50675 5.001637 28 3207538443320 1 0
10.065752 19.595648 -0.8975141 4 3207538443320 1 0
25.323483 35.375813 -1.5192449 8 3207538445624 1 0
0 0 0 9 3207538445624 1 0
33.20558 51.515102 11.17468 29 3207538447928 1 0
11.2746525 19.524336 -0.5246303 4 3207538447928 1 0
0 0 0 4 3207538468664 1 0
10.648351 20.648483 -0.4055241 87 3207538468664 1 0
3.3388286 5.7625823 -1.8643832 2 3207538470968 1 0
24.765398 38.299187 -1.3273429 9 3207538470968 1 0
5.206369 8.049105 -1.9172426 2 3207538473272 1 0
22.853987 39.431805 0 46 3207538473272 1 0
35.51048 49.411236 -0.7083832 19 3207538475576 1 0
6.4408875 11.109438 -1.997842 1 3207538475576 1 0
8.757616 13.531171 -2.0516062 10 3207538477880 1 0
10.033536 19.42991 0.12709492 80 3207538477880 1 0
0 0 0 9 3207538480184 1 0
9.164168 15.796574 -1.9671586 8 3207538480184 1 0
12.225748 16.996708 -1.9544278 4 3207538482488 1 0
36.715134 51.027924 0.73185164 39 3207538484792 1 0
30.263964 52.15037 1.4030465 12 3207538482488 1 0
11.482858 19.780777 -1.5993764 6 3207538484792 1 0
10.436877 20.18361 0.661286 20 3207538487096 1 0
33.315784 51.3975 1.0691345 46 3207538489400 1 0
10.200788 19.720364 -1.4229274 5 3207538489400 1 0
17.970778 24.954563 -1.7909144 8 3207538491704 1 0
12.940942 19.970516 -1.9426582 5 3207538487096 1 0
11.240829 19.345379 1.3030118 39 3207538491704 1 0
33.333534 51.393757 2.495682 29 3207538494008 1 0
11.493312 19.773607 -1.0653766 5 3207538494008 1 0
18.910397 29.147291 -1.8208725 14 3207538496312 1 0
29.935766 51.486454 7.3126483 85 3207538496312 1 0
33.494793 51.611145 5.022792 28 3207538498616 1 0
10.165331 19.62523 -0.90044504 6 3207538498616 1 0
25.438543 35.283306 -1.5189657 8 3207538500920 1 0
0 0 0 9 3207538500920 1 0
33.422455 51.46853 11.18903 58 3207538503224 1 0
17.680733 30.380064 -0.817932 5 3207538503224 1 0
0 0 0 4 3207538523960 1 0
10.720455 20.620155 -0.40566373 25 3207538523960 1 0
24.9471 38.300426 -1.3302519 9 3207538526264 1 0
3.36573 5.76476 -1.8686965 2 3207538526264 1 0
0 0 0 3 3207538528568 1 0
5.23529 8.035006 -1.9180272 1 3207538528568 1 0
34.978733 48.3301 -0.6945536 9 3207538530872 1 0
6.4719524 11.077639 -1.9959972 1 3207538530872 1 0
8.794163 13.488503 -2.0495858 12 3207538533176 1 0
24.852795 38.107147 -0.2644188 7 3207538535480 1 0
10.091088 19.382046 0.12700194 74 3207538533176 1 0
9.209045 15.752028 -1.965445 8 3207538535480 1 0
30.54802 52.234802 1.4080714 12 3207538537784 1 0
36.964184 51.01089 0.73338825 13 3207538540088 1 0
0 0 0 80 3207538540088 1 0
12.977744 19.879997 -1.9381018 8 3207538542392 1 0
10.190681 19.545567 0.64150447 32 3207538542392 1 0
12.2734375 16.942635 -1.9529408 4 3207538537784 1 0
33.97485 52.027946 1.0846322 16 3207538544696 1 0
0 0 0 40 3207538544696 1 0
18.048206 24.883821 -1.7902167 8 3207538547000 1 0
11.324485 19.338186 1.3051047 35 3207538547000 1 0
18.301945 31.242783 -1.6866602 6 3207538549304 1 0
19.018229 29.096138 -1.82171 7 3207538551608 1 0
30.169031 51.483612 7.326785 57 3207538551608 1 0
34.11783 52.21372 2.5411112 29 3207538549304 1 0
33.85171 51.773556 5.0498047 28 3207538553912 1 0
10.293266 19.70735 -0.9058184 13 3207538553912 1 0
25.556643 35.19292 -1.5188261 8 3207538556216 1 0
33.669647 51.462414 11.212707 58 3207538558520 1 0
0 0 0 9 3207538556216 1 0
11.5792675 19.74033 -0.5325398 2 3207538558520 1 0
0 0 0 4 3207538579256 1 0
0 0 0 7 3207538579256 1 0
0 0 0 9 3207538581560 1 0
3.380013 5.742993 -1.8654615 2 3207538581560 1 0
5.2569637 8.006769 -1.9156737 1 3207538583864 1 0
0 0 0 100 3207538583864 1 0
35.75623 49.04077 -0.70656717 19 3207538586168 1 0
6.510823 11.054838 -1.9959972 1 3207538586168 1 0
8.835048 13.447517 -2.0480707 10 3207538588472 1 0
10.155526 19.339325 0.12695545 86 3207538588472 1 0
25.096888 38.186386 -0.26558122 7 3207538590776 1 0
9.2625265 15.716024 -1.9650166 8 3207538590776 1 0
12.337937 16.905586 -1.9536843 4 3207538593080 1 0
0 0 0 45 3207538593080 1 0
37.243664 51.015343 0.73534393 40 3207538595384 1 0
11.37599 19.288534 -1.5658933 14 3207538595384 1 0
13.046021 19.830486 -1.9377763 8 3207538597688 1 0
10.204149 19.403116 0.6380136 32 3207538597688 1 0
34.2344 52.02039 1.0870057 16 3207538599992 1 0
10.365232 19.70211 -1.4267648 3 3207538599992 1 0
18.146187 24.832249 -1.791147 8 3207538602296 1 0
11.415653 19.335535 1.3076628 35 3207538602296 1 0
34.27987 52.054844 2.5393202 29 3207538604600 1 0
0 0 0 28 3207538604600 1 0
19.117815 29.021235 -1.8212913 7 3207538606904 1 0
30.409588 51.47105 7.340434 57 3207538606904 1 0
10.37317 19.688 -0.90663254 6 3207538609208 1 0
34.247704 51.97144 5.0810485 28 3207538609208 1 0
25.675825 35.0912 -1.5184073 8 3207538611512 1 0
0 0 0 9 3207538611512 1 0
33.911003 51.426296 11.23136 58 3207538613816 1 0
0 0 0 60 3207538613816 1 0
0 0 0 4 3207538634552 1 0
10.194462 19.27025 -0.38053226 27 3207538634552 1 0
3.3990734 5.7272534 -1.8643832 2 3207538636856 1 0
25.150211 38.014038 -1.3265283 9 3207538636856 1 0
5.277616 7.974364 -1.9125358 1 3207538639160 1 0
11.216825 18.893164 0 91 3207538639160 1 0
6.5472603 11.024103 -1.9947674 1 3207538641464 1 0
35.933365 48.906166 -0.7065206 9 3207538641464 1 0
8.877704 13.405121 -2.0465553 9 3207538643768 1 0
10.201996 19.256025 0.12665322 38 3207538643768 1 0
25.23668 38.094147 -0.26558122 7 3207538646072 1 0
9.318035 15.678551 -1.9645883 8 3207538646072 1 0
12.390378 16.847418 -1.9521972 4 3207538648376 1 0
11.23963 18.905258 0.5117891 54 3207538648376 1 0
37.520462 51.000923 0.7371134 40 3207538650680 1 0
11.256921 18.92776 -1.5399439 60 3207538650680 1 0
13.109803 19.769247 -1.9364744 8 3207538652984 1 0
10.290189 19.39384 0.6389445 39 3207538652984 1 0
34.316505 51.73126 1.083585 32 3207538655288 1 0
18.227608 24.75271 -1.7902167 8 3207538657592 1 0
0 0 0 46 3207538655288 1 0
11.506873 19.327877 1.3099884 35 3207538657592 1 0
34.335598 51.725735 2.5293875 29 3207538659896 1 0
11.253094 18.895044 -1.0244292 70 3207538659896 1 0
19.241732 28.97759 -1.822966 7 3207538662200 1 0
30.634611 51.42064 7.349209 57 3207538662200 1 0
34.25487 51.56993 5.0540357 28 3207538664504 1 0
10.23703 19.258121 -0.8885585 61 3207538664504 1 0
25.797152 34.98721 -1.5179886 8 3207538666808 1 0
0 0 0 9 3207538666808 1 0
34.173325 51.413086 11.255754 29 3207538669112 1 0
11.25741 18.876055 -0.51141685 100 3207538669112 1 0
10.215024 19.155172 -0.37892663 49 3207538690296 1 0
0 0 0 4 3207538690296 1 0
25.267263 37.91712 -1.3260629 9 3207538692600 1 0
3.420024 5.719256 -1.8654615 2 3207538692600 1 0
5.2975044 7.9470277 -1.9101824 1 3207538694904 1 0
11.293789 18.879892 0 100 3207538694904 1 0
36.121513 48.822105 -0.7070328 9 3207538697208 1 0
6.577693 10.992157 -1.9929227 1 3207538697208 1 0
8.915502 13.365705 -2.0450401 7 3207538699512 1 0
10.226224 19.147995 0.12616502 56 3207538699512 1 0
25.473873 38.17661 -0.2667436 7 3207538701816 1 0
9.367932 15.644153 -1.9641598 8 3207538701816 1 0
12.443808 16.803036 -1.9518254 4 3207538704120 1 0
11.3187 18.895327 0.5125335 60 3207538704120 1 0
37.80128 51.02727 0.7393019 41 3207538706424 1 0
11.303217 18.862944 -1.5377117 88 3207538706424 1 0
13.15093 19.689198 -1.9328945 8 3207538708728 1 0
10.3638735 19.37724 0.6395263 40 3207538708728 1 0
34.345665 51.404346 1.0791172 47 3207538711032 1 0
10.229464 19.118914 -1.3896694 70 3207538711032 1 0
11.587337 19.317007 1.3118489 35 3207538713336 1 0
18.314348 24.698545 -1.7906818 8 3207538713336 1 0
34.360325 51.392303 2.5186408 58 3207538715640 1 0
11.321857 18.867903 -1.0249876 99 3207538715640 1 0
30.851955 51.39706 7.3604207 85 3207538717944 1 0
19.333279 28.906982 -1.8225473 7 3207538717944 1 0
34.321503 51.30032 5.038739 28 3207538720248 1 0
10.244207 19.118383 -0.88367367 57 3207538720248 1 0
25.901115 34.88542 -1.5172905 8 3207538722552 1 0
0 0 0 9 3207538722552 1 0
34.431194 51.43028 11.284454 29 3207538724856 1 0
11.330242 18.855759 -0.5118821 100 3207538724856 1 0
0 0 0 4 3207538745592 1 0
10.273794 19.096472 -0.3785078 74 3207538745592 1 0
25.570765 38.070053 -1.3346736 9 3207538747896 1 0
3.4389324 5.703409 -1.8643832 2 3207538747896 1 0
5.319918 7.9178686 -1.907829 1 3207538750200 1 0
11.387428 18.879639 0 100 3207538750200 1 0
6.6217813 10.974887 -1.9941524 1 3207538752504 1 0
36.248947 48.622837 -0.706055 9 3207538752504 1 0
8.950759 13.31344 -2.0420098 7 3207538754808 1 0
10.30906 19.135334 0.12632775 60 3207538754808 1 0
25.556437 38.00094 -0.2661624 7 3207538757112 1 0
9.414363 15.593033 -1.9620179 6 3207538757112 1 0
11.411864 18.895288 0.5136501 60 3207538759416 1 0
38.164898 51.13071 0.7427942 28 3207538761720 1 0
12.490288 16.738708 -1.9495947 4 3207538759416 1 0
11.38989 18.852707 -1.5402229 84 3207538761720 1 0
13.210732 19.625097 -1.9312671 8 3207538764024 1 0
10.450786 19.3714 0.64057356 42 3207538764024 1 0
34.95268 51.907368 1.0923113 16 3207538766328 1 0
10.303908 19.092505 -1.3904369 84 3207538766328 1 0
18.41252 24.645388 -1.791612 8 3207538768632 1 0
0 0 0 6 3207538768632 1 0
35.060246 52.034435 2.5562544 29 3207538770936 1 0
11.408044 18.857958 -1.0266627 91 3207538770936 1 0
19.44328 28.847563 -1.8231754 7 3207538773240 1 0
31.097317 51.388245 7.3750453 57 3207538773240 1 0
0 0 0 8 3207538775544 1 0
10.312407 19.081684 -0.88367367 76 3207538775544 1 0
20.25943 27.084623 -1.1811385 5 3207538777848 1 0
0 0 0 9 3207538777848 1 0
34.660088 51.37602 11.2995205 29 3207538780152 1 0
11.417942 18.84955 -0.5128127 100 3207538780152 1 0
0 0 0 4 3207538800888 1 0
10.35374 19.0851 -0.37899646 85 3207538800888 1 0
25.941036 38.331562 -1.3470081 9 3207538803192 1 0
3.4568198 5.6880784 -1.8633049 2 3207538803192 1 0
11.469884 18.867119 0 96 3207538805496 1 0
0 0 0 85 3207538805496 1 0
34.967766 46.564228 -0.6779301 8 3207538807800 1 0
6.651836 10.938198 -1.9916929 1 3207538807800 1 0
8.98605 13.26569 -2.0394843 7 3207538810104 1 0
10.389158 19.123835 0.12649049 64 3207538810104 1 0
25.78541 38.053886 -0.26716205 7 3207538812408 1 0
9.458398 15.543088 -1.959876 6 3207538812408 1 0
12.543855 16.68864 -1.9488512 4 3207538814712 1 0
11.496466 18.88608 0.5144876 62 3207538814712 1 0
34.90351 46.422394 0.6761607 10 3207538817016 1 0
11.4784565 18.850323 -1.5432923 85 3207538817016 1 0
10.539358 19.373436 0.6418536 42 3207538819320 1 0
13.274681 19.572266 -1.9306163 8 3207538819320 1 0
35.26838 51.98362 1.0964998 16 3207538821624 1 0
10.387664 19.087978 -1.3927394 87 3207538821624 1 0
18.493633 24.574585 -1.791147 8 3207538823928 1 0
31.38073 51.483948 3.5113642 56 3207538823928 1 0
35.34268 52.060535 2.5635817 29 3207538826232 1 0
11.494601 18.852137 -1.0285239 91 3207538826232 1 0
19.548346 28.786125 -1.8235941 7 3207538828536 1 0
31.35713 51.41157 7.394057 57 3207538828536 1 0
35.39752 52.10869 5.14256 28 3207538830840 1 0
10.396164 19.077154 -0.8851391 80 3207538830840 1 0
20.272058 26.905186 -1.1763922 5 3207538833144 1 0
0 0 0 9 3207538833144 1 0
34.92327 51.37839 11.326785 29 3207538835448 1 0
11.504507 18.84371 -0.51374316 100 3207538835448 1 0
0 0 0 4 3207538856184 1 0
10.443329 19.090948 -0.37983418 90 3207538856184 1 0
25.968815 38.085514 -1.341539 9 3207538858488 1 0
3.4786656 5.679262 -1.8643832 2 3207538858488 1 0
5.352964 7.848132 -1.8999844 57 3207538860792 1 0
11.556571 18.861073 0 100 3207538860792 1 0
35.166286 46.489735 -0.67862856 8 3207538863096 1 0
9.027827 13.227687 -2.0384743 7 3207538865400 1 0
10.476988 19.126043 0.12674621 62 3207538865400 1 0
25.990255 38.06936 -0.26790598 7 3207538867704 1 0
6.6837807 10.904802 -1.9898481 1 3207538863096 1 0
9.510517 15.506587 -1.9594476 6 3207538867704 1 0
12.587608 16.6257 -1.9466206 4 3207538870008 1 0
11.583233 18.879921 0.5154181 61 3207538870008 1 0
38.586124 50.949116 0.74405146 28 3207538872312 1 0
11.560884 18.837347 -1.5455245 85 3207538872312 1 0
13.338422 19.519224 -1.9299653 8 3207538874616 1 0
10.697298 19.50129 0.64732254 64 3207538874616 1 0
35.381912 51.761143 1.0944055 49 3207538876920 1 0
18.588951 24.52261 -1.7920772 8 3207538879224 1 0
10.473433 19.086597 -1.3952976 87 3207538876920 1 0
31.627138 51.482975 3.5188062 56 3207538879224 1 0
35.400093 51.755413 2.554626 29 3207538881528 1 0
11.577074 18.839132 -1.030013 91 3207538881528 1 0
19.650965 28.72101 -1.8238034 7 3207538883832 1 0
31.602932 51.410034 7.409656 57 3207538883832 1 0
35.32025 51.606464 5.1051326 28 3207538886136 1 0
10.481939 19.075777 -0.8867674 80 3207538886136 1 0
20.249847 26.681412 -1.1696916 5 3207538888440 1 0
0 0 0 9 3207538888440 1 0
35.200237 51.39903 11.358354 29 3207538890744 1 0
11.595363 18.844307 -0.5148598 100 3207538890744 1 0
0 0 0 4 3207538911480 1 0
26.00596 37.856598 -1.3366518 9 3207538913784 1 0
3.4923162 5.6573024 -1.8611484 2 3207538913784 1 0
5.3845415 7.836021 -1.9015533 49 3207538916088 1 0
11.638603 18.848183 0 38 3207538916088 1 0
10.529222 19.089397 -0.38053226 72 3207538911480 1 0
35.905647 47.128635 -0.68975747 9 3207538918392 1 0
6.72133 10.881699 -1.9898481 1 3207538918392 1 0
9.0596895 13.177003 -2.0354438 7 3207538920696 1 0
10.567715 19.135487 0.12704843 64 3207538920696 1 0
35.046066 50.958992 -0.35945523 12 3207538923000 1 0
9.557189 15.463841 -1.9581624 6 3207538923000 1 0
12.632045 16.566929 -1.9447616 4 3207538925304 1 0
0 0 0 12 3207538925304 1 0
37.198906 48.773125 0.7141106 23 3207538927608 1 0
11.643542 18.828606 -1.5480356 85 3207538927608 1 0
10.782388 19.500072 0.6484862 54 3207538929912 1 0
13.395167 19.46097 -1.9286635 5 3207538929912 1 0
35.399124 51.41468 1.0895886 32 3207538932216 1 0
10.556821 19.086233 -1.397856 85 3207538932216 1 0
18.72176 24.526945 -1.7969608 8 3207538934520 1 0
31.87484 51.499123 3.527178 56 3207538934520 1 0
35.40449 51.393665 2.5425768 58 3207538936824 1 0
11.656583 18.827648 -1.031502 65 3207538936824 1 0
19.81636 28.757654 -1.830293 7 3207538939128 1 0
31.82968 51.396088 7.422818 57 3207538939128 1 0
35.318485 51.240097 5.0803976 28 3207538941432 1 0
10.566161 19.079525 -0.8885585 74 3207538941432 1 0
20.223362 26.465418 -1.1631304 5 3207538943736 1 0
0 0 0 9 3207538943736 1 0
35.40623 51.33863 11.370551 29 3207538946040 1 0
11.669609 18.826654 -0.5154181 47 3207538946040 1 0
0 0 0 4 3207538966776 1 0
10.606624 19.087688 -0.38116056 49 3207538966776 1 0
26.323732 38.060043 -1.3467754 9 3207538969080 1 0
3.5082026 5.6429296 -1.86007 2 3207538969080 1 0
5.4073553 7.815526 -1.9007688 49 3207538971384 1 0
0 0 0 3 3207538971384 1 0
22.55519 29.407778 -0.43146512 3 3207538973688 1 0
6.743903 10.839804 -1.9861586 1 3207538973688 1 0
11.5442 20.743673 0.13797483 55 3207538975992 1 0
9.093536 13.134367 -2.0334234 7 3207538975992 1 0
35.3022 50.971764 -0.3603619 25 3207538978296 1 0
9.601662 15.4222145 -1.9568772 6 3207538978296 1 0
12.682063 16.51863 -1.9440181 4 3207538980600 1 0
0 0 0 1 3207538980600 1 0
37.96847 49.438286 0.72570515 12 3207538982904 1 0
0 0 0 7 3207538982904 1 0
13.435772 19.37962 -1.9250834 5 3207538985208 1 0
10.836446 19.442625 0.647788 31 3207538985208 1 0
35.510086 51.201885 1.087634 48 3207538987512 1 0
10.637269 19.078085 -1.3999026 24 3207538987512 1 0
18.815573 24.475203 -1.7978911 8 3207538989816 1 0
32.100025 51.467342 3.532527 56 3207538989816 1 0
35.53205 51.198566 2.5389946 87 3207538992120 1 0
0 0 0 2 3207538992120 1 0
19.918901 28.691587 -1.8305024 7 3207538994424 1 0
32.05934 51.3655 7.4345174 57 3207538994424 1 0
35.607777 51.272648 5.0960197 28 3207538996728 1 0
10.641045 19.056175 -0.8892098 31 3207538996728 1 0
20.285458 26.3523 -1.1613157 5 3207538999032 1 0
0 0 0 9 3207538999032 1 0
35.6885 51.353806 11.40212 29 3207539001336 1 0
0 0 0 4 3207539001336 1 0
0 0 0 4 3207539022072 1 0
11.628504 20.738708 -0.41501823 86 3207539022072 1 0
30.294872 43.446205 -1.5414492 13 3207539024376 1 0
3.527675 5.626231 -1.8589917 2 3207539024376 1 0
5.432497 7.788509 -1.8991998 49 3207539026680 1 0
30.594383 48.779507 0 11 3207539026680 1 0
22.624437 29.268642 -0.4306735 3 3207539028984 1 0
6.749058 10.757356 -1.9757051 2 3207539028984 1 0
9.135945 13.09039 -2.0319083 7 3207539031288 1 0
11.635666 20.724623 0.13813756 77 3207539031288 1 0
35.737106 51.190647 -0.36284938 38 3207539033592 1 0
9.654901 15.379551 -1.9560205 6 3207539033592 1 0
12.716433 16.43683 -1.9399287 4 3207539035896 1 0
32.265453 51.38074 1.4117935 25 3207539035896 1 0
37.790653 48.832973 0.71886015 24 3207539038200 1 0
14.348137 22.841515 -1.8862151 6 3207539038200 1 0
13.445058 19.24201 -1.9162961 5 3207539040504 1 0
10.901756 19.39232 0.64743894 22 3207539040504 1 0
0 0 0 4 3207539042808 1 0
35.75826 51.16068 1.0895188 48 3207539042808 1 0
18.91876 24.425842 -1.7992864 8 3207539045112 1 0
32.315964 51.39808 3.5357828 56 3207539045112 1 0
35.807743 51.201336 2.5455077 87 3207539047416 1 0
20.0283 28.629955 -1.8311304 7 3207539049720 1 0
32.3148 51.36472 7.451092 57 3207539049720 1 0
35.837883 51.214294 5.1028543 28 3207539052024 1 0
0 0 0 1 3207539052024 1 0
19.192081 30.515373 -1.6792152 6 3207539047416 1 0
20.251085 26.116169 -1.1540565 5 3207539054328 1 0
0 0 0 9 3207539054328 1 0
35.956684 51.35385 11.430101 29 3207539056632 1 0
25.029016 39.747326 -1.0929954 17 3207539056632 1 0
11.71492 20.73137 -0.41564652 86 3207539077368 1 0
0 0 0 4 3207539077368 1 0
30.588451 43.55797 -1.5490128 14 3207539079672 1 0
3.5484107 5.617733 -1.86007 2 3207539079672 1 0
5.4606624 7.7735815 -1.8999844 15 3207539081976 1 0
30.814371 48.76864 0 23 3207539081976 1 0
6.7764807 10.721404 -1.9732455 1 3207539084280 1 0
22.960308 29.499125 -0.43519026 8 3207539084280 1 0
9.170557 13.04677 -2.029888 7 3207539086584 1 0
11.716748 20.70647 0.13827705 40 3207539086584 1 0
35.97524 51.16544 -0.36352357 39 3207539088888 1 0
