# .PCD v.7 - Point Cloud Data file format
VERSION .7
FIELDS x y z rgb timestamp_ns device_id active
SIZE 4 4 4 4 8 1 1
TYPE F F F F F U U
COUNT 1 1 1 1 1 1 1
WIDTH 944
HEIGHT 1
VIEWPOINT 0 0 0 1 0 0 0
POINTS 944               
DATA ascii
-5.742294 14.210296 -0.53521866 6 3202122533624 1 0
-9.312816 17.81125 5.3855066 20 3202122533624 1 0
-10.738929 18.295525 -0.864297 34 3202122531320 1 0
-9.921517 21.477053 4.3134623 15 3202122535928 1 0
-9.391533 17.968164 -0.4717765 24 3202122535928 1 0
-1.7267402 3.7507534 -1.9254488 4 3202122556664 1 0
-10.422121 17.82104 -0.36035728 18 3202122556664 1 0
-3.4109433 6.5491047 -2.0671039 4 3202122558968 1 0
-15.513196 33.710026 -1.079957 7 3202122558968 1 0
-4.855359 10.55469 -2.3235977 1 3202122561272 1 0
-9.860358 18.93888 0 28 3202122561272 1 0
-6.871461 17.097609 -0.21452188 26 3202122563576 1 0
-7.443089 14.301088 -2.508217 10 3202122563576 1 0
-6.6604924 14.48983 -2.029888 36 3202122565880 1 0
-19.944775 34.14963 0.22984956 12 3202122565880 1 0
-8.954892 19.488743 -0.12465393 21 3202122568184 1 0
-8.516409 16.374985 -1.9881496 42 3202122568184 1 0
-5.696862 14.19286 -1.4276209 7 3202122570488 1 0
-9.754441 18.762085 0.49206194 20 3202122570488 1 0
-6.8600235 17.09789 0.21447532 15 3202122572792 1 0
-9.119669 17.547375 -1.3828523 51 3202122572792 1 0
-6.65024 14.489735 -1.3015062 30 3202122575096 1 0
-19.961126 34.22333 1.1530324 5 3202122575096 1 0
-9.120396 15.642138 -1.1604456 1 3202122577400 1 0
-8.46704 18.45531 0.35442346 20 3202122577400 1 0
-5.6828766 14.181878 -0.8897596 6 3202122579704 1 0
-10.152865 19.556221 1.2832445 37 3202122579704 1 0
0 0 0 68 3202122582008 1 0
-9.103406 17.541016 -0.92057174 58 3202122582008 1 0
-6.7096868 14.641722 -0.8440743 27 3202122584312 1 0
-9.960624 19.199585 2.6557767 27 3202122584312 1 0
-11.2272215 24.509192 2.2007463 12 3202122586616 1 0
-10.6026 18.20856 -0.85843515 14 3202122586616 1 0
-5.664445 14.159733 -0.5325663 6 3202122588920 1 0
-9.327052 17.991146 5.4300237 14 3202122588920 1 0
-10.588414 23.132437 4.6384788 35 3202122591224 1 0
-9.440994 18.217415 -0.4774527 26 3202122591224 1 0
-1.7136372 3.756758 -1.9254488 3 3202122611960 1 0
-10.45217 18.016441 -0.36356854 50 3202122611960 1 0
0 0 0 14 3202122614264 1 0
-3.3880618 6.5609713 -2.0671039 4 3202122614264 1 0
-4.815233 10.564436 -2.3220286 1 3202122616568 1 0
-9.801528 18.987402 0 40 3202122616568 1 0
0 0 0 28 3202122618872 1 0
-7.3768115 14.295371 -2.502683 10 3202122618872 1 0
-6.5884924 14.466047 -2.023322 39 3202122621176 1 0
0 0 0 29 3202122621176 1 0
-8.813886 19.359703 -0.12363103 46 3202122623480 1 0
0 0 0 6 3202122623480 1 0
-9.743857 18.902655 0.49485353 24 3202122625784 1 0
-5.6252255 14.157141 -1.4220443 7 3202122625784 1 0
-8.724049 21.96533 0.27514863 23 3202122628088 1 0
-9.019979 17.504614 -1.3769928 52 3202122628088 1 0
-6.573216 14.454794 -1.2962987 16 3202122630392 1 0
-8.587931 18.892532 0.36224216 40 3202122632696 1 0
-9.073733 15.6877 -1.1614689 1 3202122632696 1 0
-19.941662 34.46584 1.1588506 5 3202122630392 1 0
-5.6200867 14.168221 -0.8876666 6 3202122635000 1 0
-10.057126 19.538284 1.2797562 15 3202122635000 1 0
-9.007386 17.50518 -0.9170354 54 3202122637304 1 0
-9.037771 19.897495 0.8903496 11 3202122637304 1 0
-6.63872 14.621408 -0.84156215 27 3202122639608 1 0
-9.875384 19.198933 2.650902 20 3202122639608 1 0
-10.456166 23.03802 2.0653558 7 3202122641912 1 0
-12.398089 21.464025 -1.0098662 18 3202122641912 1 0
-5.601737 14.145968 -0.53130996 6 3202122644216 1 0
-9.144087 17.789923 5.359625 12 3202122644216 1 0
0 0 0 94 3202122646520 1 0
-9.40476 18.303614 -0.4788485 26 3202122646520 1 0
-1.7034992 3.7693238 -1.9288298 3 3202122667256 1 0
-10.387222 18.04935 -0.36349872 64 3202122667256 1 0
-12.316141 27.262426 -0.8706215 73 3202122669560 1 0
-3.36865 6.579615 -2.0692606 5 3202122669560 1 0
-9.716967 18.985893 0 28 3202122671864 1 0
-10.909783 27.703188 -0.34662488 28 3202122674168 1 0
-4.7702556 10.563307 -2.3181064 1 3202122671864 1 0
-7.326866 14.3210335 -2.502683 10 3202122674168 1 0
-6.5183716 14.445555 -2.017261 36 3202122676472 1 0
-10.489739 18.252043 0.12235241 26 3202122676472 1 0
-8.742965 19.38306 -0.12358453 31 3202122678776 1 0
-7.5492034 14.766204 -1.7863787 25 3202122678776 1 0
-5.5597386 14.135921 -1.4179547 7 3202122681080 1 0
-9.62868 18.840408 0.4923411 39 3202122681080 1 0
-8.644395 21.988205 0.27505553 14 3202122683384 1 0
-8.926145 17.47203 -1.3719703 52 3202122683384 1 0
-6.493242 14.412223 -1.2904406 6 3202122685688 1 0
0 0 0 99 3202122685688 1 0
-8.5794115 19.050026 0.36468548 30 3202122687992 1 0
-9.018918 15.719278 -1.1614689 1 3202122687992 1 0
-9.972527 19.54126 1.2776631 18 3202122690296 1 0
-5.556002 14.150583 -0.885341 4 3202122690296 1 0
-8.913543 17.472448 -0.91368514 56 3202122692600 1 0
-9.019105 20.041906 0.89539737 34 3202122692600 1 0
-6.4893184 14.425918 -0.82900155 6 3202122694904 1 0
-9.737965 19.09535 2.6318903 17 3202122694904 1 0
-9.688987 21.547237 1.9286635 33 3202122697208 1 0
-12.565498 21.930243 -1.0297314 6 3202122697208 1 0
-5.5421124 14.139383 -0.53033274 6 3202122699512 1 0
-9.083687 17.825176 5.36066 16 3202122699512 1 0
-9.970244 22.189978 4.4354334 6 3202122701816 1 0
-1.6873685 3.7686298 -1.9254488 3 3202122722552 1 0
-9.340812 18.33633 -0.4788485 22 3202122701816 1 0
-10.403465 18.224432 -0.3662911 24 3202122722552 1 0
-12.198035 27.254158 -0.86899245 73 3202122724856 1 0
-3.3439188 6.587899 -2.0681822 5 3202122724856 1 0
-4.7429647 10.601376 -2.3228133 1 3202122727160 1 0
-9.657874 19.033964 0 42 3202122727160 1 0
-10.778153 27.651663 -0.34550735 37 3202122729464 1 0
-7.2732563 14.339472 -2.5014532 12 3202122729464 1 0
-6.4954376 14.529803 -2.0258474 21 3202122731768 1 0
-10.505204 18.427546 0.12328231 24 3202122731768 1 0
-8.745424 19.570492 -0.12458418 31 3202122734072 1 0
-7.46525 14.728613 -1.7786678 25 3202122734072 1 0
-5.498803 14.12555 -1.4149805 7 3202122736376 1 0
-9.571893 18.89174 0.49280638 20 3202122736376 1 0
-8.5748415 22.036882 0.27528834 14 3202122738680 1 0
-6.420145 14.383833 -1.2858841 8 3202122740984 1 0
-8.827239 17.42833 -1.3661108 40 3202122738680 1 0
-10.672209 18.745834 0.6277737 30 3202122740984 1 0
-9.735038 21.819118 0.4170427 11 3202122743288 1 0
-9.050868 15.903314 -1.1727254 1 3202122743288 1 0
-5.4906626 14.128948 -0.8827829 4 3202122745592 1 0
-9.891635 19.55101 1.2760352 21 3202122745592 1 0
-9.474742 21.252329 0.94799113 12 3202122747896 1 0
-8.814629 17.428577 -0.9097765 58 3202122747896 1 0
-6.412907 14.390104 -0.82565206 6 3202122750200 1 0
-9.87725 19.536684 2.6879501 23 3202122750200 1 0
-12.548117 22.07821 -1.0346162 6 3202122752504 1 0
-5.4797106 14.1251 -0.5290764 6 3202122754808 1 0
0 0 0 17 3202122752504 1 0
0 0 0 12 3202122757112 1 0
-9.274946 18.365255 -0.4787554 13 3202122757112 1 0
-9.085874 17.984373 5.3989654 24 3202122754808 1 0
-1.6742033 3.7744968 -1.9254488 4 3202122777296 1 0
-12.097964 27.285606 -0.86864334 43 3202122779600 1 0
-10.418611 18.399843 -0.3690835 38 3202122777296 1 0
-3.319171 6.5960903 -2.0671039 4 3202122779600 1 0
-4.702751 10.610695 -2.3212442 2 3202122781904 1 0
-8.931698 17.75613 0 26 3202122781904 1 0
-10.672928 27.666727 -0.34522796 40 3202122784208 1 0
-7.208953 14.336524 -2.4965339 11 3202122784208 1 0
-6.480028 14.632206 -2.036959 22 3202122786512 1 0
-10.517601 18.599894 0.124188974 20 3202122786512 1 0
-8.706202 19.666737 -0.12500264 31 3202122788816 1 0
-7.390579 14.708385 -1.7730987 27 3202122788816 1 0
-5.4351444 14.107494 -1.4112628 7 3202122791120 1 0
-8.918951 17.756517 0.46237817 21 3202122791120 1 0
-8.503615 22.081612 0.27547458 23 3202122793424 1 0
0 0 0 12 3202122793424 1 0
-6.3457136 14.351463 -1.2810023 8 3202122795728 1 0
-10.6499605 18.859566 0.63033366 34 3202122795728 1 0
-8.957121 20.26539 0.38674533 28 3202122798032 1 0
-9.009037 15.959144 -1.1745162 1 3202122798032 1 0
-5.428409 14.114484 -0.8806899 6 3202122800336 1 0
-9.792894 19.524738 1.2720817 34 3202122800336 1 0
-9.440866 21.376673 0.9520619 48 3202122802640 1 0
-8.734038 17.41995 -0.90772915 60 3202122802640 1 0
-6.3400517 14.361242 -0.82272124 6 3202122804944 1 0
-9.7004795 19.354532 2.658214 27 3202122804944 1 0
-10.30448 23.350504 2.0835814 11 3202122807248 1 0
-5.420342 14.118018 -0.5280992 6 3202122809552 1 0
-10.16873 18.038 -0.8436177 5 3202122807248 1 0
-9.004009 17.977978 5.387577 26 3202122809552 1 0
-9.329255 21.157253 4.2158856 17 3202122811856 1 0
-1.6595594 3.776999 -1.9237583 3 3202122832592 1 0
-8.8974905 17.771751 -0.46247122 16 3202122811856 1 0
0 0 0 18 3202122834896 1 0
-3.2978454 6.611083 -2.0681822 6 3202122834896 1 0
-4.668838 10.634229 -2.3228133 1 3202122837200 1 0
-9.444432 18.939842 0 32 3202122837200 1 0
-10.338653 18.408203 -0.36852503 34 3202122832592 1 0
-10.596259 27.756126 -0.34587985 28 3202122839504 1 0
-7.1482854 14.340377 -2.4928443 10 3202122839504 1 0
-6.4209423 14.636568 -2.0344336 16 3202122841808 1 0
-10.356733 18.46555 0.12304984 31 3202122841808 1 0
-8.410999 19.180496 -0.12172472 14 3202122844112 1 0
-5.37026 14.085445 -1.4071732 5 3202122846416 1 0
-9.532458 19.144249 0.49764508 24 3202122846416 1 0
-8.440728 22.148535 0.27594024 40 3202122848720 1 0
-7.3433633 14.753218 -1.1523769 2 3202122848720 1 0
-6.2779846 14.333356 -1.2774222 8 3202122851024 1 0
-7.3072753 14.670016 -1.7653878 25 3202122844112 1 0
-10.597741 18.921045 0.6311482 13 3202122851024 1 0
-8.897555 20.322178 0.387234 14 3202122853328 1 0
-5.3634825 14.092294 -0.87813175 6 3202122855632 1 0
-8.937673 15.96263 -1.1724696 1 3202122853328 1 0
-9.799349 19.70898 1.2818491 21 3202122855632 1 0
-9.303717 21.266695 0.94571155 21 3202122857936 1 0
-8.69274 17.48969 -0.9097765 66 3202122857936 1 0
-6.2754784 14.350347 -0.82083714 6 3202122860240 1 0
-9.648759 19.420275 2.6626015 30 3202122860240 1 0
-8.634062 19.751623 1.7597508 8 3202122862544 1 0
-10.049138 17.972221 -0.8388956 5 3202122862544 1 0
-5.342632 14.062114 -0.52530724 6 3202122864848 1 0
-8.975562 18.078512 5.4082828 20 3202122864848 1 0
-9.271096 21.22575 4.2230606 27 3202122867152 1 0
-9.738497 19.622374 -0.5097419 74 3202122867152 1 0
-1.6492585 3.789417 -1.9271393 3 3202122887888 1 0
-9.910381 17.790823 -0.35547063 28 3202122887888 1 0
-15.432797 35.47184 -1.1258037 8 3202122890192 1 0
-3.2714298 6.6156015 -2.0660255 6 3202122890192 1 0
-4.627306 10.639536 -2.3204598 2 3202122892496 1 0
-9.201554 18.613842 0 22 3202122892496 1 0
-10.507588 27.811195 -0.3461127 34 3202122894800 1 0
-7.0953093 14.357844 -2.4916146 8 3202122894800 1 0
-6.350104 14.611213 -2.0278678 21 3202122897104 1 0
-10.301068 18.51497 0.12314282 35 3202122897104 1 0
-8.399584 19.333866 -0.12251514 88 3202122899408 1 0
-7.2359595 14.652117 -1.7602471 25 3202122899408 1 0
-5.309635 14.070106 -1.4038272 10 3202122901712 1 0
-9.41414 19.069008 0.49485353 37 3202122901712 1 0
-8.354328 22.147074 0.2755677 33 3202122904016 1 0
-7.284495 14.760128 -1.1509818 1 3202122904016 1 0
-6.210538 14.310573 -1.2735168 8 3202122906320 1 0
-10.471688 18.844858 0.62742466 21 3202122906320 1 0
-9.3926935 21.650784 0.4119466 81 3202122908624 1 0
-8.986731 16.177513 -1.1860286 1 3202122908624 1 0
-5.3008237 14.069053 -0.87557364 6 3202122910928 1 0
-9.710407 19.695091 1.2788259 28 3202122910928 1 0
-9.305959 21.466244 0.95320165 32 3202122913232 1 0
-8.660936 17.572306 -0.9125684 64 3202122913232 1 0
-6.210385 14.330761 -0.8185344 6 3202122915536 1 0
-9.605363 19.494902 2.668451 27 3202122915536 1 0
-9.388125 21.671324 1.9280126 10 3202122917840 1 0
-12.549232 22.618462 -1.05383 6 3202122917840 1 0
-5.286528 14.053408 -0.52433 6 3202122920144 1 0
-9.196896 21.245142 4.220908 12 3202122922448 1 0
0 0 0 19 3202122920144 1 0
-9.255686 18.803823 -0.48768848 63 3202122922448 1 0
-1.634473 3.7879224 -1.9237583 3 3202122943184 1 0
-9.8467 17.80787 -0.35519138 24 3202122943184 1 0
-12.72808 29.510546 -0.9353188 5 3202122945488 1 0
-3.2538304 6.6328573 -2.0681822 5 3202122945488 1 0
-4.594791 10.657889 -2.3212442 1 3202122947792 1 0
-8.969358 18.291227 0 21 3202122947792 1 0
-10.434554 27.889933 -0.34667146 2 3202122950096 1 0
-7.048913 14.38068 -2.4916146 7 3202122950096 1 0
-6.282061 14.584448 -2.0213017 18 3202122952400 1 0
-10.267759 18.597458 0.123468295 31 3202122952400 1 0
-7.166767 14.632962 -1.7551064 25 3202122954704 1 0
-8.438803 19.600174 -0.12402624 38 3202122954704 1 0
-5.2490096 14.050327 -1.4001094 9 3202122957008 1 0
-9.327995 19.05343 0.49364382 28 3202122957008 1 0
-8.296985 22.21986 0.2761265 14 3202122959312 1 0
-7.1999993 14.712731 -1.1454012 1 3202122959312 1 0
-6.1448917 14.29116 -1.2699367 8 3202122961616 1 0
-10.311527 18.705011 0.6216065 28 3202122961616 1 0
-9.2968445 21.631184 0.41096926 76 3202122963920 1 0
-8.933546 16.211502 -1.1862844 1 3202122963920 1 0
-5.239945 14.05349 -0.8734807 7 3202122966224 1 0
-9.360427 19.1507 1.2413844 39 3202122966224 1 0
0 0 0 14 3202122968528 1 0
-8.579009 17.5591 -0.9103349 20 3202122968528 1 0
-6.138266 14.300962 -0.81560355 6 3202122970832 1 0
-9.593008 19.642471 2.6840503 26 3202122970832 1 0
-9.344799 21.781174 1.9348471 47 3202122973136 1 0
-12.577437 22.858582 -1.0629485 9 3202122973136 1 0
-8.814493 18.063053 5.3855066 6 3202122975440 1 0
-5.2296505 14.053348 -0.52363205 6 3202122975440 1 0
-9.113071 21.259829 4.217321 31 3202122977744 1 0
-9.176075 18.811659 -0.4870371 22 3202122977744 1 0
-1.6241869 3.8041725 -1.9288298 4 3202122998480 1 0
-9.7090645 17.719282 -0.35267824 16 3202122998480 1 0
-6.386241 14.963285 -0.47347754 6 3202123000784 1 0
-3.2268481 6.6417437 -2.0671039 5 3202123000784 1 0
-4.5544553 10.675189 -2.3212442 1 3202123003088 1 0
-8.9001255 18.325014 0 43 3202123003088 1 0
-6.9810905 14.378585 -2.4866953 8 3202123005392 1 0
-18.893381 51.0823 -0.6340665 7 3202123005392 1 0
-6.2074847 14.560286 -2.0147357 12 3202123007696 1 0
-10.213805 18.66363 0.123654276 28 3202123007696 1 0
-8.366337 19.631216 -0.12402624 48 3202123010000 1 0
-7.088355 14.609246 -1.749109 25 3202123010000 1 0
-5.1822963 14.028376 -1.3960199 9 3202123012304 1 0
-9.22145 19.011932 0.49168974 28 3202123012304 1 0
-7.139491 14.724452 -1.1442852 1 3202123014608 1 0
-6.076126 14.272881 -1.2663567 11 3202123016912 1 0
-10.169203 18.605253 0.6170684 27 3202123016912 1 0
-10.5133295 28.470844 0.35333017 27 3202123014608 1 0
-9.130125 21.454546 0.4069901 36 3202123019216 1 0
-5.178984 14.042025 -0.8716202 7 3202123021520 1 0
-8.95779 16.39399 -1.1972852 1 3202123019216 1 0
-9.311554 19.22333 1.2439425 24 3202123021520 1 0
-10.881002 25.58746 1.1328022 12 3202123023824 1 0
-9.988629 20.628006 -1.0676101 16 3202123023824 1 0
-6.0711193 14.281864 -0.8133008 6 3202123026128 1 0
-9.541682 19.711573 2.6889253 23 3202123026128 1 0
-9.188269 21.622591 1.9179233 27 3202123028432 1 0
-12.574818 23.042313 -1.0694617 33 3202123028432 1 0
-5.1661873 14.029951 -0.52209646 6 3202123030736 1 0
-10.729395 22.179998 6.6019564 9 3202123030736 1 0
-9.012979 21.225521 4.2044063 17 3202123033040 1 0
-9.232122 19.091185 -0.49345773 56 3202123033040 1 0
-1.6108147 3.8059177 -1.9271393 3 3202123053776 1 0
-9.638063 17.72159 -0.35211974 26 3202123053776 1 0
-6.360684 15.0349655 -0.4751066 10 3202123056080 1 0
-3.2074938 6.655388 -2.0681822 6 3202123056080 1 0
-4.521957 10.693254 -2.3220286 2 3202123058384 1 0
-8.798309 18.26318 0 24 3202123058384 1 0
-18.396605 50.233727 -0.62279797 7 3202123060688 1 0
-6.9280825 14.386655 -2.4842355 8 3202123060688 1 0
-6.128008 14.503495 -2.0041292 11 3202123062992 1 0
-10.371105 19.097225 0.1263045 24 3202123062992 1 0
-8.31026 19.676731 -0.124142475 36 3202123065296 1 0
-7.0149617 14.578455 -1.7426832 23 3202123065296 1 0
-5.12405 14.011596 -1.392674 9 3202123067600 1 0
-9.155717 19.034801 0.49150363 31 3202123067600 1 0
-11.162356 30.537663 0.37852147 24 3202123069904 1 0
-7.146276 14.862969 -1.153214 1 3202123069904 1 0
-6.013268 14.256218 -1.263102 10 3202123072208 1 0
-10.187502 18.786495 0.62195563 30 3202123072208 1 0
-8.165044 19.365894 0.36684957 14 3202123074512 1 0
-8.857362 16.339575 -1.1911452 1 3202123074512 1 0
-9.286676 19.337297 1.2492913 15 3202123076816 1 0
-5.1194544 14.025585 -0.8695272 6 3202123076816 1 0
-10.778898 25.587276 1.131174 12 3202123079120 1 0
-9.984528 20.798546 -1.0746828 28 3202123079120 1 0
-6.005425 14.261949 -0.81099796 6 3202123081424 1 0
-9.515764 19.829838 2.7006247 28 3202123081424 1 0
-9.077034 21.565748 1.9101124 26 3202123083728 1 0
-12.503429 23.099308 -1.070113 67 3202123083728 1 0
-8.035178 16.757574 4.9796786 5 3202123086032 1 0
-5.1109533 14.028895 -0.5213985 6 3202123086032 1 0
-9.521899 19.86595 -0.5126265 40 3202123088336 1 0
-9.036927 21.488813 4.2503247 15 3202123088336 1 0
-1.5954537 3.8084524 -1.9254488 3 3202123109072 1 0
-9.628085 17.858887 -0.35414425 16 3202123109072 1 0
-6.3334436 15.1245165 -0.47720113 14 3202123111376 1 0
-3.1847873 6.6705523 -2.0692606 5 3202123111376 1 0
-4.487433 10.720546 -2.324382 2 3202123113680 1 0
-8.953831 18.76086 0 24 3202123113680 1 0
-11.150043 30.793257 -0.38126877 3 3202123115984 1 0
-6.8756204 14.411801 -2.4842355 7 3202123115984 1 0
-6.075231 14.5256815 -2.0041292 9 3202123118288 1 0
-10.206792 18.958712 0.12514213 30 3202123118288 1 0
-6.9397645 14.557146 -1.7371141 21 3202123120592 1 0
-9.138281 21.858265 -0.13769586 39 3202123120592 1 0
-5.061084 13.996353 -1.3893279 7 3202123122896 1 0
-9.148653 19.197792 0.49485353 30 3202123122896 1 0
-10.230734 28.305817 0.3503966 42 3202123125200 1 0
-6.9620895 14.614919 -1.1320081 1 3202123125200 1 0
-5.9449086 14.237348 -1.2595221 10 3202123127504 1 0
-10.206764 18.985113 0.62730825 24 3202123127504 1 0
-8.072172 19.3398 0.36580244 36 3202123129808 1 0
0 0 0 54 3202123129808 1 0
-5.0541224 14.002569 -0.8669691 6 3202123132112 1 0
-10.697863 25.651579 1.1323137 24 3202123134416 1 0
-9.314947 19.576067 1.262547 31 3202123132112 1 0
-8.279415 17.406342 -0.8978646 8 3202123134416 1 0
-5.9405255 14.250161 -0.80911386 6 3202123136720 1 0
-10.068722 21.176056 2.8790414 24 3202123136720 1 0
-9.0275755 21.664263 1.9159706 20 3202123139024 1 0
-12.401971 23.108591 -1.0684847 43 3202123139024 1 0
-5.035186 13.975561 -0.51874614 6 3202123141328 1 0
-11.350311 27.260666 5.383936 9 3202123143632 1 0
0 0 0 4 3202123143632 1 0
-7.973756 16.78261 4.978643 19 3202123141328 1 0
-1.5835391 3.817347 -1.9271393 3 3202123164368 1 0
-9.552488 17.867697 -0.35365558 16 3202123164368 1 0
-6.2868466 15.16126 -0.47766656 6 3202123166672 1 0
-3.1549418 6.6676784 -2.0649474 5 3202123166672 1 0
-4.4456344 10.725209 -2.3220286 1 3202123168976 1 0
-9.3058815 19.674152 0 85 3202123168976 1 0
-6.828966 14.442711 -2.4854655 7 3202123171280 1 0
-5.96266 14.396318 -1.9834212 4 3202123173584 1 0
0 0 0 17 3202123171280 1 0
-10.144872 19.000986 0.12518862 30 3202123173584 1 0
-6.8656526 14.53069 -1.7311167 22 3202123175888 1 0
-4.9980526 13.9724655 -1.3852384 7 3202123178192 1 0
-9.120865 22.030138 -0.13857926 52 3202123175888 1 0
-8.94921 18.947176 0.4875954 22 3202123178192 1 0
-10.100989 28.250452 0.34927905 42 3202123180496 1 0
-6.9117765 14.638781 -1.1320081 1 3202123180496 1 0
-5.8792458 14.217144 -1.255942 10 3202123182800 1 0
-10.024903 18.801294 0.6200938 25 3202123182800 1 0
-8.011993 19.382118 0.36608168 22 3202123185104 1 0
-12.366233 23.20008 -1.6848974 79 3202123185104 1 0
-4.994147 13.985916 -0.8648761 6 3202123187408 1 0
-9.135556 19.36942 1.2471982 30 3202123187408 1 0
-10.617941 25.706385 1.1331278 8 3202123189712 1 0
-8.179104 17.34774 -0.89339757 4 3202123189712 1 0
-5.8782725 14.237066 -0.8072298 6 3202123192016 1 0
-9.046728 21.919594 1.9358236 27 3202123194320 1 0
-9.743052 18.303137 -0.8447575 15 3202123194320 1 0
-9.375402 19.892195 2.7001371 15 3202123192016 1 0
-4.9743733 13.954889 -0.51735014 6 3202123196624 1 0
-7.9612856 16.903913 5.0065956 8 3202123196624 1 0
-11.225057 27.218859 5.368151 9 3202123198928 1 0
-10.0345335 21.313604 -0.54817265 5 3202123198928 1 0
-1.5694937 3.819224 -1.9254488 3 3202123219664 1 0
-9.476318 17.867477 -0.35302728 18 3202123219664 1 0
-3.1343524 6.681637 -2.0660255 4 3202123221968 1 0
-6.2256804 15.156226 -0.47685203 6 3202123221968 1 0
-4.406752 10.732764 -2.3204598 2 3202123224272 1 0
-8.852821 18.879446 0 100 3202123224272 1 0
-10.732423 30.284328 -0.37405127 16 3202123226576 1 0
-6.7804036 14.465573 -2.4854655 7 3202123226576 1 0
-5.8703747 14.309895 -1.9687742 4 3202123228880 1 0
-10.097548 19.066923 0.12539785 32 3202123228880 1 0
-9.035533 22.035013 -0.13841654 49 3202123231184 1 0
-6.7927556 14.503451 -1.7251192 23 3202123231184 1 0
-4.9385123 13.955605 -1.3818924 7 3202123233488 1 0
-8.876196 18.959415 0.48713017 35 3202123233488 1 0
-10.001705 28.27727 0.34918594 18 3202123235792 1 0
-5.818324 14.207726 -1.2533383 10 3202123238096 1 0
-6.848171 14.633406 -1.1297759 1 3202123235792 1 0
-9.812653 18.556364 0.61090124 20 3202123238096 1 0
-8.831463 21.574883 0.4069203 26 3202123240400 1 0
-9.277136 17.550152 -1.2722434 26 3202123240400 1 0
-4.9324055 13.965467 -0.8625505 6 3202123242704 1 0
-9.029561 19.317724 1.2418495 24 3202123242704 1 0
0 0 0 14 3202123245008 1 0
-8.105221 17.347107 -0.8919086 6 3202123245008 1 0
-5.80889 14.209432 -0.8045083 6 3202123247312 1 0
-9.307589 19.928396 2.7006247 26 3202123247312 1 0
-9.019606 22.072956 1.9465636 23 3202123249616 1 0
-4.91858 13.953461 -0.51665217 6 3202123251920 1 0
-9.669507 18.319504 -0.84394336 13 3202123249616 1 0
-8.539209 20.915564 4.1190267 8 3202123254224 1 0
-7.7628536 16.634228 4.918597 7 3202123251920 1 0
-1.555485 3.824951 -1.9254488 4 3202123274960 1 0
-12.702935 27.230675 -0.69919693 8 3202123254224 1 0
-9.654551 18.365837 -0.36217234 40 3202123274960 1 0
-6.137074 15.09741 -0.47429207 6 3202123277264 1 0
-3.1131368 6.7000437 -2.0681822 5 3202123277264 1 0
-4.3690176 10.752414 -2.3212442 2 3202123279568 1 0
-8.76362 18.868105 0 37 3202123279568 1 0
-10.59028 30.232634 -0.37293375 22 3202123281872 1 0
-6.722662 14.479426 -2.4836206 7 3202123281872 1 0
-5.8063626 14.301733 -1.9647336 2 3202123284176 1 0
-6.9249544 17.064074 -0.1070322 21 3202123286480 1 0
-6.723343 14.491929 -1.7208353 25 3202123286480 1 0
-10.03187 19.110598 0.12544434 32 3202123284176 1 0
-4.8747888 13.935804 -1.3781747 9 3202123288784 1 0
-8.809157 18.995066 0.4872232 21 3202123288784 1 0
-9.972044 28.520891 0.35174698 11 3202123291088 1 0
-7.0620794 15.233668 -1.1741409 2 3202123291088 1 0
-5.743078 14.169503 -1.248131 8 3202123293392 1 0
-9.736374 18.57393 0.6103194 20 3202123293392 1 0
-6.9155912 17.069494 0.32147333 29 3202123295696 1 0
-9.186108 17.530396 -1.2684059 53 3202123295696 1 0
-4.872989 13.956706 -0.86092263 6 3202123298000 1 0
-8.943326 19.3138 1.2395239 21 3202123298000 1 0
-12.64816 31.245092 1.3733008 18 3202123300304 1 0
-8.004373 17.292654 -0.8876277 14 3202123300304 1 0
-5.7385345 14.181987 -0.80178684 6 3202123302608 1 0
-9.164538 19.806635 2.6796632 26 3202123302608 1 0
-8.851042 21.883268 1.9270362 23 3202123304912 1 0
-12.2816 23.470911 -1.0792314 13 3202123304912 1 0
-4.858303 13.9407 -0.51553535 6 3202123307216 1 0
-7.7100163 16.675812 4.922738 8 3202123307216 1 0
-8.371888 20.715944 4.073826 8 3202123309520 1 0
-12.636218 27.341017 -0.7008719 4 3202123309520 1 0
-1.5434779 3.8337202 -1.9271393 4 3202123330256 1 0
-9.546018 18.31431 -0.3604969 32 3202123330256 1 0
-6.041048 15.011173 -0.47091755 6 3202123332560 1 0
-3.0848975 6.700373 -2.0649474 6 3202123332560 1 0
-4.331458 10.767599 -2.3212442 2 3202123334864 1 0
-8.689343 18.880413 0 24 3202123334864 1 0
-10.484684 30.269417 -0.37293375 32 3202123337168 1 0
-6.6671224 14.492032 -2.481776 7 3202123337168 1 0
-5.738647 14.277734 -1.9586726 19 3202123339472 1 0
-9.918931 19.056795 0.124863155 36 3202123339472 1 0
-8.924654 22.213842 -0.13913721 34 3202123341776 1 0
-6.6527824 14.471948 -1.7156947 26 3202123341776 1 0
-4.819605 13.933916 -1.3763157 9 3202123344080 1 0
-8.714413 18.963926 0.4856413 17 3202123344080 1 0
-9.89595 28.623571 0.35258514 34 3202123346384 1 0
0 0 0 42 3202123346384 1 0
-5.678736 14.152464 -1.2448764 10 3202123348688 1 0
-9.983107 19.207369 0.6299846 17 3202123348688 1 0
-8.669334 21.614687 0.40650144 34 3202123350992 1 0
-9.08437 17.484426 -1.2627777 46 3202123350992 1 0
-4.812513 13.93966 -0.8588296 6 3202123353296 1 0
-8.955786 19.519114 1.2506866 9 3202123353296 1 0
-11.273816 28.131952 1.2347332 4 3202123355600 1 0
-6.866221 14.970656 -0.7672052 8 3202123355600 1 0
-9.030815 19.697754 2.6606514 20 3202123357904 1 0
-8.882783 22.18421 1.9507946 23 3202123360208 1 0
-9.076073 17.493324 -0.8029104 53 3202123360208 1 0
-4.801797 13.934896 -0.5146978 6 3202123362512 1 0
-5.6785975 14.175976 -0.80032146 6 3202123357904 1 0
-7.777278 16.97661 5.00349 14 3202123362512 1 0
-8.284908 20.708506 4.066651 13 3202123364816 1 0
-15.594295 34.053043 -0.8715303 5 3202123364816 1 0
-1.5274019 3.8323493 -1.9237583 3 3202123385552 1 0
-9.483867 18.351072 -0.3605667 30 3202123385552 1 0
-5.9560575 14.950452 -0.4683576 6 3202123387856 1 0
-3.0662863 6.721614 -2.0681822 5 3202123387856 1 0
-4.2952967 10.786297 -2.3220286 2 3202123390160 1 0
-8.625045 18.914268 0 22 3202123390160 1 0
-10.394511 30.351238 -0.3734925 35 3202123392464 1 0
-6.614856 14.5116205 -2.481161 7 3202123392464 1 0
-5.706377 14.341921 -1.9647336 22 3202123394768 1 0
-9.861522 19.109076 0.12497939 30 3202123394768 1 0
-8.827842 22.196543 -0.138835 10 3202123397072 1 0
-6.587389 14.462509 -1.7118392 52 3202123397072 1 0
-4.7580495 13.9129715 -1.372598 7 3202123399376 1 0
-8.658106 19.016068 0.48619962 19 3202123399376 1 0
-9.8115 28.703356 0.3531439 11 3202123401680 1 0
-6.6117463 14.527185 -1.1161035 30 3202123401680 1 0
-5.616055 14.138854 -1.2419473 10 3202123403984 1 0
-9.674234 18.772953 0.6146248 31 3202123403984 1 0
-8.827016 22.232122 0.41753137 46 3202123406288 1 0
-8.990377 17.452154 -1.2581728 47 3202123406288 1 0
-4.7496357 13.9148035 -0.8562715 6 3202123408592 1 0
-10.401364 22.880125 1.463708 15 3202123408592 1 0
0 0 0 43 3202123410896 1 0
-5.614355 14.158579 -0.798228 4 3202123413200 1 0
-6.797391 14.958156 -0.7653439 28 3202123410896 1 0
-9.121275 20.079786 2.7079368 23 3202123413200 1 0
-8.739186 22.048302 1.936149 20 3202123415504 1 0
-8.989359 17.475143 -0.8006308 45 3202123415504 1 0
-4.727343 13.875893 -0.5119058 6 3202123417808 1 0
-7.63014 16.81015 4.9465494 5 3202123417808 1 0
-8.24155 20.810472 4.0810003 8 3202123420112 1 0
-12.420252 27.373941 -0.6994761 4 3202123420112 1 0
-1.5153456 3.84103 -1.9254488 4 3202123441296 1 0
-9.437989 18.419659 -0.36126482 26 3202123441296 1 0
-3.0397296 6.725212 -2.0660255 5 3202123443600 1 0
-4.2579336 10.801101 -2.3220286 2 3202123445904 1 0
-8.803278 19.483498 0 26 3202123445904 1 0
-5.864447 14.870639 -0.46521583 6 3202123443600 1 0
-10.311637 30.451292 -0.37428412 6 3202123448208 1 0
-6.5566597 14.516325 -2.4780865 7 3202123448208 1 0
-5.6527524 14.3503475 -1.9632183 13 3202123450512 1 0
-10.900337 27.682743 -0.17291605 11 3202123452816 1 0
-9.719342 18.99326 0.12400299 24 3202123450512 1 0
-6.5101047 14.423317 -1.7045566 51 3202123452816 1 0
-4.6966357 13.887584 -1.3685085 9 3202123455120 1 0
-8.348283 18.50231 0.4723348 29 3202123455120 1 0
-9.743633 28.82359 0.35421488 31 3202123457424 1 0
-6.5313063 14.480398 -1.110802 15 3202123457424 1 0
-9.603556 18.79125 0.61415935 22 3202123459728 1 0
-5.5551815 14.124332 -1.2390182 8 3202123459728 1 0
-8.758125 22.27654 0.41781062 55 3202123462032 1 0
-8.899001 17.418276 -1.2535678 52 3202123462032 1 0
-4.6890106 13.888996 -0.8537134 6 3202123464336 1 0
-9.06821 20.125988 1.28557 6 3202123464336 1 0
-6.4915466 14.412378 -0.7363085 8 3202123466640 1 0
-10.954518 27.884565 1.2205671 18 3202123466640 1 0
-5.5527716 14.139937 -0.7961346 6 3202123468944 1 0
-8.9943285 19.975977 2.6899002 28 3202123468944 1 0
-8.707134 22.180943 1.9452618 23 3202123471248 1 0
-8.902551 17.447767 -0.79802555 34 3202123471248 1 0
-4.6766 13.8762045 -0.5113474 6 3202123473552 1 0
-7.6350865 16.969032 4.98589 24 3202123473552 1 0
-8.171967 20.83367 4.0802827 27 3202123475856 1 0
-12.327323 27.407146 -0.69929 4 3202123475856 1 0
-1.5032712 3.8457716 -1.9254488 3 3202123496592 1 0
-9.419952 18.52765 -0.36280063 26 3202123496592 1 0
-3.0168645 6.7312794 -2.0649474 6 3202123498896 1 0
-5.7853646 14.807185 -0.46265584 5 3202123498896 1 0
-4.222081 10.810955 -2.3212442 2 3202123501200 1 0
-8.732997 19.493187 0 34 3202123501200 1 0
-12.128878 36.19952 -0.44445655 12 3202123503504 1 0
-6.5100718 14.537278 -2.4780865 10 3202123503504 1 0
-5.754949 14.74927 -2.015241 5 3202123505808 1 0
-10.800118 27.691944 -0.17275332 31 3202123508112 1 0
-9.627184 18.96391 0.12360778 31 3202123505808 1 0
-6.4550633 14.426252 -1.7024146 15 3202123508112 1 0
-8.271362 18.493027 0.47140428 16 3202123510416 1 0
-9.6524315 28.86691 0.35435456 27 3202123512720 1 0
-6.4363375 14.396195 -1.1027104 7 3202123512720 1 0
-5.493844 14.105528 -1.2357637 8 3202123515024 1 0
-4.6397915 13.868886 -1.3651625 9 3202123510416 1 0
-8.977178 17.710304 0.5778544 15 3202123515024 1 0
-8.698228 22.34292 0.4185087 19 3202123517328 1 0
-8.804726 17.376667 -1.2484511 51 3202123517328 1 0
-4.634733 13.881946 -0.85231805 6 3202123519632 1 0
-10.12398 22.67224 1.4460337 52 3202123519632 1 0
-10.871752 27.951248 1.2218697 23 3202123521936 1 0
-6.4216013 14.386814 -0.73388886 8 3202123521936 1 0
-5.4857993 14.110354 -0.7934131 6 3202123524240 1 0
-8.942467 20.04273 2.6947749 28 3202123524240 1 0
-8.433273 21.701542 1.9006741 16 3202123526544 1 0
-4.6186314 13.861901 -0.51023066 5 3202123528848 1 0
-8.86078 17.513819 -0.7996538 26 3202123526544 1 0
-7.5387917 16.910555 4.9610434 14 3202123528848 1 0
-8.108194 20.883902 4.0845876 22 3202123531152 1 0
-12.227295 27.438786 -0.69901085 4 3202123531152 1 0
-1.4891657 3.8512554 -1.9254488 3 3202123551888 1 0
-8.934499 17.733421 -0.3466048 22 3202123551888 1 0
-5.6950192 14.735054 -0.4597468 5 3202123554192 1 0
-2.9937353 6.7458124 -2.0660255 6 3202123554192 1 0
-8.768544 19.766386 0 38 3202123556496 1 0
-4.1810155 10.822699 -2.3204598 2 3202123556496 1 0
0 0 0 10 3202123558800 1 0
-6.448735 14.542975 -2.475012 9 3202123558800 1 0
-5.717997 14.814686 -2.0213017 16 3202123561104 1 0
-10.7043085 27.74627 -0.17284632 42 3202123563408 1 0
-8.928468 17.748425 0.1154711 18 3202123561104 1 0
-6.386035 14.413454 -1.6981308 22 3202123563408 1 0
-4.578931 13.855547 -1.3621882 7 3202123565712 1 0
-8.639126 19.506784 0.4964354 37 3202123565712 1 0
-9.60427 29.0768 0.35649654 27 3202123568016 1 0
-6.364146 14.375905 -1.099362 7 3202123568016 1 0
-5.426342 14.084647 -1.2321836 10 3202123570320 1 0
-9.475724 18.864983 0.6143921 21 3202123570320 1 0
-8.749934 17.426659 -1.2497303 30 3202123572624 1 0
-4.573817 13.868501 -0.8504576 4 3202123574928 1 0
-10.749148 27.913263 0.5221062 37 3202123572624 1 0
-10.077954 22.793192 1.4513825 26 3202123574928 1 0
-10.7965 28.06178 1.2249634 33 3202123577232 1 0
-6.357521 14.384671 -0.732586 4 3202123577232 1 0
-5.418274 14.0893545 -0.79111034 6 3202123579536 1 0
-8.843277 20.017265 2.6869752 21 3202123579536 1 0
-8.699839 22.632856 1.9794348 35 3202123581840 1 0
-8.823397 17.599771 -0.80209625 27 3202123581840 1 0
-4.5602956 13.855953 -0.50939304 5 3202123584144 1 0
-7.3535004 16.658834 4.8792567 19 3202123584144 1 0
0 0 0 58 3202123586448 1 0
-12.131488 27.494392 -0.69929 4 3202123586448 1 0
-1.4789252 3.8668458 -1.9305202 3 3202123607184 1 0
-9.258876 18.546108 -0.3618233 40 3202123607184 1 0
-5.6054945 14.662378 -0.45683774 5 3202123609488 1 0
-2.9675393 6.75317 -2.0649474 6 3202123609488 1 0
-4.1402354 10.834166 -2.3196752 2 3202123611792 1 0
-8.466571 19.274437 0 34 3202123611792 1 0
-10.016386 30.633854 -0.37521538 58 3202123614096 1 0
-6.394436 14.562615 -2.474397 8 3202123614096 1 0
-5.537135 14.501589 -1.9758452 9 3202123616400 1 0
-9.353387 18.761358 0.12184096 24 3202123616400 1 0
-10.617398 27.818178 -0.17305554 42 3202123618704 1 0
-4.5194383 13.841553 -1.3592141 7 3202123621008 1 0
-6.313441 14.388958 -1.6925617 22 3202123618704 1 0
-8.575703 19.55222 0.49680763 22 3202123621008 1 0
-9.541549 29.236317 0.35803315 19 3202123623312 1 0
-5.362123 14.066563 -1.228929 10 3202123625616 1 0
-9.8880625 19.861313 0.6456935 21 3202123625616 1 0
-10.660397 27.97724 0.52259487 37 3202123627920 1 0
-7.333022 14.734323 -1.0547878 11 3202123627920 1 0
-6.3016634 14.3729105 -1.0974089 7 3202123623312 1 0
-4.516313 13.857937 -0.8488297 6 3202123630224 1 0
-9.994462 22.821207 1.4509174 26 3202123630224 1 0
-10.965417 28.801659 1.2555754 20 3202123632528 1 0
-6.2862296 14.359284 -0.7301664 4 3202123632528 1 0
-5.359114 14.082048 -0.7896449 6 3202123634832 1 0
-8.762208 20.022552 2.683563 21 3202123634832 1 0
-8.604102 22.618248 1.9755294 7 3202123637136 1 0
-10.268773 20.66178 -0.9400125 17 3202123637136 1 0
-4.5036488 13.845045 -0.5084159 5 3202123639440 1 0
-7.2849545 16.65941 4.8720098 8 3202123639440 1 0
-10.425733 27.429708 5.3502145 13 3202123641744 1 0
-15.4930725 35.44327 -0.9000974 5 3202123641744 1 0
-9.252335 18.687819 -0.3639874 38 3202123662480 1 0
-1.4622427 3.861558 -1.9254488 4 3202123662480 1 0
-5.484551 14.490217 -0.45090327 5 3202123664784 1 0
-2.9481552 6.770058 -2.0671039 4 3202123664784 1 0
-4.1041274 10.847896 -2.3196752 2 3202123667088 1 0
-8.4198885 19.342873 0 40 3202123667088 1 0
-6.3442144 14.580255 -2.473782 7 3202123669392 1 0
-5.3553066 14.167422 -1.9278632 4 3202123671696 1 0
-9.271075 18.753101 0.121585235 22 3202123671696 1 0
-10.538217 27.891035 -0.17328802 15 3202123674000 1 0
-9.837795 30.431158 -0.3723284 29 3202123669392 1 0
-6.250895 14.377218 -1.6887063 22 3202123674000 1 0
-4.4643445 13.830129 -1.3566116 9 3202123676304 1 0
-8.513151 19.588255 0.49699372 26 3202123676304 1 0
-9.49218 29.420538 0.35989574 52 3202123678608 1 0
-6.229385 14.339149 -1.0932235 7 3202123678608 1 0
-5.3019605 14.051005 -1.2259998 10 3202123680912 1 0
-9.323655 18.887108 0.61299574 19 3202123680912 1 0
-11.298244 29.955263 0.558826 33 3202123683216 1 0
0 0 0 4 3202123683216 1 0
-9.899582 22.81465 1.4483593 30 3202123685520 1 0
-10.861902 28.823772 1.254924 30 3202123687824 1 0
-6.221528 14.343893 -0.72830516 4 3202123687824 1 0
-5.297076 14.062825 -0.78755146 6 3202123690128 1 0
-4.4570804 13.835154 -0.84650415 6 3202123685520 1 0
-8.682958 20.02676 2.6801505 28 3202123690128 1 0
-8.304956 22.057955 1.9241071 40 3202123692432 1 0
-10.14878 20.5963 -0.9354533 27 3202123692432 1 0
-4.4526305 13.848941 -0.5079971 5 3202123694736 1 0
-7.4844675 17.276278 5.044901 12 3202123694736 1 0
-12.733638 29.404577 -0.74563015 4 3202123697040 1 0
-11.664576 31.00845 6.040426 17 3202123697040 1 0
-9.14652 18.637424 -0.36238176 36 3202123717776 1 0
-1.4487544 3.8666384 -1.9254488 3 3202123717776 1 0
-5.369535 14.336995 -0.44555062 5 3202123720080 1 0
-2.9230292 6.7767496 -2.0660255 5 3202123720080 1 0
0 0 0 15 3202123722384 1 0
-4.0595183 10.843729 -2.315753 2 3202123722384 1 0
-9.644542 30.190779 -0.36897576 3 3202123724688 1 0
-5.322915 14.2304735 -1.9339241 12 3202123726992 1 0
-6.2889066 14.591285 -2.4719374 6 3202123724688 1 0
-8.933266 18.228354 0.11798185 16 3202123726992 1 0
-11.175846 29.890497 -0.18546979 63 3202123729296 1 0
-6.187037 14.365851 -1.6848508 32 3202123729296 1 0
-4.4021206 13.799903 -1.3521503 9 3202123731600 1 0
-9.348486 21.714766 0.55012673 14 3202123731600 1 0
-6.161097 14.316509 -1.0898751 9 3202123733904 1 0
-5.2411475 14.035508 -1.2230707 10 3202123736208 1 0
-9.559813 29.982704 0.36636817 16 3202123733904 1 0
-9.30271 19.008783 0.6159048 30 3202123736208 1 0
-11.286482 30.237333 0.5633637 14 3202123738512 1 0
-7.2185264 14.75521 -1.052741 1 3202123738512 1 0
-4.3964405 13.808451 -0.84394604 6 3202123740816 1 0
-9.894087 23.01711 1.4590569 31 3202123740816 1 0
-11.558192 30.991404 1.3475738 17 3202123743120 1 0
-5.2366266 14.047086 -0.78566736 6 3202123745424 1 0
-6.148908 14.309962 -0.7255133 4 3202123743120 1 0
-8.849781 20.603382 2.7532723 27 3202123745424 1 0
-8.206332 22.022524 1.9185743 16 3202123747728 1 0
-4.386302 13.802993 -0.50576353 5 3202123750032 1 0
-7.45026 17.35835 5.0614653 5 3202123750032 1 0
-11.628304 31.232107 6.0762997 29 3202123752336 1 0
-10.075265 20.623466 -0.9351277 42 3202123747728 1 0
-12.643592 29.469519 -0.74618846 4 3202123752336 1 0
-1.4371849 3.8748205 -1.9271393 3 3202123773072 1 0
-9.588688 19.703346 -0.38248694 47 3202123773072 1 0
-5.281448 14.246079 -0.4421761 5 3202123775376 1 0
-2.898928 6.7829056 -2.0649474 6 3202123775376 1 0
-4.021858 10.853571 -2.3149686 2 3202123777680 1 0
-8.388321 19.635273 0 38 3202123777680 1 0
-8.197825 25.96265 -0.3169634 22 3202123779984 1 0
-6.2382956 14.608696 -2.4713225 6 3202123779984 1 0
-5.2941537 14.300449 -1.9409951 15 3202123782288 1 0
-8.99932 18.521025 0.11967893 19 3202123782288 1 0
-8.176076 22.095398 -0.13692869 31 3202123784592 1 0
-6.1164675 14.335525 -1.6788534 27 3202123784592 1 0
-4.347944 13.792015 -1.3499197 9 3202123786896 1 0
-9.18354 21.533112 0.5447297 47 3202123786896 1 0
-9.286595 29.473495 0.35975602 20 3202123789200 1 0
-6.0933504 14.293436 -1.0865269 10 3202123789200 1 0
-5.180504 14.019759 -1.2201416 10 3202123791504 1 0
-9.307217 19.184496 0.6205593 31 3202123791504 1 0
-10.431165 28.242647 0.5255269 30 3202123793808 1 0
-7.136269 14.715353 -1.0481361 1 3202123793808 1 0
-4.3426237 13.804541 -0.8427833 9 3202123796112 1 0
-10.000504 23.48844 1.486731 27 3202123796112 1 0
-10.672829 28.924139 1.2560638 10 3202123798416 1 0
-6.0819163 14.290808 -0.7234659 4 3202123798416 1 0
-5.1737385 14.0278015 -0.7835739 6 3202123800720 1 0
-8.69233 20.433212 2.726461 13 3202123800720 1 0
-8.621385 23.386568 2.0347629 7 3202123803024 1 0
-10.044716 20.744987 -0.93903553 25 3202123803024 1 0
-4.3233247 13.772577 -0.50408834 5 3202123805328 1 0
-7.85311 18.476107 5.379295 12 3202123805328 1 0
-22.528313 53.025127 -1.3406082 11 3202123807632 1 0
-1.4217252 3.8766584 -1.9254488 4 3202123828368 1 0
-9.585883 19.88246 -0.38527933 18 3202123828368 1 0
-11.471608 31.147459 6.0519056 35 3202123807632 1 0
-2.8741467 6.793443 -2.0649474 6 3202123830672 1 0
-5.1936255 14.167661 -0.4391507 5 3202123830672 1 0
-9.295325 21.97925 0 26 3202123832976 1 0
-8.081127 25.919619 -0.3160787 22 3202123835280 1 0
-3.985066 10.875488 -2.3165374 2 3202123832976 1 0
-6.1791925 14.616631 -2.4688628 6 3202123835280 1 0
-5.2370806 14.304548 -1.9389749 13 3202123837584 1 0
-8.79191 18.261442 0.11779587 16 3202123837584 1 0
-8.109018 22.158434 -0.13713792 21 3202123839888 1 0
-6.055643 14.335423 -1.676283 23 3202123839888 1 0
-4.293834 13.792273 -1.3484325 10 3202123842192 1 0
-9.5 30.52992 0.37223527 20 3202123844496 1 0
-6.0237584 14.270944 -1.0831785 10 3202123844496 1 0
-5.1142945 13.993122 -1.2162361 8 3202123846800 1 0
-9.139105 21.643194 0.5466838 30 3202123842192 1 0
-9.332626 19.411993 0.62684286 21 3202123846800 1 0
0 0 0 65 3202123849104 1 0
-7.0340714 14.636145 -1.0407171 1 3202123849104 1 0
-4.288084 13.8006735 -0.84162045 6 3202123851408 1 0
-9.984476 23.681713 1.4967309 12 3202123851408 1 0
-10.679641 29.257967 1.2689273 15 3202123853712 1 0
-6.017821 14.2789 -0.7217908 4 3202123853712 1 0
-5.108311 14.000746 -0.7810618 6 3202123856016 1 0
-8.555064 23.457594 2.0383427 26 3202123858320 1 0
-8.580876 20.368303 2.7137866 21 3202123856016 1 0
-12.185974 25.391903 -1.1474568 15 3202123858320 1 0
-4.2850966 13.818006 -0.5052051 20 3202123860624 1 0
-9.148752 21.733046 6.3182907 5 3202123860624 1 0
-11.420759 31.342104 6.0820394 29 3202123862928 1 0
0 0 0 17 3202123862928 1 0
-1.4113357 3.8881671 -1.9288298 4 3202123883664 1 0
-8.94722 18.716187 -0.36210254 40 3202123883664 1 0
-5.1260567 14.128465 -0.43740526 5 3202123885968 1 0
-2.8530426 6.8065104 -2.0660255 6 3202123885968 1 0
-3.952833 10.899763 -2.3188908 2 3202123888272 1 0
-8.231229 19.645275 0 40 3202123888272 1 0
-8.001631 25.969381 -0.3163581 22 3202123890576 1 0
-6.127315 14.629884 -2.467633 7 3202123890576 1 0
-5.1770344 14.288411 -1.9344292 16 3202123892880 1 0
-8.716988 18.261873 0.11760989 11 3202123892880 1 0
-11.052973 30.51963 -0.18865472 56 3202123895184 1 0
-5.987591 14.307951 -1.6707139 24 3202123895184 1 0
-4.2533264 13.825654 -1.3502914 6 3202123897488 1 0
-8.993807 21.500387 0.5423103 26 3202123897488 1 0
-9.43947 30.699364 0.3739116 33 3202123899792 1 0
-5.9618196 14.258013 -1.0806673 10 3202123899792 1 0
-5.0548453 13.976558 -1.213307 10 3202123902096 1 0
-9.18794 19.277344 0.6214902 24 3202123902096 1 0
-11.092187 30.683651 0.56950694 40 3202123904400 1 0
-6.963935 14.616603 -1.0376471 1 3202123904400 1 0
-4.2600427 13.876204 -0.8453414 10 3202123906704 1 0
-10.704377 25.631514 1.6176602 13 3202123906704 1 0
-10.367064 28.703901 1.2433631 73 3202123909008 1 0
-5.9569793 14.269757 -0.7203018 4 3202123909008 1 0
-5.0497804 13.987992 -0.77938706 6 3202123911312 1 0
-9.19952 22.04618 2.9331512 25 3202123911312 1 0
-12.349975 25.960245 -1.1712298 8 3202123913616 1 0
-4.2518945 13.878438 -0.5068803 16 3202123915920 1 0
-8.475008 23.486637 2.0383427 15 3202123913616 1 0
0 0 0 96 3202123915920 1 0
-11.357381 31.503202 6.105716 17 3202123918224 1 0
-1.3928548 3.879422 -1.9220679 3 3202123938960 1 0
-10.600949 25.435856 -0.6412252 49 3202123918224 1 0
-8.892108 18.76899 -0.36252138 20 3202123938960 1 0
-5.0645533 14.112402 -0.436358 5 3202123941264 1 0
-3.9041667 10.883959 -2.3126152 2 3202123943568 1 0
-2.829266 6.8164277 -2.0660255 6 3202123941264 1 0
-8.161072 19.670195 0 20 3202123943568 1 0
-10.218772 33.581253 -0.40864858 14 3202123945872 1 0
-6.080752 14.662136 -2.4694777 7 3202123945872 1 0
-5.11374 14.269042 -1.9293785 15 3202123948176 1 0
-9.419473 19.912054 0.12802483 21 3202123948176 1 0
-10.927487 30.505308 -0.18832925 21 3202123950480 1 0
-5.916296 14.2773285 -1.6647165 27 3202123950480 1 0
-4.222407 13.897577 -1.3558681 3 3202123952784 1 0
-8.839126 21.339537 0.5374716 22 3202123952784 1 0
-7.8934813 25.994099 0.31626496 25 3202123955088 1 0
-5.8967485 14.241869 -1.077877 9 3202123955088 1 0
-4.9952846 13.9640875 -1.2107034 10 3202123957392 1 0
-9.118885 19.305683 0.62137383 16 3202123957392 1 0
-10.160935 28.417456 0.5267834 55 3202123959696 1 0
-6.9077578 14.629993 -1.0368797 1 3202123959696 1 0
-4.2335935 13.963597 -0.84975994 4 3202123962000 1 0
-10.640783 25.731455 1.6216136 9 3202123962000 1 0
-10.286974 28.796371 1.2458056 19 3202123964304 1 0
-5.8888154 14.246152 -0.7180683 4 3202123964304 1 0
-4.9888334 13.971678 -0.77750295 6 3202123966608 1 0
-8.431156 20.404959 2.7108617 23 3202123966608 1 0
-12.322341 26.136953 -1.1772546 12 3202123968912 1 0
-8.325969 23.328339 2.02207 10 3202123968912 1 0
-4.232365 13.9888525 -0.51037025 7 3202123971216 1 0
-7.7156444 18.688688 5.4176 18 3202123971216 1 0
-10.505995 25.45792 -0.640853 45 3202123973520 1 0
-1.3817308 3.8910928 -1.9254488 3 3202123994256 1 0
-8.132187 22.80634 4.4146266 29 3202123973520 1 0
-8.792543 18.72751 -0.3611252 8 3202123994256 1 0
-5.0045614 14.099851 -0.4354271 5 3202123996560 1 0
-2.8010623 6.8155737 -2.0627906 6 3202123996560 1 0
-3.8700852 10.90861 -2.3149686 2 3202123998864 1 0
-4.903412 16.318052 -0.19836406 2 3202124001168 1 0
-8.976987 21.851936 0 39 3202123998864 1 0
-6.0265317 14.67596 -2.468248 8 3202124001168 1 0
-5.05197 14.253145 -1.9248328 16 3202124003472 1 0
-8.502696 18.137575 0.116424255 27 3202124003472 1 0
-5.848307 14.253741 -1.6595758 30 3202124005776 1 0
-10.724763 30.271803 -0.18665542 25 3202124005776 1 0
-4.1967587 13.988525 -1.3633035 6 3202124008080 1 0
-4.8962154 16.328564 0.19845718 6 3202124010384 1 0
-8.867766 21.62185 0.54379916 30 3202124008080 1 0
-5.83035 14.221753 -1.0748078 9 3202124010384 1 0
-4.9332137 13.943854 -1.2074488 10 3202124012688 1 0
-8.992114 19.210653 0.6173011 31 3202124012688 1 0
-10.185682 28.803413 0.5332757 30 3202124014992 1 0
-6.8515725 14.64317 -1.0361122 1 3202124014992 1 0
-4.20315 14.039498 -0.8534808 4 3202124017296 1 0
0 0 0 3 3202124017296 1 0
-10.255625 29.02806 1.2542727 35 3202124019600 1 0
-5.819376 14.218548 -0.7156487 4 3202124019600 1 0
-4.929392 13.958874 -0.77582824 6 3202124021904 1 0
-8.486156 20.74293 2.7518098 30 3202124021904 1 0
-8.225909 23.304628 2.0175135 10 3202124024208 1 0
-12.3071575 26.342752 -1.1845819 8 3202124024208 1 0
-4.2041063 14.072486 -0.512883 6 3202124026512 1 0
-7.638666 18.686895 5.409318 16 3202124026512 1 0
-7.6939406 21.817738 4.218038 11 3202124028816 1 0
-10.438242 25.546263 -0.6421557 38 3202124028816 1 0
-1.36814 3.8958921 -1.9254488 4 3202124049552 1 0
-12.781104 27.471733 -0.52887774 4 3202124049552 1 0
-4.9500165 14.102143 -0.43496168 5 3202124051856 1 0
-2.7787063 6.828878 -2.063869 6 3202124051856 1 0
-3.833282 10.925754 -2.315753 2 3202124054160 1 0
-8.921753 21.93501 0 31 3202124054160 1 0
0 0 0 20 3202124056464 1 0
-5.9752665 14.696907 -2.468248 8 3202124056464 1 0
-4.9785604 14.20329 -1.9157414 12 3202124058768 1 0
-9.238103 19.886639 0.12744364 31 3202124058768 1 0
-10.609772 30.28263 -0.18649268 42 3202124061072 1 0
-5.7850456 14.240907 -1.6557204 31 3202124061072 1 0
-4.169396 14.0756445 -1.3703673 7 3202124063376 1 0
-8.75613 21.56375 0.5415659 28 3202124063376 1 0
-4.8460007 16.368567 0.19873658 15 3202124065680 1 0
-5.762663 14.197651 -1.0714594 7 3202124065680 1 0
-4.8739777 13.930885 -1.2048451 10 3202124067984 1 0
-8.891355 19.169382 0.6149739 16 3202124067984 1 0
0 0 0 71 3202124070288 1 0
-6.792021 14.64889 -1.034833 1 3202124070288 1 0
-4.1790195 14.138332 -0.85859704 4 3202124072592 1 0
-12.625673 31.145252 1.957192 13 3202124072592 1 0
-10.059323 28.792025 1.2425491 34 3202124074896 1 0
-5.753202 14.19804 -0.7136013 4 3202124074896 1 0
-4.8701005 13.945827 -0.7741535 6 3202124077200 1 0
-8.111133 20.025427 2.6528518 7 3202124077200 1 0
-8.930188 25.584087 2.2121372 4 3202124079504 1 0
-12.322589 26.617672 -1.1950029 12 3202124079504 1 0
-4.1809697 14.175263 -0.51609373 6 3202124081808 1 0
-7.4907713 18.509298 5.3503075 16 3202124081808 1 0
-7.9442654 22.780813 4.398842 28 3202124084112 1 0
-10.353504 25.593664 -0.6424349 35 3202124084112 1 0
-1.3545325 3.900644 -1.9254488 4 3202124104296 1 0
-15.839672 34.358902 -0.6603991 6 3202124104296 1 0
-4.8903747 14.089083 -0.43403077 5 3202124106600 1 0
-2.754902 6.8385158 -2.063869 5 3202124106600 1 0
-3.7927084 10.931602 -2.314184 2 3202124108904 1 0
0 0 0 28 3202124111208 1 0
-5.9212976 14.710213 -2.4670181 9 3202124111208 1 0
-4.8409925 13.965498 -1.8813965 4 3202124113512 1 0
-6.8806252 17.086643 0 13 3202124108904 1 0
-9.16419 19.907598 0.1273739 40 3202124113512 1 0
-10.505103 30.3191 -0.18649268 51 3202124115816 1 0
-5.7194943 14.220219 -1.6510081 29 3202124115816 1 0
-4.1443295 14.170206 -1.3781747 7 3202124118120 1 0
-6.8693213 17.08582 0.42850703 8 3202124118120 1 0
-9.094534 31.1118 0.37735736 12 3202124120424 1 0
-5.694449 14.169257 -1.0678321 9 3202124120424 1 0
-4.8104877 13.902322 -1.2009397 10 3202124122728 1 0
-8.858902 19.272446 0.6173011 10 3202124122728 1 0
-9.965323 28.812693 0.5321588 48 3202124125032 1 0
0 0 0 30 3202124125032 1 0
-4.160879 14.256032 -0.8648761 15 3202124127336 1 0
-12.025283 29.95789 1.8799834 18 3202124127336 1 0
-10.087684 29.192583 1.2583435 15 3202124129640 1 0
-5.688377 14.176788 -0.71155393 4 3202124129640 1 0
-4.805656 13.913237 -0.771432 6 3202124131944 1 0
-9.758817 24.331018 3.2188132 30 3202124131944 1 0
-8.884884 25.73486 2.222552 4 3202124134248 1 0
-12.433796 27.098907 -1.2147052 46 3202124134248 1 0
-4.156384 14.26995 -0.5190253 4 3202124136552 1 0
-7.5297084 21.829176 4.210146 25 3202124138856 1 0
-7.484058 18.674448 5.390683 14 3202124136552 1 0
-6.8450947 17.086924 -0.42832094 21 3202124138856 1 0
-1.3415899 3.9051144 -1.9254488 4 3202124159592 1 0
-4.8317347 14.071259 -0.43298352 5 3202124161896 1 0
-2.7306824 6.8440757 -2.0627906 5 3202124161896 1 0
-15.770529 34.509457 -0.6622839 6 3202124159592 1 0
-3.7548454 10.940518 -2.3133996 2 3202124164200 1 0
-14.977859 51.777515 -0.62750095 7 3202124166504 1 0
-5.8689146 14.722681 -2.4657884 10 3202124166504 1 0
-8.767476 21.984213 0 44 3202124164200 1 0
-4.809284 14.026795 -1.8874574 6 3202124168808 1 0
-8.449434 18.519175 0.118307315 16 3202124168808 1 0
-10.50344 30.64967 -0.188306 48 3202124171112 1 0
