# .PCD v.7 - Point Cloud Data file format
VERSION .7
FIELDS x y z rgb timestamp_ns device_id active
SIZE 4 4 4 4 8 1 1
TYPE F F F F F U U
COUNT 1 1 1 1 1 1 1
WIDTH 976
HEIGHT 1
VIEWPOINT 0 0 0 1 0 0 0
POINTS 976               
DATA ascii
17.898151 -26.221321 0.18451664 22 3206871386696 1 0
6.067045 -9.897286 -1.2504652 7 3206871389000 1 0
7.953653 -16.379902 -1.6997612 2 3206871391304 1 0
29.017984 -47.353046 1.2923139 31 3206871391304 1 0
25.038763 -51.58439 0.6675463 10 3206871393608 1 0
11.908224 -19.438803 -1.594075 27 3206871393608 1 0
9.747409 -17.816307 -1.6578825 3 3206871395912 1 0
29.337019 -43.033344 1.5157332 24 3206871395912 1 0
30.93158 -56.556255 1.1251916 35 3206871398216 1 0
11.993041 -24.735306 -1.600916 7 3206871400520 1 0
13.70861 -20.114918 -1.5600523 6 3206871398216 1 0
39.848965 -65.112595 4.4457746 28 3206871400520 1 0
28.1015 -51.41717 2.3872378 79 3206871402824 1 0
14.942919 -24.424479 -1.3337681 4 3206871402824 1 0
14.427225 -26.406548 -1.576987 61 3206871405128 1 0
20.78711 -33.98802 4.891835 7 3206871405128 1 0
17.849306 -26.223415 -1.2923747 42 3206871407432 1 0
0 0 0 8 3206871407432 1 0
12.892227 -26.629305 -1.0331647 49 3206871409736 1 0
0 0 0 9 3206871409736 1 0
15.300452 -28.033903 5.823031 21 3206871412040 1 0
14.880385 -24.354084 -0.66411614 7 3206871412040 1 1
0 0 0 4 3206871432776 1 0
29.516376 -43.513664 -0.91778713 18 3206871432776 1 0
14.325955 -26.33943 -0.87259966 48 3206871435080 1 0
3.1315293 -5.142033 -1.6853851 2 3206871435080 1 0
4.048796 -7.4466205 -1.6952379 4 3206871437384 1 0
16.166262 -26.554016 0 8 3206871437384 1 0
16.395645 -34.02963 -0.43975356 48 3206871439688 1 0
5.5357614 -9.095785 -1.656567 10 3206871439688 1 0
0 0 0 30 3206871441992 1 0
17.77959 -26.243898 0.18423766 27 3206871441992 1 0
18.254948 -33.609776 -0.22229408 52 3206871444296 1 0
6.03246 -9.918404 -1.2504652 4 3206871444296 1 0
7.905063 -16.425508 -1.70162 2 3206871446600 1 0
29.022871 -47.734238 1.2999443 31 3206871446600 1 0
24.830803 -51.613808 0.6668013 30 3206871448904 1 0
11.85066 -19.4973 -1.5954701 27 3206871448904 1 0
9.690863 -17.860737 -1.6588589 3 3206871451208 1 0
29.325544 -43.3408 1.5229477 25 3206871451208 1 0
13.642785 -20.16926 -1.5605639 6 3206871453512 1 0
11.904896 -24.773418 -1.6006836 7 3206871455816 1 0
30.354517 -55.964287 1.1112994 51 3206871453512 1 0
39.51988 -65.084045 4.4343796 28 3206871455816 1 0
27.889473 -51.45522 2.3844697 78 3206871458120 1 0
14.84513 -24.455996 -1.3326514 4 3206871458120 1 0
14.32164 -26.432161 -1.5755216 33 3206871460424 1 0
20.80016 -34.2776 4.923034 7 3206871460424 1 0
0 0 0 8 3206871462728 1 0
17.739763 -26.259068 -1.2910721 42 3206871462728 1 0
12.826865 -26.731812 -1.0353982 45 3206871465032 1 0
0 0 0 9 3206871465032 1 0
15.187517 -28.059456 5.817291 21 3206871467336 1 0
0 0 0 24 3206871467336 1 0
29.518421 -43.845345 -0.922604 18 3206871488072 1 0
0 0 0 4 3206871488072 1 0
14.330923 -26.568644 -0.87853414 45 3206871490376 1 0
3.1096144 -5.1463165 -1.6832286 1 3206871490376 1 0
4.0173016 -7.450292 -1.6928844 4 3206871492680 1 0
29.332932 -48.56026 0 33 3206871492680 1 0
15.326087 -32.09396 -0.41405004 26 3206871494984 1 0
5.270419 -9.780731 -1.4142041 3 3206871497288 1 0
17.670784 -26.278732 0.18405168 31 3206871497288 1 0
18.12167 -33.640938 -0.22208485 42 3206871499592 1 0
6.004328 -9.949398 -1.2517503 3 3206871499592 1 0
5.504176 -9.114933 -1.656567 11 3206871494984 1 0
7.8466825 -16.449064 -1.7012482 2 3206871501896 1 0
29.027548 -48.11477 1.3075746 32 3206871501896 1 0
15.303182 -32.091595 0.41391036 13 3206871504200 1 0
11.785585 -19.541365 -1.5957491 27 3206871504200 1 0
9.642724 -17.91847 -1.6611371 3 3206871506504 1 0
29.319279 -43.65363 1.5303948 25 3206871506504 1 0
30.102018 -55.95522 1.1090655 51 3206871508808 1 0
13.584747 -20.23244 -1.5618432 6 3206871508808 1 0
11.827022 -24.828384 -1.6016138 7 3206871511112 1 0
39.220943 -65.09219 4.425775 28 3206871511112 1 0
27.691103 -51.507797 2.3825157 52 3206871513416 1 0
14.751325 -24.489372 -1.3317207 8 3206871513416 1 0
14.137049 -26.304823 -1.5650544 41 3206871515720 1 0
20.761206 -34.477436 4.9415584 7 3206871515720 1 0
0 0 0 8 3206871518024 1 0
17.628222 -26.285969 -1.2894439 38 3206871518024 1 0
12.9474125 -27.21915 -1.0525688 38 3206871520328 1 0
0 0 0 9 3206871520328 1 0
15.083239 -28.093317 5.8137035 21 3206871522632 1 0
14.722976 -24.472902 -0.6645814 56 3206871522632 1 1
0 0 0 4 3206871543368 1 0
25.614576 -38.320442 -0.80455595 7 3206871543368 1 0
3.0964186 -5.163252 -1.6853851 2 3206871545672 1 0
14.082007 -26.316574 -0.86864334 53 3206871545672 1 0
3.9960566 -7.4706063 -1.6944534 4 3206871547976 1 0
18.942303 -31.597069 0 71 3206871547976 1 0
15.036759 -31.762072 -0.40911424 36 3206871550280 1 0
5.226163 -9.777463 -1.4111737 3 3206871552584 1 0
5.4796166 -9.143545 -1.6584117 13 3206871550280 1 0
17.55536 -26.298288 0.18377271 36 3206871552584 1 0
14.39964 -26.94973 -0.17758884 32 3206871554888 1 0
5.9767065 -9.979924 -1.2530354 7 3206871554888 1 0
7.8008695 -16.497278 -1.7034789 2 3206871557192 1 0
0 0 0 8 3206871559496 1 0
11.726922 -19.595228 -1.5968652 27 3206871559496 1 0
18.913769 -31.593218 0.856828 37 3206871557192 1 0
9.579285 -17.947945 -1.6608117 5 3206871561800 1 0
29.948496 -56.13275 1.1105316 51 3206871564104 1 0
13.521566 -20.289114 -1.5626106 6 3206871564104 1 0
11.74612 -24.880009 -1.6023114 7 3206871566408 1 0
0 0 0 27 3206871566408 1 0
27.483686 -51.550842 2.3800733 52 3206871568712 1 0
14.64971 -24.513063 -1.3302318 8 3206871568712 1 0
29.306774 -43.960274 1.5376092 25 3206871561800 1 0
14.001932 -26.27293 -1.5602396 27 3206871571016 1 0
31.086721 -58.35194 5.3973937 28 3206871573320 1 0
17.51383 -26.314325 -1.2878156 33 3206871573320 1 0
12.868572 -27.300714 -1.0539649 38 3206871575624 1 0
0 0 0 9 3206871575624 1 0
14.961664 -28.104769 5.805094 26 3206871577928 1 0
18.912016 -31.65607 4.52769 13 3206871571016 1 0
0 0 0 4 3206871598664 1 0
14.619995 -24.497313 -0.66383696 100 3206871577928 1 1
25.376698 -38.26741 -0.8014843 7 3206871598664 1 0
13.966915 -26.332588 -0.86747974 48 3206871600968 1 0
3.0794802 -5.1778545 -1.6864635 2 3206871600968 1 0
3.9650826 -7.4782143 -1.6928844 4 3206871603272 1 0
18.802298 -31.624752 0 92 3206871603272 1 0
15.06529 -32.124454 -0.4130722 58 3206871605576 1 0
5.4543443 -9.177039 -1.6608714 17 3206871605576 1 0
5.1850033 -9.785883 -1.4096584 3 3206871607880 1 0
17.4287 -26.315258 0.18344724 36 3206871607880 1 0
5.948575 -10.015224 -1.2547491 11 3206871610184 1 0
17.845827 -33.69305 -0.22159664 42 3206871610184 1 0
7.742762 -16.529028 -1.7038506 2 3206871612488 1 0
18.784937 -31.63744 0.8561766 86 3206871612488 1 0
15.041511 -32.12235 0.41293252 27 3206871614792 1 0
9.525671 -18.003525 -1.6627644 3 3206871617096 1 0
29.280369 -44.26578 1.544591 17 3206871617096 1 0
29.815424 -56.371002 1.1131145 51 3206871619400 1 0
13.516698 -20.440876 -1.5705414 7 3206871619400 1 0
11.658356 -24.925663 -1.602544 7 3206871621704 1 0
18.745966 -31.613686 2.1404462 63 3206871621704 1 0
27.263206 -51.58191 2.3769796 51 3206871624008 1 0
14.549506 -24.544804 -1.329115 4 3206871624008 1 0
11.6702795 -19.661505 -1.5988184 27 3206871614792 1 0
13.932099 -26.368774 -1.562961 37 3206871626312 1 0
0 0 0 22 3206871626312 1 0
30.658463 -58.04659 5.3589897 28 3206871628616 1 0
17.40214 -26.350014 -1.2865129 33 3206871628616 1 0
12.715387 -27.22687 -1.049358 38 3206871630920 1 0
0 0 0 9 3206871630920 1 0
14.846932 -28.129953 5.799354 21 3206871633224 1 0
14.516491 -24.52162 -0.66309255 100 3206871633224 1 1
0 0 0 4 3206871653960 1 0
29.40945 -44.686577 -0.9337736 28 3206871653960 1 0
13.863745 -26.35995 -0.86678153 58 3206871656264 1 0
3.05943 -5.185255 -1.6853851 2 3206871656264 1 0
3.9462557 -7.505896 -1.6960223 4 3206871658568 1 0
18.669437 -31.652292 0 92 3206871658568 1 0
14.941264 -32.15146 -0.41274625 32 3206871660872 1 0
5.4142475 -9.182404 -1.6584117 19 3206871660872 1 0
5.1581945 -9.817973 -1.4116788 14 3206871663176 1 0
17.316963 -26.345854 0.18323801 36 3206871663176 1 0
17.71509 -33.73035 -0.22143391 47 3206871665480 1 0
5.9095416 -10.029075 -1.2538923 10 3206871665480 1 0
7.6917253 -16.570404 -1.7053378 2 3206871667784 1 0
18.648003 -31.658026 0.85496694 75 3206871667784 1 0
14.91414 -32.142002 0.41251343 23 3206871670088 1 0
11.6319475 -19.753698 -1.6030037 6 3206871670088 1 0
9.466474 -18.043726 -1.6634153 3 3206871672392 1 0
29.274878 -44.59501 1.5525036 25 3206871672392 1 0
13.4474535 -20.49127 -1.5707972 7 3206871674696 1 0
29.99741 -57.19727 1.1273557 53 3206871674696 1 0
11.583032 -24.991568 -1.6041719 7 3206871677000 1 0
18.613228 -31.641068 2.1378882 55 3206871677000 1 0
27.075563 -51.6626 2.3763282 77 3206871679304 1 0
14.407028 -24.499002 -1.3239036 4 3206871679304 1 0
13.856653 -26.449091 -1.5648451 46 3206871681608 1 0
18.593216 -31.628098 4.5047784 54 3206871681608 1 0
30.457504 -58.156784 5.359315 28 3206871683912 1 0
17.285955 -26.373829 -1.2847217 38 3206871683912 1 0
12.42216 -26.842993 -1.0328856 49 3206871686216 1 0
0 0 0 9 3206871686216 1 0
14.735877 -28.157202 5.7943316 21 3206871688520 1 0
14.453082 -24.610073 -0.66411614 100 3206871688520 1 1
0 0 0 4 3206871709256 1 0
29.517912 -45.194126 -0.9422205 28 3206871709256 1 0
13.756857 -26.37982 -0.8658506 43 3206871711560 1 0
3.0393655 -5.1925783 -1.6843069 2 3206871711560 1 0
3.9182181 -7.5161476 -1.6952379 4 3206871713864 1 0
18.534595 -31.675838 0 97 3206871713864 1 0
12.583858 -27.327854 -0.35025692 36 3206871716168 1 0
5.3821616 -9.201247 -1.6584117 33 3206871716168 1 0
5.116559 -9.821842 -1.4096584 60 3206871718472 1 0
17.203041 -26.372639 0.18300554 31 3206871718472 1 0
14.090724 -27.05842 -0.17730986 20 3206871720776 1 0
5.8785114 -10.056509 -1.2547491 15 3206871720776 1 0
7.6305084 -16.589916 -1.7045943 2 3206871723080 1 0
18.51317 -31.681494 0.8538503 69 3206871723080 1 0
14.793498 -32.175697 0.4122806 23 3206871725384 1 0
11.556886 -19.783844 -1.6021667 4 3206871725384 1 0
9.408951 -18.08727 -1.6643916 3 3206871727688 1 0
29.247803 -44.89458 1.559369 25 3206871727688 1 0
13.386737 -20.554811 -1.5720763 7 3206871729992 1 0
29.552164 -56.82971 1.118071 34 3206871729992 1 0
11.4907255 -25.020962 -1.6034741 7 3206871732296 1 0
18.480526 -31.66791 2.13533 63 3206871732296 1 0
26.848991 -51.668137 2.3722575 77 3206871734600 1 0
14.307328 -24.524984 -1.3226006 4 3206871734600 1 0
18.462698 -31.658512 4.4999037 54 3206871736904 1 0
30.256151 -58.266285 5.3596406 28 3206871739208 1 0
13.749514 -26.46894 -1.5631703 50 3206871736904 1 0
17.171997 -26.400503 -1.2830935 42 3206871739208 1 0
12.296727 -26.81715 -1.0302331 41 3206871741512 1 0
14.621188 -28.177032 5.787874 26 3206871743816 1 0
0 0 0 9 3206871741512 1 0
15.218606 -26.12196 -0.7034774 33 3206871743816 1 0
0 0 0 4 3206871764552 1 0
29.50137 -45.515034 -0.94675815 19 3206871764552 1 0
13.642653 -26.38506 -0.8644543 48 3206871766856 1 0
3.0231557 -5.206487 -1.6853851 2 3206871766856 1 0
3.890157 -7.526294 -1.6944534 5 3206871769160 1 0
18.403831 -31.70575 0 97 3206871769160 1 0
14.684897 -32.185844 -0.4118615 65 3206871771464 1 0
5.3440595 -9.2097225 -1.656567 29 3206871771464 1 0
17.093489 -26.405664 0.18281956 18 3206871773768 1 0
17.449816 -33.796337 -0.22106194 15 3206871776072 1 0
5.845367 -10.080407 -1.2551774 7 3206871776072 1 0
7.582462 -16.638195 -1.7068249 2 3206871778376 1 0
5.065855 -9.807913 -1.4051127 53 3206871773768 1 0
18.386425 -31.718246 0.8531059 69 3206871778376 1 0
14.661196 -32.183464 0.41172183 32 3206871780680 1 0
11.499761 -19.84478 -1.6038408 4 3206871780680 1 0
9.38779 -18.201498 -1.6718771 4 3206871782984 1 0
29.223331 -45.201218 1.566467 25 3206871782984 1 0
0 0 0 11 3206871785288 1 0
13.314905 -20.601414 -1.5720763 4 3206871785288 1 0
18.349865 -31.697666 2.1330044 63 3206871787592 1 0
11.404969 -25.064554 -1.6037067 10 3206871787592 1 0
20.519842 -39.827503 1.8253144 77 3206871789896 1 0
13.658865 -26.520325 -1.5633796 50 3206871792200 1 0
14.211626 -24.557486 -1.32167 12 3206871789896 1 0
18.32822 -31.681528 4.494054 54 3206871792200 1 0
0 0 0 25 3206871794504 1 0
17.064564 -26.436779 -1.2819537 42 3206871794504 1 0
0 0 0 9 3206871796808 1 0
12.302255 -27.078283 -1.038609 41 3206871796808 1 0
14.510141 -28.203405 5.782852 21 3206871799112 1 0
15.127331 -26.174923 -0.7034774 61 3206871799112 1 0
0 0 0 4 3206871820296 1 0
13.550469 -26.43252 -0.8644543 43 3206871822600 1 0
29.476454 -45.826283 -0.95108634 29 3206871820296 1 0
3.0049634 -5.217008 -1.6853851 2 3206871822600 1 0
3.8620727 -7.536337 -1.693669 4 3206871824904 1 0
18.273087 -31.735134 0 97 3206871824904 1 0
14.560926 -32.211395 -0.41153556 65 3206871827208 1 0
5.313851 -9.231746 -1.6571819 22 3206871827208 1 0
5.027971 -9.818473 -1.4041027 50 3206871829512 1 0
17.31351 -33.821438 -0.22082947 36 3206871831816 1 0
16.97743 -26.428152 0.18256383 13 3206871829512 1 0
5.810144 -10.10075 -1.2551774 6 3206871831816 1 0
7.5259767 -16.66819 -1.7071966 2 3206871834120 1 0
18.249681 -31.737167 0.85189617 75 3206871834120 1 0
14.538893 -32.21257 0.41144243 41 3206871836424 1 0
11.436385 -19.895178 -1.6046779 4 3206871836424 1 0
9.327827 -18.241257 -1.6725281 4 3206871838728 1 0
29.203552 -45.518326 1.5739143 25 3206871838728 1 0
20.275042 -39.66357 0.7775396 74 3206871841032 1 0
13.245067 -20.651127 -1.5723321 7 3206871841032 1 0
11.3699255 -25.220705 -1.6111486 7 3206871843336 1 0
18.2232 -31.733824 2.131144 63 3206871843336 1 0
0 0 0 12 3206871845640 1 0
20.357058 -39.85262 1.8231977 57 3206871845640 1 0
13.566209 -26.567842 -1.5633796 18 3206871847944 1 0
18.193806 -31.70399 4.488204 54 3206871847944 1 0
20.33833 -39.84456 3.651963 39 3206871850248 1 0
16.952778 -26.465895 -1.2804883 28 3206871850248 1 0
12.33072 -27.394459 -1.0490788 38 3206871852552 1 0
0 0 0 9 3206871852552 1 0
14.402664 -28.236355 5.779265 26 3206871854856 1 0
15.021949 -26.203283 -0.70282596 57 3206871854856 1 0
0 0 0 4 3206871875592 1 0
29.458332 -46.15139 -0.9556938 29 3206871875592 1 0
13.539834 -26.639957 -0.8696906 39 3206871877896 1 0
2.9848614 -5.2240996 -1.6843069 2 3206871877896 1 0
3.8394055 -7.5567102 -1.6952379 4 3206871880200 1 0
18.152742 -31.781094 0 66 3206871880200 1 0
5.2817955 -9.250123 -1.6571819 20 3206871882504 1 0
14.432754 -32.22521 -0.41106993 68 3206871882504 1 0
16.860043 -26.44629 0.18228486 9 3206871884808 1 0
4.9849715 -9.818129 -1.4015772 51 3206871884808 1 0
17.180286 -33.848938 -0.22062024 47 3206871887112 1 0
7.4766083 -16.712212 -1.7090555 2 3206871889416 1 0
5.769305 -10.110397 -1.2538923 6 3206871887112 1 0
14.416574 -32.23683 0.41111648 27 3206871891720 1 0
11.36986 -19.937864 -1.604957 4 3206871891720 1 0
9.268765 -18.280277 -1.673179 4 3206871894024 1 0
18.124323 -31.772099 0.85115176 64 3206871889416 1 0
29.173843 -45.817284 1.5807797 26 3206871894024 1 0
13.18926 -20.719944 -1.5741229 7 3206871896328 1 0
20.117369 -39.689976 0.77670187 74 3206871896328 1 0
11.288543 -25.270357 -1.6118462 7 3206871898632 1 0
18.102768 -31.775106 2.1297486 31 3206871898632 1 0
20.202955 -39.88616 1.8215694 67 3206871900936 1 0
14.097178 -24.752195 -1.3268815 8 3206871900936 1 0
13.398117 -26.460619 -1.5543779 9 3206871903240 1 0
18.066156 -31.731226 4.4833293 47 3206871903240 1 0
15.574072 -24.496292 -1.1826279 8 3206871905544 1 0
20.177689 -39.8636 3.6474066 39 3206871905544 1 0
12.223157 -27.40323 -1.0478225 42 3206871907848 1 0
0 0 0 9 3206871907848 1 0
14.285785 -28.24276 5.770655 26 3206871910152 1 0
14.97082 -26.319975 -0.704594 53 3206871910152 1 0
0 0 0 4 3206871930888 1 0
29.467813 -46.505577 -0.9609993 29 3206871930888 1 0
13.364837 -26.513432 -0.8641052 48 3206871933192 1 0
3.8159804 -7.572959 -1.6960223 5 3206871935496 1 0
2.9712827 -5.240692 -1.6864635 2 3206871933192 1 0
18.22627 -32.15805 0 25 3206871935496 1 0
5.258683 -9.281458 -1.6596415 21 3206871937800 1 0
14.316994 -32.254925 -0.4108371 65 3206871937800 1 0
4.9521 -9.834749 -1.4015772 44 3206871940104 1 0
29.391266 -46.44451 0.31944603 25 3206871940104 1 0
17.055922 -33.88491 -0.22048075 47 3206871942408 1 0
5.7294993 -10.1193 -1.2526071 2 3206871942408 1 0
7.454315 -16.813696 -1.7168628 2 3206871944712 1 0
0 0 0 5 3206871944712 1 0
14.296606 -32.25959 0.41079053 23 3206871947016 1 0
11.314454 -19.996872 -1.6066312 4 3206871947016 1 0
9.208821 -18.31501 -1.6735045 4 3206871949320 1 0
29.151514 -46.12502 1.5879941 26 3206871949320 1 0
19.965078 -39.722042 0.7760038 74 3206871951624 1 0
13.125515 -20.774551 -1.5748905 7 3206871951624 1 0
11.209306 -25.323072 -1.6127764 7 3206871953928 1 0
18.156109 -32.12133 2.1488183 16 3206871953928 1 0
20.054825 -39.929543 1.8204296 77 3206871956232 1 0
15.666138 -27.725548 -1.4834123 10 3206871956232 1 0
14.010574 -27.905441 -1.6364406 15 3206871958536 1 0
18.051783 -31.958456 4.506728 20 3206871958536 1 0
20.025517 -39.900124 3.6444774 39 3206871960840 1 0
15.439246 -24.468147 -1.17872 4 3206871960840 1 0
0 0 0 9 3206871963144 1 0
14.176615 -28.266903 5.7656326 21 3206871965448 1 0
14.801972 -26.231789 -0.7008719 66 3206871965448 1 0
12.03893 -27.240091 -1.040005 37 3206871963144 1 0
0 0 0 4 3206871986184 1 0
29.354261 -46.686028 -0.96260494 29 3206871986184 1 0
13.245205 -26.506369 -0.86235976 48 3206871988488 1 0
2.951045 -5.247696 -1.6853851 2 3206871988488 1 0
3.791165 -7.589797 -1.6968068 5 3206871990792 1 0
18.27809 -32.514633 0 10 3206871990792 1 0
13.797932 -31.382326 -0.3991029 24 3206871993096 1 0
5.2279863 -9.303317 -1.6602565 17 3206871993096 1 0
0 0 0 30 3206871995400 1 0
29.36374 -46.764473 0.32093388 38 3206871995400 1 0
16.923801 -33.9198 -0.22031802 42 3206871997704 1 0
7.4424076 -13.253406 -1.6372997 2 3206871997704 1 0
7.3964458 -16.843582 -1.7172346 2 3206872000008 1 0
18.221962 -32.461197 0.8662263 16 3206872000008 1 0
14.171014 -32.284386 0.41046458 18 3206872002312 1 0
11.237704 -20.026379 -1.6057941 4 3206872002312 1 0
9.145544 -18.351145 -1.6738299 6 3206872004616 1 0
29.13208 -46.458527 1.5959067 26 3206872004616 1 0
19.861147 -39.867966 0.7774698 24 3206872006920 1 0
13.051556 -20.821095 -1.5748905 7 3206872006920 1 0
11.117395 -25.359198 -1.612544 7 3206872009224 1 0
18.182117 -32.436623 2.1655622 16 3206872009224 1 0
19.88897 -39.954384 1.8183128 57 3206872011528 1 0
0 0 0 34 3206872011528 1 0
0 0 0 16 3206872013832 1 0
18.129404 -32.365757 4.5549884 13 3206872013832 1 0
15.251753 -24.364122 -1.171067 4 3206872016136 1 0
11.764683 -26.880325 -1.0246493 45 3206872018440 1 0
0 0 0 9 3206872018440 1 0
19.864582 -39.935966 3.641223 39 3206872016136 1 0
14.059006 -28.286037 5.7591753 26 3206872020744 1 0
14.68597 -26.246515 -0.6998483 66 3206872020744 1 0
0 0 0 4 3206872041480 1 0
29.398825 -47.139442 -0.9697255 19 3206872041480 1 0
13.119772 -26.497313 -0.860498 48 3206872043784 1 0
2.9318297 -5.2584558 -1.6853851 2 3206872043784 1 0
3.7634323 -7.6035867 -1.6968068 4 3206872046088 1 0
11.956102 -27.464376 -0.34872028 28 3206872048392 1 0
5.19598 -9.325755 -1.6608714 16 3206872048392 1 0
29.072355 -52.161278 0 24 3206872046088 1 0
29.360569 -47.139156 0.32277045 25 3206872050696 1 0
4.8815975 -9.869933 -1.4015772 3 3206872050696 1 0
7.390395 -13.273376 -1.6364429 3 3206872053000 1 0
7.3401613 -16.881216 -1.7183499 2 3206872055304 1 0
36.212456 -65.06094 1.7326387 24 3206872055304 1 0
14.041482 -32.306046 0.4100921 23 3206872057608 1 0
16.814783 -34.009674 -0.220504 15 3206872053000 1 0
11.235094 -20.19239 -1.615839 4 3206872057608 1 0
9.081058 -18.387587 -1.6741554 4 3206872059912 1 0
29.11848 -46.811142 1.6044011 26 3206872059912 1 0
19.841436 -40.190235 0.7823565 16 3206872062216 1 0
13.041866 -20.973028 -1.5828211 7 3206872062216 1 0
28.553225 -51.370327 3.4227605 80 3206872064520 1 0
19.78273 -40.100704 1.8217322 19 3206872066824 1 0
11.035763 -25.42095 -1.6139392 7 3206872064520 1 0
14.646424 -26.359524 -1.4046816 69 3206872066824 1 0
13.133872 -26.632858 -1.556262 55 3206872069128 1 0
19.746538 -40.0567 3.6457794 26 3206872071432 1 0
19.3591 -34.852978 4.895248 7 3206872069128 1 0
15.189963 -24.459167 -1.173021 8 3206872071432 1 0
11.654515 -26.889067 -1.0233928 41 3206872073736 1 0
0 0 0 9 3206872073736 1 0
13.949635 -28.318203 5.755588 26 3206872076040 1 0
0 0 0 4 3206872096776 1 0
29.4214 -47.544453 -0.97593856 10 3206872096776 1 0
14.563438 -26.246124 -0.69845253 66 3206872076040 1 0
13.013106 -26.514233 -0.8595671 47 3206872099080 1 0
2.9134564 -5.2686577 -1.6853851 2 3206872099080 1 0
3.740323 -7.6237197 -1.6983757 5 3206872101384 1 0
29.087488 -52.619514 0 24 3206872101384 1 0
13.537275 -31.395487 -0.39803192 45 3206872103688 1 0
5.1691303 -9.354215 -1.6627162 13 3206872103688 1 0
29.374586 -47.530575 0.3247465 25 3206872105992 1 0
4.836635 -9.865536 -1.3985468 3 3206872105992 1 0
16.650198 -33.974777 -0.21989956 47 3206872108296 1 0
7.34594 -13.302574 -1.6368713 4 3206872108296 1 0
7.2859163 -16.91771 -1.7194653 2 3206872110600 1 0
31.296627 -56.693745 1.5068932 48 3206872110600 1 0
13.9238825 -32.34384 0.40995237 23 3206872112904 1 0
11.176108 -20.252447 -1.6175131 7 3206872112904 1 0
9.020324 -18.426336 -1.6748064 6 3206872115208 1 0
29.116602 -47.174484 1.613361 26 3206872115208 1 0
12.966481 -21.015028 -1.5825653 7 3206872117512 1 0
25.213867 -51.5248 1.0012795 26 3206872117512 1 0
10.956425 -25.481329 -1.6153345 7 3206872119816 1 0
28.33325 -51.396244 3.4178767 80 3206872119816 1 0
25.396019 -51.935287 2.3553233 50 3206872122120 1 0
14.536967 -26.378992 -1.4030064 69 3206872122120 1 0
13.014513 -26.624712 -1.5531218 55 3206872124424 1 0
19.277552 -34.993366 4.9054847 7 3206872124424 1 0
19.671352 -40.25792 3.6578212 26 3206872126728 1 0
15.079331 -24.47121 -1.171067 8 3206872126728 1 0
11.544815 -26.89285 -1.0219969 45 3206872129032 1 0
0 0 0 9 3206872129032 1 0
13.836888 -28.338436 5.7498484 26 3206872131336 1 0
14.452454 -26.261765 -0.697522 72 3206872131336 1 0
29.46034 -47.98087 -0.9827799 20 3206872152072 1 0
0 0 0 4 3206872152072 1 0
12.915228 -26.548708 -0.859218 47 3206872154376 1 0
2.8931954 -5.275418 -1.6843069 2 3206872154376 1 0
3.7119732 -7.633202 -1.6975913 4 3206872156680 1 0
18.477482 -33.703247 0 10 3206872156680 1 0
13.861156 -32.457775 -0.41088367 59 3206872158984 1 0
5.1402454 -9.379133 -1.6639459 12 3206872158984 1 0
4.795232 -9.868083 -1.3965266 3 3206872161288 1 0
29.348587 -47.861286 0.32630408 26 3206872161288 1 0
16.51752 -34.003906 -0.21971358 47 3206872163592 1 0
7.231506 -16.95403 -1.7205806 2 3206872165896 1 0
7.301371 -13.331623 -1.6372997 4 3206872163592 1 0
31.111982 -56.827198 1.5075445 48 3206872165896 1 0
13.803053 -32.37385 0.40971956 23 3206872168200 1 0
0 0 0 8 3206872168200 1 0
8.961169 -18.468472 -1.6757827 4 3206872170504 1 0
29.118805 -47.54861 1.6226699 27 3206872170504 1 0
25.023386 -51.590904 1.0008606 91 3206872172808 1 0
12.897215 -21.066969 -1.5830771 7 3206872172808 1 0
10.879928 -25.548811 -1.617195 11 3206872175112 1 0
28.124937 -51.442276 3.4143884 79 3206872175112 1 0
25.200632 -51.99485 2.3540206 74 3206872177416 1 0
14.431385 -26.405033 -1.4017036 74 3206872177416 1 0
12.921496 -26.669977 -1.5531218 55 3206872179720 1 0
19.143864 -35.03954 4.9025598 7 3206872179720 1 0
19.525494 -40.31558 3.6568449 26 3206872182024 1 0
0 0 0 19 3206872182024 1 0
11.444614 -26.91827 -1.0214385 41 3206872184328 1 0
0 0 0 9 3206872184328 1 0
13.727599 -28.365309 5.7455435 26 3206872186632 1 0
14.330042 -26.255892 -0.6960332 64 3206872186632 1 0
0 0 0 4 3206872207368 1 0
0 0 0 29 3206872207368 1 0
12.82074 -26.590029 -0.85910165 47 3206872209672 1 0
2.8802843 -5.295636 -1.6875417 2 3206872209672 1 0
3.6870089 -7.6496463 -1.6983757 5 3206872211976 1 0
0 0 0 62 3206872211976 1 0
13.713497 -32.42492 -0.40985927 72 3206872214280 1 0
5.11125 -9.403964 -1.6651758 12 3206872214280 1 0
4.752147 -9.866887 -1.3940012 8 3206872216584 1 0
0 0 0 17 3206872216584 1 0
16.38311 -34.02892 -0.21950436 42 3206872218888 1 0
7.258587 -13.364018 -1.6381564 4 3206872218888 1 0
7.169182 -16.97183 -1.7198371 2 3206872221192 1 0
13.691519 -32.42552 0.40976614 60 3206872223496 1 0
30.732157 -56.601593 1.4987046 31 3206872221192 1 0
11.021124 -20.305428 -1.6155599 11 3206872223496 1 0
8.896648 -18.499638 -1.6757827 4 3206872225800 1 0
29.131207 -47.94383 1.6326771 27 3206872225800 1 0
0 0 0 21 3206872228104 1 0
12.829816 -21.122097 -1.5838445 7 3206872228104 1 0
10.831024 -25.682297 -1.6232414 11 3206872230408 1 0
27.926167 -51.50503 3.412063 79 3206872230408 1 0
24.998215 -52.03927 2.3520668 74 3206872232712 1 0
14.3238945 -26.427143 -1.4002146 55 3206872232712 1 0
12.830051 -26.718521 -1.5533311 37 3206872235016 1 0
19.023327 -35.109642 4.9030476 7 3206872235016 1 0
19.37602 -40.365517 3.6552176 39 3206872237320 1 0
14.856302 -24.49046 -1.1669964 12 3206872237320 1 0
11.350582 -26.958055 -1.0214385 45 3206872239624 1 0
0 0 0 9 3206872239624 1 0
13.608079 -28.370478 5.7369337 21 3206872241928 1 0
14.268761 -26.362022 -0.697522 64 3206872241928 1 0
0 0 0 4 3206872262664 1 0
14.698869 -24.318586 -0.4959974 75 3206872262664 1 1
2.8617816 -5.3056583 -1.6875417 2 3206872264968 1 0
12.779564 -26.742846 -0.8625925 43 3206872264968 1 0
3.660284 -7.6624694 -1.6983757 5 3206872267272 1 0
18.139227 -33.641296 0 78 3206872267272 1 0
13.853631 -33.07762 -0.41749582 63 3206872269576 1 0
5.0802684 -9.425227 -1.6657907 12 3206872269576 1 0
0 0 0 54 3206872271880 1 0
0 0 0 3 3206872271880 1 0
15.315106 -32.096775 -0.2066949 39 3206872274184 1 0
7.1145062 -17.007774 -1.7209524 2 3206872276488 1 0
7.2137794 -13.392776 -1.6385849 4 3206872274184 1 0
30.159018 -56.01137 1.4802802 30 3206872276488 1 0
13.818954 -33.048775 0.41703016 55 3206872278792 1 0
10.942613 -20.32972 -1.6144438 20 3206872278792 1 0
8.835448 -18.537779 -1.6764336 4 3206872281096 1 0
29.122622 -48.308887 1.641637 18 3206872281096 1 0
0 0 0 14 3206872283400 1 0
12.760129 -21.17359 -1.5843562 7 3206872283400 1 0
10.745927 -25.731003 -1.6239392 11 3206872285704 1 0
27.702715 -51.52131 3.406714 79 3206872285704 1 0
24.79236 -52.07569 2.349787 74 3206872288008 1 0
14.191833 -26.403074 -1.3963059 27 3206872288008 1 0
0 0 0 8 3206872290312 1 0
18.893139 -35.161842 4.9010973 7 3206872290312 1 0
19.199036 -40.357304 3.648383 26 3206872292616 1 0
14.785151 -24.56614 -1.1681361 4 3206872292616 1 0
0 0 0 9 3206872294920 1 0
11.368715 -27.266861 -1.0316291 41 3206872294920 1 0
13.497139 -28.39293 5.731911 21 3206872297224 1 0
14.290127 -26.623074 -0.70310515 57 3206872297224 1 0
0 0 0 4 3206872317960 1 0
14.628289 -24.393757 -0.49648607 97 3206872317960 1 1
12.636507 -26.682499 -0.859218 42 3206872320264 1 0
2.8432438 -5.315615 -1.6875417 2 3206872320264 1 0
3.6368713 -7.68229 -1.6999447 5 3206872322568 1 0
13.808567 -33.29573 -0.41963777 22 3206872324872 1 0
5.0529265 -9.453361 -1.6676353 12 3206872324872 1 0
14.404146 -26.938835 0 25 3206872322568 1 0
4.684845 -9.903409 -1.3945062 60 3206872327176 1 0
18.92157 -31.594778 0.21404116 71 3206872327176 1 0
15.182455 -32.106647 -0.20641592 39 3206872329480 1 0
7.1707335 -13.4248905 -1.6394416 4 3206872329480 1 0
7.064239 -17.054583 -1.723183 2 3206872331784 1 0
29.803217 -55.816463 1.4723706 44 3206872331784 1 0
13.71881 -33.133766 0.41749582 18 3206872334088 1 0
8.774091 -18.575716 -1.6770846 6 3206872336392 1 0
10.869703 -20.364273 -1.6141648 27 3206872334088 1 0
18.887295 -31.579212 1.0708808 74 3206872336392 1 0
12.686141 -21.218002 -1.5843562 7 3206872338696 1 0
15.16172 -32.111122 0.61983967 23 3206872338696 1 0
10.6621475 -25.783117 -1.6248693 11 3206872341000 1 0
24.591671 -52.122154 2.347996 73 3206872343304 1 0
27.490763 -51.557793 3.4027605 79 3206872341000 1 0
14.018766 -26.30083 -1.3883026 22 3206872343304 1 0
12.580164 -26.673763 -1.5455855 13 3206872345608 1 0
18.760952 -35.21006 4.89866 7 3206872345608 1 0
19.041044 -40.388016 3.6451285 26 3206872347912 1 0
14.57842 -24.41514 -1.1585292 3 3206872347912 1 0
11.369574 -27.539165 -1.0404238 41 3206872350216 1 0
0 0 0 9 3206872350216 1 0
13.391238 -28.425629 5.7290416 21 3206872352520 1 0
14.065584 -26.425694 -0.6965915 64 3206872352520 1 0
0 0 0 4 3206872373256 1 0
14.55532 -24.465292 -0.4969049 97 3206872373256 1 1
12.519703 -26.675682 -0.85758895 52 3206872375560 1 0
2.8265152 -5.32889 -1.6886201 2 3206872375560 1 0
3.6101449 -7.6948857 -1.6999447 6 3206872377864 1 0
17.925028 -33.805725 0 16 3206872377864 1 0
16.608747 -40.443523 -0.5089947 71 3206872380168 1 0
5.018253 -9.4673395 -1.6670204 12 3206872380168 1 0
4.6370606 -9.890825 -1.3904657 59 3206872382472 1 0
18.785526 -31.615383 0.21373893 82 3206872382472 1 0
15.073156 -32.16252 -0.20643917 87 3206872384776 1 0
7.129902 -13.460123 -1.6407268 5 3206872384776 1 0
7.0054097 -17.07883 -1.723183 2 3206872387080 1 0
29.61064 -55.918865 1.4723706 29 3206872387080 1 0
16.575771 -40.426792 0.5086688 19 3206872389384 1 0
10.7902565 -20.38391 -1.6127697 31 3206872389384 1 0
0 0 0 38 3206872391688 1 0
18.74818 -31.59228 1.0691353 69 3206872391688 1 0
15.039778 -32.137512 0.619351 35 3206872393992 1 0
12.621538 -21.275063 -1.5853795 7 3206872393992 1 0
10.567906 -25.804626 -1.6239392 11 3206872396296 1 0
27.305048 -51.633804 3.4015977 79 3206872396296 1 0
13.949523 -26.387348 -1.39035 63 3206872398600 1 0
0 0 0 15 3206872400904 1 0
22.011322 -47.06842 2.1169415 43 3206872398600 1 0
18.624315 -35.242115 4.894273 15 3206872400904 1 0
14.481158 -24.440441 -1.1573894 3 3206872403208 1 0
18.883518 -40.409103 3.641223 26 3206872403208 1 0
11.265592 -27.551636 -1.0394466 37 3206872405512 1 0
13.288379 -28.456488 5.7261715 26 3206872407816 1 0
0 0 0 9 3206872405512 1 0
13.944405 -26.412987 -0.6950096 60 3206872407816 1 0
14.512745 -24.57886 -0.4982313 82 3206872428552 1 1
0 0 0 4 3206872428552 1 0
12.417681 -26.688051 -0.85665804 42 3206872430856 1 0
2.807035 -5.334825 -1.6875417 2 3206872430856 1 0
3.5846078 -7.7068152 -1.6999447 4 3206872433160 1 0
17.751377 -33.748158 0 63 3206872433160 1 0
16.463991 -40.472443 -0.5086688 51 3206872435464 1 0
4.9868307 -9.483929 -1.6670204 13 3206872435464 1 0
4.595874 -9.888156 -1.3879403 58 3206872437768 1 0
18.65417 -31.632713 0.21343672 77 3206872437768 1 0
12.672579 -27.275282 -0.17479911 24 3206872440072 1 0
7.0889273 -13.490734 -1.6415836 4 3206872440072 1 0
6.9532332 -17.113037 -1.7242984 2 3206872442376 1 0
16.431084 -40.455597 0.5083428 26 3206872444680 1 0
29.402727 -55.974266 1.471254 29 3206872442376 1 0
10.726313 -20.426643 -1.6133277 20 3206872444680 1 0
8.66028 -18.65982 -1.6793628 18 3206872446984 1 0
18.618965 -31.612936 1.067739 67 3206872446984 1 0
14.912926 -32.143673 0.6185133 23 3206872449288 1 0
10.495788 -25.872833 -1.6260321 11 3206872451592 1 0
12.548893 -21.31336 -1.5851237 7 3206872449288 1 0
27.089153 -51.6392 3.3960166 52 3206872451592 1 0
21.836626 -47.10127 2.1151502 86 3206872453896 1 0
13.86751 -26.444077 -1.3909084 40 3206872453896 1 0
12.410724 -26.779438 -1.5468415 60 3206872456200 1 0
18.518406 -35.32478 4.8971977 7 3206872456200 1 0
18.739357 -40.4498 3.63927 26 3206872458504 1 0
14.393953 -24.477991 -1.1569009 3 3206872458504 1 0
0 0 0 9 3206872460808 1 0
10.940057 -27.010834 -1.0176693 40 3206872460808 1 0
13.177409 -28.464687 5.718997 21 3206872463112 1 0
13.814069 -26.377605 -0.69286937 64 3206872463112 1 0
0 0 0 4 3206872483296 1 0
18.540985 -31.665623 -0.6405033 46 3206872483296 1 0
12.292811 -26.675373 -0.85479623 52 3206872485600 1 0
3.5578659 -7.723516 -1.7007291 5 3206872487904 1 0
17.595638 -33.75295 0 52 3206872487904 1 0
13.856407 -34.425484 -0.43202388 19 3206872490208 1 0
4.9554825 -9.50926 -1.6682503 12 3206872490208 1 0
4.555995 -9.897858 -1.3869302 59 3206872492512 1 0
18.512953 -31.659977 0.21315774 75 3206872492512 1 0
2.787424 -5.3450975 -1.6875417 2 3206872485600 1 0
14.79525 -32.15486 -0.2057185 57 3206872494816 1 0
7.0407786 -13.520409 -1.642012 4 3206872494816 1 0
6.900115 -17.164576 -1.7269008 2 3206872497120 1 0
29.610388 -56.881027 1.4921908 31 3206872497120 1 0
16.273178 -40.49782 0.50811 39 3206872499424 1 0
10.657699 -20.480522 -1.6144438 6 3206872499424 1 0
8.587414 -18.68469 -1.6787118 30 3206872501728 1 0
18.47895 -31.644062 1.066459 67 3206872501728 1 0
14.782887 -32.177277 0.61809444 23 3206872504032 1 0
0 0 0 27 3206872504032 1 0
26.862787 -51.676315 3.3918304 52 3206872506336 1 0
10.416851 -25.956356 -1.6288228 15 3206872506336 1 0
21.645063 -47.150032 2.113685 71 3206872508640 1 0
13.781271 -26.520647 -1.3922112 49 3206872508640 1 0
12.29682 -26.796778 -1.5451667 60 3206872510944 1 0
18.565536 -40.47286 3.635039 26 3206872513248 1 0
18.38023 -35.38345 4.8957353 7 3206872510944 1 0
14.285718 -24.504314 -1.1555983 3 3206872513248 1 0
10.854583 -27.092672 -1.0192049 40 3206872515552 1 0
0 0 0 9 3206872515552 1 0
13.060043 -28.492756 5.714692 25 3206872517856 1 0
13.710731 -26.422457 -0.6926833 68 3206872517856 1 0
0 0 0 4 3206872538592 1 0
12.196495 -26.710758 -0.85456353 47 3206872540896 1 0
18.41025 -31.695566 -0.6398052 51 3206872538592 1 0
2.768788 -5.354775 -1.6875417 2 3206872540896 1 0
3.5375113 -7.750109 -1.7038671 5 3206872543200 1 0
17.467184 -33.79259 0 36 3206872543200 1 0
13.818339 -34.6777 -0.43458492 19 3206872545504 1 0
4.9260955 -9.533416 -1.6694801 12 3206872545504 1 0
4.5200586 -9.90996 -1.3864251 38 3206872547808 1 0
18.385185 -31.692732 0.21294852 69 3206872547808 1 0
14.674133 -32.18394 -0.20557901 47 3206872550112 1 0
6.9995074 -13.55525 -1.6432971 4 3206872550112 1 0
6.8394346 -17.184557 -1.726529 2 3206872552416 1 0
20.582195 -39.873005 1.0441428 21 3206872552416 1 0
13.03329 -32.760227 0.41046458 58 3206872554720 1 0
10.618295 -20.577341 -1.6191872 4 3206872554720 1 0
8.546362 -18.76485 -1.6832682 40 3206872557024 1 0
18.35018 -31.672709 1.0652953 67 3206872557024 1 0
14.65933 -32.198605 0.61753595 17 3206872559328 1 0
12.376051 -21.368069 -1.5825653 47 3206872559328 1 0
10.283835 -25.880478 -1.6218461 11 3206872561632 1 0
20.527273 -39.820587 2.6090467 39 3206872561632 1 0
21.467573 -47.187202 2.1120565 71 3206872563936 1 0
13.679756 -26.546185 -1.3910944 45 3206872563936 1 0
18.257883 -35.44227 4.895248 7 3206872566240 1 0
12.193974 -26.813019 -1.5437014 55 3206872566240 1 0
18.41808 -40.5139 3.6330864 39 3206872568544 1 0
0 0 0 5 3206872568544 1 0
10.737648 -27.066132 -1.0168318 44 3206872570848 1 0
0 0 0 9 3206872570848 1 0
12.955481 -28.518843 5.7111044 25 3206872573152 1 0
13.630452 -26.486448 -0.69314855 68 3206872573152 1 0
0 0 0 4 3206872593888 1 0
18.289064 -31.728724 -0.63924676 46 3206872593888 1 0
12.101063 -26.736574 -0.8540981 47 3206872596192 1 0
2.7615237 -5.384512 -1.6940116 2 3206872596192 1 0
17.334461 -33.811424 0 47 3206872598496 1 0
3.5068283 -7.7511277 -1.7015136 3 3206872598496 1 0
12.965485 -32.85593 -0.4112096 7 3206872600800 1 0
4.899654 -9.560358 -1.6713248 12 3206872600800 1 0
0 0 0 38 3206872603104 1 0
18.257113 -31.715923 0.2126928 69 3206872603104 1 0
14.549683 -32.196503 -0.20534654 76 3206872605408 1 0
6.95765 -13.585719 -1.6441538 3 3206872605408 1 0
6.8181677 -17.300072 -1.7358234 2 3206872607712 1 0
20.417137 -39.881416 1.0425609 58 3206872607712 1 0
12.922912 -32.803925 0.41046458 100 3206872610016 1 0
10.572582 -20.659155 -1.6228147 4 3206872610016 1 0
8.468234 -18.76088 -1.6803391 30 3206872612320 1 0
18.221283 -31.696316 1.0640154 67 3206872612320 1 0
14.540495 -32.22612 0.6171171 17 3206872614624 1 0
12.3077 -21.41672 -1.5830771 49 3206872614624 1 0
20.375853 -39.85792 2.6069536 65 3206872616928 1 0
10.229698 -26.000647 -1.6271949 7 3206872616928 1 0
21.289127 -47.219757 2.1102655 56 3206872619232 1 0
12.107572 -26.86529 -1.5443294 32 3206872621536 1 0
18.133541 -35.49713 4.894273 7 3206872621536 1 0
18.265055 -40.54377 3.6301572 25 3206872623840 1 0
14.178274 -24.704977 -1.1604831 7 3206872623840 1 0
13.587706 -26.588932 -1.3909084 31 3206872619232 1 0
0 0 0 9 3206872626144 1 0
10.630461 -27.065466 -1.0154358 48 3206872626144 1 0
12.851261 -28.548697 5.708235 30 3206872628448 1 0
13.499662 -26.454617 -0.6911014 68 3206872628448 1 0
0 0 0 4 3206872649184 1 0
18.20202 -31.834034 -0.64008445 17 3206872649184 1 0
12.060011 -26.895397 -0.85782164 47 3206872651488 1 0
2.7427115 -5.3941183 -1.6940116 2 3206872651488 1 0
3.4797504 -7.763322 -1.7015136 4 3206872653792 1 0
17.212708 -33.864597 0 31 3206872653792 1 0
0 0 0 13 3206872656096 1 0
4.8537197 -9.552737 -1.6670204 24 3206872656096 1 0
4.4489665 -9.933383 -1.385415 2 3206872658400 1 0
14.427401 -32.22519 -0.20520705 57 3206872660704 1 0
6.915586 -13.620562 -1.645439 4 3206872660704 1 0
18.195877 -31.866299 0.21327399 16 3206872658400 1 0
6.7548428 -17.316345 -1.7350799 2 3206872663008 1 0
13.100382 -33.597855 0.41982403 80 3206872665312 1 0
10.522069 -20.738636 -1.6261629 4 3206872665312 1 0
8.40595 -18.797604 -1.68099 34 3206872667616 1 0
20.25789 -39.91322 1.0415373 21 3206872663008 1 0
18.183813 -31.888239 1.0683208 13 3206872667616 1 0
14.418124 -32.254772 0.6166982 23 3206872669920 1 0
12.240774 -21.473423 -1.5841004 52 3206872669920 1 0
10.172204 -26.121782 -1.6325437 7 3206872672224 1 0
20.213129 -39.8825 2.6039305 77 3206872672224 1 0
21.373552 -47.85211 2.1351783 15 3206872674528 1 0
0 0 0 4 3206872674528 1 0
0 0 0 17 3206872676832 1 0
18.00414 -35.549587 4.8928103 7 3206872676832 1 0
18.11042 -40.578156 3.6275537 25 3206872679136 1 0
14.080088 -24.733479 -1.1595062 7 3206872679136 1 0
10.576476 -27.206734 -1.0193444 56 3206872681440 1 0
0 0 0 9 3206872681440 1 0
12.737104 -28.561037 5.7017775 25 3206872683744 1 0
13.454172 -26.594353 -0.6935207 68 3206872683744 1 0
0 0 0 4 3206872704480 1 0
18.280201 -32.231342 -0.64678615 11 3206872704480 1 0
11.957939 -26.919062 -0.85723984 23 3206872706784 1 0
2.7151966 -5.3864613 -1.6886201 2 3206872706784 1 0
17.106993 -33.94948 0 15 3206872709088 1 0
15.709545 -40.63831 -0.5072253 5 3206872711392 1 0
4.8327913 -9.594331 -1.6713248 12 3206872711392 1 0
4.4078283 -9.934344 -1.3833947 2 3206872713696 1 0
18.26589 -32.24982 0.21541277 16 3206872713696 1 0
14.305096 -32.253418 -0.20506756 76 3206872716000 1 0
6.8751516 -13.658828 -1.6471527 5 3206872716000 1 0
3.4574056 -7.7861753 -1.7038671 4 3206872709088 1 0
6.7015285 -17.358397 -1.7369387 4 3206872718304 1 0
20.09328 -39.933678 1.0402346 21 3206872718304 1 0
0 0 0 21 3206872720608 1 0
10.481888 -20.839403 -1.6311854 7 3206872720608 1 0
8.345127 -18.837767 -1.6819664 36 3206872722912 1 0
18.281048 -32.320415 1.0806552 13 3206872722912 1 0
14.292491 -32.27565 0.61613977 23 3206872725216 1 0
12.169673 -21.52297 -1.584612 49 3206872725216 1 0
10.103936 -26.216747 -1.6362646 7 3206872727520 1 0
20.059448 -39.92427 2.60207 64 3206872727520 1 0
0 0 0 72 3206872729824 1 0
14.404236 -28.679111 -1.494952 10 3206872729824 1 0
12.679147 -28.666134 -1.6427209 10 3206872732128 1 0
17.997684 -40.706757 3.633412 26 3206872734432 1 0
17.881721 -35.615765 4.8932977 7 3206872732128 1 0
0 0 0 86 3206872734432 1 0
10.461347 -27.191254 -1.0173901 28 3206872736736 1 0
0 0 0 9 3206872736736 1 0
12.63256 -28.594526 5.699625 25 3206872739040 1 0
13.440139 -26.798435 -0.697615 44 3206872739040 1 0
17.183218 -30.54514 -0.6117417 37 3206872759776 1 0
0 0 0 4 3206872759776 1 0
11.799484 -26.814253 -0.8525854 57 3206872762080 1 0
2.7170396 -5.4372544 -1.7015597 3 3206872762080 1 0
3.4286263 -7.794606 -1.7030826 5 3206872764384 1 0
16.970507 -33.9732 0 21 3206872764384 1 0
15.504714 -40.528526 -0.5051764 10 3206872766688 1 0
4.797506 -9.607606 -1.67071 13 3206872766688 1 0
4.3699307 -9.942405 -1.3823845 2 3206872768992 1 0
29.16346 -51.91205 0.3460646 28 3206872768992 1 0
14.182769 -32.28118 -0.20492807 71 3206872771296 1 0
6.825656 -13.679185 -1.6467242 4 3206872771296 1 0
6.6451597 -17.392843 -1.738054 6 3206872773600 1 0
19.941269 -39.978523 1.0395832 21 3206872773600 1 0
15.53393 -40.675793 0.5068993 6 3206872775904 1 0
10.412642 -20.883007 -1.6317434 7 3206872775904 1 0
8.284126 -18.877733 -1.6829427 38 3206872778208 1 0
36.044746 -64.2485 2.1439724 33 3206872778208 1 0
14.170101 -32.303368 0.6157209 28 3206872780512 1 0
12.108138 -21.589691 -1.5864028 47 3206872780512 1 0
10.015207 -26.25932 -1.6367297 11 3206872782816 1 0
19.89682 -39.94758 2.5990467 64 3206872782816 1 0
22.532694 -51.40809 2.2867723 65 3206872785120 1 0
13.262224 -26.636763 -1.386069 27 3206872785120 1 0
0 0 0 100 3206872787424 1 0
17.713064 -35.58911 4.881111 7 3206872787424 1 0
17.852283 -40.762028 3.632761 26 3206872789728 1 0
14.731225 -26.3027 -1.2282201 74 3206872789728 1 0
10.549855 -27.709541 -1.0353982 41 3206872792032 1 0
0 0 0 9 3206872792032 1 0
12.51847 -28.606003 5.6931677 25 3206872794336 1 0
13.193412 -26.53724 -0.6896125 80 3206872794336 1 0
0 0 0 4 3206872815072 1 0
17.029722 -30.521112 -0.6100663 53 3206872815072 1 0
11.686642 -26.811295 -0.851189 52 3206872817376 1 0
2.677526 -5.4052854 -1.6886201 2 3206872817376 1 0
3.4045308 -7.813719 -1.7046515 5 3206872819680 1 0
16.834064 -33.996387 0 31 3206872819680 1 0
4.7674465 -9.631378 -1.6719397 13 3206872821984 1 0
4.3399506 -9.968513 -1.3838997 10 3206872824288 1 0
29.174822 -52.35945 0.3483661 28 3206872824288 1 0
15.251277 -40.28689 -0.50149786 5 3206872821984 1 0
14.062019 -32.312153 -0.20481184 85 3206872826592 1 0
6.784918 -13.717187 -1.6484377 5 3206872826592 1 0
6.58159 -17.408484 -1.7373105 11 3206872828896 1 0
19.778555 -40.00129 1.0383735 21 3206872828896 1 0
15.379126 -40.696095 0.5064802 6 3206872831200 1 0
10.352059 -20.944267 -1.6336966 7 3206872831200 1 0
8.222948 -18.917503 -1.6839192 34 3206872833504 1 0
36.32184 -65.27534 2.1739938 69 3206872833504 1 0
14.047692 -32.330624 0.615302 34 3206872835808 1 0
12.0773325 -21.712059 -1.592287 16 3206872835808 1 0
9.929124 -26.309063 -1.6376599 11 3206872838112 1 0
19.750185 -40.00247 2.5981166 38 3206872838112 1 0
22.216227 -51.171146 2.272769 63 3206872840416 1 0
13.15148 -26.647064 -1.3842078 36 3206872840416 1 0
11.683586 -26.92179 -1.5380491 54 3206872842720 1 0
17.593998 -35.661404 4.8825736 7 3206872842720 1 0
17.663876 -40.718033 3.6233227 25 3206872845024 1 0
14.6237955 -26.326012 -1.2269174 78 3206872845024 1 0
10.2120695 -27.106506 -1.0115271 36 3206872847328 1 0
12.407585 -28.624252 5.688145 25 3206872849632 1 0
0 0 0 9 3206872847328 1 0
13.09186 -26.565197 -0.6891473 64 3206872849632 1 0
0 0 0 4 3206872870368 1 0
16.863047 -30.471893 -0.6079022 53 3206872870368 1 0
11.592981 -26.851925 -0.851189 52 3206872872672 1 0
2.663735 -5.4249716 -1.691855 2 3206872872672 1 0
3.3803434 -7.8327575 -1.7062204 5 3206872874976 1 0
16.685331 -33.9939 0 52 3206872874976 1 0
15.069869 -40.23126 -0.5001475 4 3206872877280 1 0
4.7337976 -9.647961 -1.6719397 13 3206872877280 1 0
4.2909865 -9.950809 -1.3793541 57 3206872879584 1 0
18.523071 -33.517605 0.22257304 11 3206872879584 1 0
13.945977 -32.353695 -0.20476535 85 3206872881888 1 0
6.524969 -17.442541 -1.7384259 22 3206872884192 1 0
19.790157 -40.378895 1.046376 14 3206872884192 1 0
6.7492504 -13.765783 -1.6514364 10 3206872881888 1 0
15.45971 -41.345207 0.51388395 6 3206872886496 1 0
10.271865 -20.96594 -1.6325805 7 3206872886496 1 0
36.026146 -65.279205 2.1699212 34 3206872888800 1 0
8.160016 -18.953417 -1.6845701 38 3206872888800 1 0
13.923685 -32.35375 0.6148134 28 3206872891104 1 0
0 0 0 9 3206872891104 1 0
9.852594 -26.384712 -1.640218 11 3206872893408 1 0
19.822823 -40.50516 2.6262558 26 3206872893408 1 0
22.016945 -51.20065 2.270652 63 3206872895712 1 0
13.046093 -26.667685 -1.382905 36 3206872895712 1 0
11.575343 -26.92938 -1.536165 58 3206872898016 1 0
17.513767 -40.761127 3.6216955 25 3206872900320 1 0
14.516383 -26.348892 -1.2256148 74 3206872900320 1 0
17.462433 -35.708336 4.8806233 7 3206872898016 1 0
0 0 0 9 3206872902624 1 0
10.12437 -27.160717 -1.012225 48 3206872902624 1 0
12.298278 -28.645693 5.6838408 30 3206872904928 1 0
13.006071 -26.625107 -0.68951946 60 3206872904928 1 0
0 0 0 4 3206872925664 1 0
16.733486 -30.488499 -0.6070645 47 3206872925664 1 0
11.489748 -26.87017 -0.85049087 52 3206872927968 1 0
2.6430964 -5.4307733 -1.6907767 2 3206872927968 1 0
3.3529813 -7.8445096 -1.7062204 5 3206872930272 1 0
16.54557 -34.00877 0 42 3206872930272 1 0
10.305014 -27.80586 -0.34522796 2 3206872932576 1 0
4.70182 -9.667981 -1.6725546 13 3206872932576 1 0
4.2546673 -9.962077 -1.378849 58 3206872934880 1 0
0 0 0 7 3206872934880 1 0
13.828245 -32.391144 -0.2046956 95 3206872937184 1 0
6.7115874 -13.81072 -1.6540068 14 3206872937184 1 0
6.4681907 -17.476418 -1.7395412 26 3206872939488 1 0
25.071152 -51.609074 1.3351182 33 3206872939488 1 0
15.434641 -41.721527 0.5178885 6 3206872941792 1 0
8.103189 -19.003788 -1.6865228 36 3206872944096 1 0
10.2648535 -21.138067 -1.6431835 7 3206872941792 1 0
30.910574 -56.47492 1.8736631 51 3206872944096 1 0
13.804392 -32.387436 0.61453414 86 3206872946400 1 0
11.923545 -21.792343 -1.5920311 4 3206872946400 1 0
9.75905 -26.415197 -1.6399856 11 3206872948704 1 0
25.225124 -52.00298 3.3660169 77 3206872948704 1 0
21.822428 -51.24042 2.269024 42 3206872951008 1 0
12.940722 -26.687895 -1.3816022 40 3206872951008 1 0
11.473448 -26.951244 -1.5351182 54 3206872953312 1 0
17.362011 -40.800003 3.6197426 25 3206872955616 1 0
17.334217 -35.76193 4.8796487 7 3206872953312 1 0
14.408989 -26.371346 -1.2243122 74 3206872955616 1 0
10.014284 -27.154634 -1.0106894 36 3206872957920 1 0
0 0 0 9 3206872957920 1 0
12.190512 -28.67034 5.680253 30 3206872960224 1 0
12.881685 -26.605556 -0.6878445 64 3206872960224 1 0
0 0 0 4 3206872980960 1 0
16.615488 -30.525648 -0.60664564 47 3206872980960 1 0
2.6241233 -5.439966 -1.6907767 3 3206872983264 1 0
3.3255785 -7.856166 -1.7062204 5 3206872985568 1 0
16.409382 -34.03029 0 42 3206872985568 1 0
10.221659 -27.879215 -0.34569362 2 3206872987872 1 0
4.6663275 -9.680774 -1.6719397 14 3206872987872 1 0
4.2121387 -9.958595 -1.3763236 60 3206872990176 1 0
18.25233 -33.57933 0.22213134 28 3206872990176 1 0
11.392766 -26.90275 -0.8502581 52 3206872983264 1 0
13.727555 -32.46869 -0.20488158 19 3206872992480 1 0
6.656435 -13.819732 -1.6522933 20 3206872992480 1 0
6.405778 -17.49515 -1.7391694 24 3206872994784 1 0
24.866562 -51.645832 1.3338155 55 3206872994784 1 0
19.430746 -53.092224 0.65818685 9 3206872997088 1 0
10.192736 -21.177364 -1.6434625 7 3206872997088 1 0
8.038355 -19.03563 -1.6868483 38 3206872999392 1 0
30.612158 -56.39623 1.8674959 50 3206872999392 1 0
13.706807 -32.47227 0.6152322 23 3206873001696 1 0
11.855018 -21.847864 -1.5930544 4 3206873001696 1 0
9.706537 -26.557869 -1.6467296 11 3206873004000 1 0
25.034796 -52.07272 3.364854 77 3206873004000 1 0
21.634113 -51.29419 2.2680469 21 3206873006304 1 0
11.374645 -26.98009 -1.5344902 40 3206873008608 1 0
17.20412 -35.81148 4.878186 7 3206873008608 1 0
12.840563 -26.718498 -1.3808576 36 3206873006304 1 0
17.214842 -40.84934 3.6187663 25 3206873010912 1 0
14.335889 -26.456621 -1.2259405 39 3206873010912 1 0
9.933137 -27.22698 -1.0120854 36 3206873013216 1 0
0 0 0 9 3206873013216 1 0
12.082724 -28.694584 5.676666 30 3206873015520 1 0
12.7835455 -26.639545 -0.6875654 64 3206873015520 1 0
0 0 0 4 3206873036256 1 0
16.497435 -30.562344 -0.6062268 73 3206873036256 1 0
11.300334 -26.946041 -0.8503745 52 3206873038560 1 0
2.6101027 -5.459519 -1.6940116 2 3206873038560 1 0
3.3011677 -7.874961 -1.7077894 4 3206873040864 1 0
16.28187 -34.069317 0 36 3206873040864 1 0
10.06564 -27.753042 -0.34369135 2 3206873043168 1 0
4.6359143 -9.704136 -1.6731696 15 3206873043168 1 0
4.174285 -9.965918 -1.3753135 59 3206873045472 1 0
18.116026 -33.607628 0.22189887 40 3206873045472 1 0
13.847397 -33.07354 -0.20839198 48 3206873047776 1 0
6.623574 -13.875184 -1.6561488 32 3206873047776 1 0
6.346026 -17.521147 -1.7395412 17 3206873050080 1 0
15.360375 -32.18924 0.8299358 20 3206873050080 1 0
12.230672 -33.783787 0.4182874 4 3206873052384 1 0
10.120469 -21.216415 -1.6437415 7 3206873052384 1 0
7.9810877 -19.085642 -1.688801 38 3206873054688 1 0
30.098623 -55.914795 1.8480635 46 3206873054688 1 0
13.821653 -33.06604 0.62556404 22 3206873056992 1 0
11.803272 -21.93481 -1.5963802 7 3206873056992 1 0
9.615132 -26.595345 -1.6469622 11 3206873059296 1 0
24.820238 -52.091297 3.3604355 76 3206873059296 1 0
21.454931 -51.369392 2.2680469 21 3206873061600 1 0
0 0 0 17 3206873063904 1 0
17.079012 -35.87132 4.878186 7 3206873063904 1 0
12.826256 -26.929096 -1.3894193 9 3206873061600 1 0
