# .PCD v.7 - Point Cloud Data file format
VERSION .7
FIELDS x y z rgb timestamp_ns device_id active
SIZE 4 4 4 4 8 1 1
TYPE F F F F F U U
COUNT 1 1 1 1 1 1 1
WIDTH 1003
HEIGHT 1
VIEWPOINT 0 0 0 1 0 0 0
POINTS 1003               
DATA ascii
11.002291 -81.53545 -0.95782834 14 3201076473800 1 0
2.419588 -10.2475605 -1.6381197 8 3201076473800 1 0
1.9755185 -10.683223 -1.3828896 8 3201076476104 1 0
0 0 0 107 3201076478408 1 0
11.988363 -41.598236 0.25160936 38 3201076476104 1 0
3.6519818 -15.487199 -1.7139812 2 3201076478408 1 0
2.140465 -15.914892 -1.499002 1 3201076480712 1 0
12.873363 -54.62848 1.3059927 21 3201076480712 1 0
11.752635 -87.48009 1.0275817 28 3201076483016 1 0
3.6413462 -15.462228 -1.110802 11 3201076483016 1 1
0 0 0 57 3201076485320 1 0
11.959299 -41.588295 1.2593874 24 3201076485320 1 0
10.152761 -55.12836 0.9784517 37 3201076487624 1 0
4.394004 -15.288459 -1.0194832 9 3201076487624 1 1
2.1236012 -15.859343 -0.9318522 1 3201076489928 1 1
12.798658 -54.453346 3.2576456 47 3201076489928 1 0
10.113966 -55.007526 2.2786307 64 3201076492232 1 0
3.6500669 -15.539772 -0.74356735 10 3201076492232 1 1
2.8914216 -15.738646 -0.8386314 2 3201076494536 1 1
8.878541 -37.824158 4.7704535 7 3201076494536 1 0
0 0 0 8 3201076496840 1 0
4.380547 -15.275106 -0.6474086 1 3201076496840 1 1
3.8434906 -28.831211 -1.015715 28 3201076499144 1 0
0 0 0 9 3201076499144 1 0
5.6854606 -31.02338 5.7505655 10 3201076501448 1 0
0 0 0 4 3201076522184 1 0
9.576541 -33.59645 -0.6097871 28 3201076522184 1 0
2.9659054 -16.317625 -0.48267013 4 3201076524488 1 1
3.7078369 -15.82708 -0.37825865 1 3201076501448 1 1
1.3839446 -5.9463644 -1.7091078 5 3201076524488 1 0
12.732341 -54.74283 0 22 3201076526792 1 0
1.5552323 -8.563555 -1.7407371 3 3201076526792 1 0
0 0 0 10 3201076529096 1 0
2.3829079 -10.252094 -1.6375048 9 3201076529096 1 0
1.9410466 -10.70567 -1.3849099 6 3201076531400 1 0
13.863074 -48.742027 0.29452455 55 3201076531400 1 0
9.831855 -54.27169 -0.32056192 115 3201076533704 1 0
3.600597 -15.511474 -1.7152663 3 3201076533704 1 0
2.0854158 -15.926215 -1.4993737 1 3201076536008 1 0
12.678981 -54.657497 1.3056204 10 3201076536008 1 0
11.223112 -85.80729 1.007466 28 3201076538312 1 0
3.5855484 -15.46707 -1.110244 11 3201076538312 1 1
2.8308682 -15.665317 -1.2995534 103 3201076540616 1 1
13.828002 -48.72643 1.4740756 56 3201076540616 1 0
9.953159 -55.124107 0.97775364 100 3201076542920 1 0
4.3395214 -15.299864 -1.0192274 10 3201076542920 1 1
2.065648 -15.84686 -0.93068945 1 3201076545224 1 1
12.606703 -54.48991 3.2571805 47 3201076545224 1 0
9.922601 -55.04643 2.2787936 64 3201076547528 1 0
3.596701 -15.556312 -0.7437535 10 3201076547528 1 1
2.8329256 -15.728986 -0.8375846 2 3201076549832 1 1
8.745563 -37.85105 4.769966 7 3201076549832 1 0
4.369645 -15.440285 -0.65375894 1 3201076552136 1 1
0 0 0 8 3201076552136 1 0
3.7572308 -28.955452 -1.0196236 20 3201076554440 1 0
0 0 0 9 3201076554440 1 0
0 0 0 29 3201076556744 1 0
3.6211185 -15.703544 -0.37500182 1 3201076556744 1 1
0 0 0 4 3201076577480 1 0
11.23518 -39.94366 -0.7242749 35 3201076577480 1 0
1.3640395 -5.9549136 -1.7101861 5 3201076579784 1 0
9.818685 -55.112495 -1.6291863 50 3201076579784 1 0
1.5260178 -8.572793 -1.7415216 3 3201076582088 1 0
12.54296 -54.794735 0 22 3201076582088 1 0
3.7754877 -29.533638 -0.34662488 5 3201076584392 1 0
2.3532765 -10.28732 -1.6418092 34 3201076584392 1 0
1.9043593 -10.716288 -1.385415 3 3201076586696 1 0
13.688525 -48.77472 0.29443154 77 3201076586696 1 0
0 0 0 19 3201076589000 1 0
3.5508585 -15.543333 -1.7174083 3 3201076589000 1 0
2.03434 -15.968955 -1.5027196 1 3201076591304 1 0
12.487223 -54.697525 1.3055274 10 3201076591304 1 0
11.842397 -93.06722 1.092213 28 3201076593608 1 0
3.5333116 -15.487272 -1.110802 10 3201076593608 1 1
13.656753 -48.770554 1.4739592 72 3201076595912 1 0
0 0 0 76 3201076595912 1 0
9.748136 -55.087627 0.97649705 37 3201076598216 1 0
4.2839365 -15.30723 -1.0187157 11 3201076598216 1 1
12.414647 -54.5258 3.2567153 70 3201076600520 1 0
9.734564 -55.104347 2.2797706 64 3201076602824 1 0
2.0103197 -15.853974 -0.93068945 1 3201076600520 1 1
3.5423772 -15.568771 -0.7437535 7 3201076602824 1 1
2.7773094 -15.734845 -0.8373753 2 3201076605128 1 1
8.59666 -37.807793 4.760704 7 3201076605128 1 0
0 0 0 8 3201076607432 1 0
3.6701503 -29.079443 -1.0235324 20 3201076609736 1 0
4.273801 -15.305316 -0.6474086 1 3201076607432 1 1
0 0 0 9 3201076609736 1 0
0 0 0 29 3201076612040 1 0
3.5742455 -15.751185 -0.3758393 1 3201076612040 1 1
0 0 0 4 3201076632776 1 0
9.322512 -33.593124 -0.6085305 66 3201076632776 1 0
9.618684 -55.103107 -1.6279063 50 3201076635080 1 0
1.3432448 -5.9596386 -1.7101861 6 3201076635080 1 0
1.4974318 -8.585795 -1.7430905 2 3201076637384 1 0
12.349856 -54.83038 0 22 3201076637384 1 0
3.6403065 -29.28864 -0.34359822 2 3201076639688 1 0
2.3112772 -10.26848 -1.6375048 36 3201076639688 1 0
1.8669409 -10.72287 -1.385415 4 3201076641992 1 0
13.518186 -48.822205 0.29443154 66 3201076641992 1 0
0 0 0 9 3201076644296 1 0
3.4974527 -15.559513 -1.7178366 3 3201076644296 1 0
1.9756484 -15.952244 -1.500489 1 3201076646600 1 0
12.298846 -54.752487 1.3058066 10 3201076646600 1 0
11.569017 -93.52479 1.0971023 28 3201076648904 1 0
3.4801033 -15.503405 -1.1110811 11 3201076648904 1 1
2.740519 -15.7946825 -1.3086662 6 3201076651208 1 1
13.483234 -48.806366 1.47361 64 3201076651208 1 0
9.563299 -55.164665 0.97726494 37 3201076653512 1 0
4.229416 -15.318243 -1.0184599 14 3201076653512 1 1
1.9725527 -16.003572 -0.93906146 5 3201076655816 1 1
12.222495 -54.56101 3.2562504 70 3201076655816 1 0
9.5407915 -55.130116 2.279445 6 3201076658120 1 0
3.4888835 -15.584941 -0.7439396 5 3201076658120 1 1
8.462033 -37.825947 4.7592416 7 3201076660424 1 0
2.7230482 -15.74838 -0.8375846 2 3201076660424 1 1
0 0 0 8 3201076662728 1 0
4.240517 -15.393352 -0.6505023 1 3201076662728 1 1
3.5827367 -29.207144 -1.0275807 16 3201076665032 1 0
0 0 0 9 3201076665032 1 0
0 0 0 29 3201076667336 1 0
3.5183704 -15.759664 -0.37574625 1 3201076667336 1 1
0 0 0 4 3201076688072 1 0
0 0 0 21 3201076688072 1 0
9.494331 -55.5344 -1.6396588 17 3201076690376 1 0
1.468113 -8.594836 -1.7438749 3 3201076692680 1 0
1.3224336 -5.964291 -1.7101861 5 3201076690376 1 0
12.158387 -54.873158 0 22 3201076692680 1 0
6.082623 -50.37466 -0.5907151 13 3201076694984 1 0
2.274565 -10.272626 -1.6368899 39 3201076694984 1 0
14.792583 -54.159225 0.32630408 13 3201076697288 1 0
1.8308337 -10.737144 -1.3864251 3 3201076697288 1 0
9.478631 -55.637413 -0.32802442 10 3201076699592 1 0
3.4448357 -15.579393 -1.7186935 3 3201076699592 1 0
1.9256612 -16.006493 -1.5049504 2 3201076701896 1 0
12.105924 -54.787273 1.3056204 10 3201076701896 1 0
10.030962 -83.48181 0.9788754 28 3201076704200 1 0
3.4242444 -15.507666 -1.1105231 12 3201076704200 1 1
2.6700084 -15.713754 -1.3011806 49 3201076706504 1 1
14.619466 -53.64818 1.6182482 17 3201076706504 1 0
9.428247 -55.536808 0.98326856 25 3201076708808 1 0
4.1759195 -15.332912 -1.0184599 15 3201076708808 1 1
0 0 0 12 3201076711112 1 0
12.032826 -54.60724 3.2564828 70 3201076711112 1 0
9.356307 -55.21037 2.2813988 21 3201076713416 1 0
3.432742 -15.58922 -0.74356735 5 3201076713416 1 1
2.6693933 -15.765666 -0.83800334 2 3201076715720 1 1
8.329091 -37.85138 4.7587543 7 3201076715720 1 0
0 0 0 8 3201076718024 1 0
4.1857104 -15.404202 -0.6503395 1 3201076718024 1 1
3.4935303 -29.326647 -1.0313499 12 3201076720328 1 0
0 0 0 9 3201076720328 1 0
0 0 0 29 3201076722632 1 0
3.4882104 -15.8851185 -0.37844476 4 3201076722632 1 1
0 0 0 4 3201076743368 1 0
4.3296404 -16.035233 -0.28991938 4 3201076743368 1 1
9.412627 -56.23759 -1.6594404 18 3201076745672 1 0
1.3024269 -5.9726343 -1.7112644 6 3201076745672 1 0
1.4374555 -8.59604 -1.7430905 4 3201076747976 1 0
3.4613547 -29.531828 -0.34615925 2 3201076750280 1 0
11.967622 -54.91917 0 22 3201076747976 1 0
2.239534 -10.284366 -1.6375048 43 3201076750280 1 0
1.7926896 -10.739556 -1.38592 4 3201076752584 1 0
14.600321 -54.198944 0.32623434 26 3201076752584 1 0
4.7402234 -28.42295 -0.1674761 7 3201076754888 1 0
3.3912776 -15.595209 -1.7191218 3 3201076754888 1 0
2.2633162 -19.383467 -1.8217038 2 3201076757192 1 0
11.888283 -54.708057 1.3027358 10 3201076757192 1 0
15.906484 -136.39833 1.5986933 28 3201076759496 1 0
3.3700917 -15.519524 -1.1105231 10 3201076759496 1 1
0 0 0 38 3201076761800 1 0
14.4279585 -53.683437 1.6177828 17 3201076761800 1 0
13.830188 -83.225845 1.4726341 29 3201076764104 1 0
4.122372 -15.347396 -1.0184599 15 3201076764104 1 1
0 0 0 24 3201076766408 1 0
11.842984 -54.652813 3.2567153 70 3201076766408 1 0
14.364983 -86.599846 3.5763788 29 3201076768712 1 0
3.3766134 -15.593298 -0.7431951 5 3201076768712 1 1
8.192716 -37.86082 4.7563167 7 3201076771016 1 0
2.6130383 -15.767007 -0.8375846 2 3201076771016 1 1
0 0 0 8 3201076773320 1 0
3.403533 -29.445885 -1.035119 12 3201076775624 1 0
4.131914 -15.41872 -0.6503395 1 3201076773320 1 1
0 0 0 9 3201076775624 1 0
0 0 0 29 3201076777928 1 0
3.4344277 -15.905016 -0.37863088 1 3201076777928 1 1
0 0 0 4 3201076798664 1 0
4.249973 -15.96136 -0.28831375 4 3201076798664 1 1
9.176842 -56.029415 -1.6523423 35 3201076800968 1 0
1.2823781 -5.980911 -1.7123427 6 3201076800968 1 0
1.4087079 -8.608747 -1.7446594 3 3201076803272 1 0
11.774169 -54.95279 0 33 3201076803272 1 0
3.3627658 -29.583473 -0.34662488 2 3201076805576 1 0
2.2011387 -10.280525 -1.63566 39 3201076805576 1 0
14.410016 -54.245712 0.3262111 13 3201076807880 1 0
1.7577492 -10.761413 -1.3879403 8 3201076807880 1 0
4.651287 -28.502487 -0.16784807 10 3201076810184 1 0
3.3418086 -15.630287 -1.7216922 2 3201076810184 1 0
2.193849 -19.37542 -1.8202167 2 3201076812488 1 0
11.721474 -54.862633 1.3054343 10 3201076812488 1 0
15.423526 -136.39342 1.5979948 28 3201076814792 1 0
3.316731 -15.535095 -1.110802 9 3201076814792 1 1
2.5775318 -15.838255 -1.309968 4 3201076817096 1 1
14.235359 -53.71415 1.617201 17 3201076817096 1 0
13.560772 -83.403885 1.4749378 29 3201076819400 1 0
4.0687747 -15.361692 -1.0184599 14 3201076819400 1 1
3.4027708 -30.209452 -1.7704495 8 3201076821704 1 0
11.652139 -54.693817 3.2567153 70 3201076821704 1 0
14.279012 -87.982895 3.6314151 29 3201076824008 1 0
3.323826 -15.612805 -0.74356735 3 3201076824008 1 1
2.5515919 -15.736602 -0.8354912 2 3201076826312 1 1
8.058855 -37.88142 4.755342 7 3201076826312 1 0
0 0 0 8 3201076828616 1 0
4.085215 -15.460097 -0.6514793 1 3201076828616 1 1
3.3154166 -29.588684 -1.0397258 12 3201076830920 1 0
0 0 0 29 3201076833224 1 0
0 0 0 9 3201076830920 1 0
3.3564672 -15.81129 -0.37611845 1 3201076833224 1 1
0 0 0 4 3201076853960 1 0
4.185091 -15.941283 -0.28768545 4 3201076853960 1 1
8.945156 -55.83607 -1.6457096 17 3201076856264 1 0
1.2614931 -5.9853506 -1.7123427 6 3201076856264 1 0
1.3786491 -8.613611 -1.7446594 2 3201076858568 1 0
11.555897 -54.8683 0 33 3201076858568 1 0
3.2721777 -29.710325 -0.34797525 2 3201076860872 1 0
2.1676817 -10.299749 -1.6375048 21 3201076860872 1 0
1.7195481 -10.763564 -1.3874352 10 3201076863176 1 0
14.220575 -54.295685 0.3262111 13 3201076863176 1 0
4.5259185 -28.356602 -0.16689491 10 3201076865480 1 0
2.1361911 -19.474016 -1.8287675 2 3201076867784 1 0
3.2880461 -15.645749 -1.7221205 2 3201076865480 1 0
11.502774 -54.774067 1.3023636 21 3201076867784 1 0
3.2624831 -15.546578 -1.110802 6 3201076870088 1 1
2.5284967 -15.886527 -1.3132226 4 3201076872392 1 1
14.044743 -53.751907 1.6168519 17 3201076872392 1 0
13.292793 -83.596855 1.4775207 29 3201076874696 1 0
4.0151277 -15.375801 -1.0184599 16 3201076874696 1 1
0 0 0 11 3201076877000 1 0
9.009427 -82.242386 0.9631832 28 3201076870088 1 0
11.460332 -54.73025 3.2564828 70 3201076877000 1 0
21.046045 -132.60487 5.4700813 29 3201076879304 1 0
3.269307 -15.624312 -0.74356735 5 3201076879304 1 1
7.922512 -37.88989 4.7529044 7 3201076881608 1 0
0 0 0 8 3201076883912 1 0
4.081602 -15.667644 -0.65962076 1 3201076883912 1 1
3.2228944 -29.699432 -1.0432158 41 3201076886216 1 0
2.5003989 -15.769084 -0.8367473 2 3201076881608 1 1
0 0 0 9 3201076886216 1 0
0 0 0 29 3201076888520 1 0
3.2988048 -15.811166 -0.3758393 1 3201076888520 1 1
0 0 0 4 3201076909256 1 0
4.1143894 -15.897717 -0.28663832 4 3201076909256 1 1
8.681925 -55.42843 -1.6327935 17 3201076911560 1 0
1.2398549 -5.9859366 -1.7112644 6 3201076911560 1 0
1.348699 -8.618352 -1.7446594 3 3201076913864 1 0
11.364288 -54.90422 0 55 3201076913864 1 0
5.545179 -52.00566 -0.6088752 21 3201076916168 1 0
2.1303391 -10.299466 -1.6362749 8 3201076916168 1 0
14.034542 -54.35233 0.3262576 13 3201076918472 1 0
1.6822791 -10.769452 -1.3874352 10 3201076918472 1 0
4.4168377 -28.300928 -0.16647646 25 3201076920776 1 0
3.2355907 -15.664803 -1.7229773 2 3201076920776 1 0
2.0694718 -19.485224 -1.8291392 2 3201076923080 1 0
14.47115 -136.4334 1.5972497 28 3201076925384 1 0
11.310665 -54.797726 1.3019915 21 3201076923080 1 0
2.4537187 -15.765116 -1.3024825 1 3201076927688 1 1
3.2097938 -15.561617 -1.1110811 10 3201076925384 1 1
13.8611555 -53.80367 1.6169683 17 3201076927688 1 0
13.005151 -83.633995 1.4773811 29 3201076929992 1 0
0 0 0 99 3201076929992 1 0
0 0 0 24 3201076932296 1 0
12.975705 -83.59679 3.446604 29 3201076934600 1 0
11.273201 -54.7691 3.2564828 70 3201076932296 1 0
3.2159986 -15.635372 -0.74356735 5 3201076934600 1 1
7.7967095 -37.93219 4.754854 7 3201076936904 1 0
0 0 0 8 3201076939208 1 0
3.9806376 -15.495606 -0.651805 1 3201076939208 1 1
3.1243184 -29.730062 -1.0439137 28 3201076941512 1 0
0 0 0 9 3201076941512 1 0
2.4522254 -15.813028 -0.8386314 2 3201076936904 1 1
0 0 0 29 3201076943816 1 0
3.2453194 -15.82223 -0.3758393 1 3201076943816 1 1
0 0 0 4 3201076964552 1 0
4.0586805 -15.899649 -0.2864289 3 3201076964552 1 1
0 0 0 84 3201076966856 1 0
1.2207668 -5.9937897 -1.7123427 6 3201076966856 1 0
1.3212992 -8.630531 -1.7462283 4 3201076969160 1 0
11.178966 -54.925926 0 77 3201076969160 1 0
3.0742183 -29.76765 -0.34839433 2 3201076971464 1 0
1.6471565 -10.778894 -1.3879403 10 3201076973768 1 0
2.0985365 -10.318093 -1.6381197 8 3201076971464 1 0
13.848303 -54.375313 0.3261181 13 3201076973768 1 0
4.31089 -28.236338 -0.1660115 50 3201076976072 1 0
3.1852095 -15.683241 -1.723834 2 3201076976072 1 0
2.0060675 -19.503864 -1.8302546 2 3201076978376 1 0
11.12491 -54.81534 1.3015262 21 3201076978376 1 0
9.709489 -94.52821 1.1062754 28 3201076980680 1 0
3.158172 -15.572175 -1.1110811 11 3201076980680 1 1
2.4020262 -15.777107 -1.3028079 1 3201076982984 1 1
13.683644 -53.853214 1.6170846 17 3201076982984 1 0
12.811936 -84.23021 1.4871545 29 3201076985288 1 0
3.9104013 -15.39865 -1.018204 16 3201076985288 1 1
3.1071253 -30.373756 -1.7781239 8 3201076987592 1 0
20.127775 -132.57353 5.46308 29 3201076989896 1 0
11.093102 -54.81401 3.256948 70 3201076987592 1 0
3.1641324 -15.64595 -0.74356735 5 3201076989896 1 1
2.3949816 -15.789478 -0.8369566 2 3201076992200 1 1
0 0 0 8 3201076994504 1 0
3.928249 -15.504848 -0.65164214 1 3201076994504 1 1
7.6661606 -37.934486 4.7519293 7 3201076992200 1 0
3.028545 -29.768099 -1.0448909 28 3201076996808 1 0
0 0 0 9 3201076996808 1 0
0 0 0 29 3201076999112 1 0
3.1920428 -15.828985 -0.37574625 1 3201076999112 1 1
0 0 0 4 3201077019296 1 0
4.0010514 -15.893628 -0.28607985 4 3201077019296 1 1
0 0 0 18 3201077021600 1 0
1.2007966 -5.9978223 -1.7123427 6 3201077021600 1 0
1.2918403 -8.631024 -1.7454439 4 3201077023904 1 0
10.99438 -54.95909 0 33 3201077023904 1 0
7.723272 -77.326 -0.90469843 13 3201077026208 1 0
2.0630836 -10.32121 -1.6375048 11 3201077026208 1 0
1.6125344 -10.7961645 -1.3894556 9 3201077028512 1 0
13.668642 -54.43725 0.3262111 13 3201077028512 1 0
4.2269826 -28.329906 -0.16647646 29 3201077030816 1 0
3.1343782 -15.705646 -1.7251192 3 3201077030816 1 0
1.9388888 -19.502653 -1.829511 2 3201077033120 1 0
10.936725 -54.84504 1.3013401 21 3201077033120 1 0
8.158033 -82.1865 0.9615069 28 3201077035424 1 0
3.10181 -15.567225 -1.109965 48 3201077035424 1 1
2.3466845 -15.777372 -1.302157 1 3201077037728 1 1
13.496772 -53.89211 1.6168519 17 3201077037728 1 0
12.460976 -83.8664 1.479964 29 3201077040032 1 0
3.8572986 -15.412038 -1.018204 24 3201077040032 1 1
3.0047143 -30.412148 -1.7797517 8 3201077042336 1 0
10.902514 -54.848164 3.2567153 70 3201077042336 1 0
19.659779 -132.59526 5.461126 29 3201077044640 1 0
3.1120613 -15.6686125 -0.7441257 5 3201077044640 1 1
2.362091 -15.947896 -0.8449117 2 3201077046944 1 1
7.531379 -37.949333 4.750467 7 3201077046944 1 0
0 0 0 8 3201077049248 1 0
3.874845 -15.522399 -0.651805 3 3201077049248 1 1
0 0 0 9 3201077051552 1 0
2.9257033 -29.798466 -1.045589 28 3201077051552 1 0
0 0 0 29 3201077053856 1 0
3.1601546 -15.961774 -0.37863088 2 3201077053856 1 1
3.9427717 -15.908186 -0.28607985 4 3201077074592 1 1
7.9617577 -54.498177 -1.6028885 31 3201077076896 1 0
1.1795914 -6.0059543 -1.713421 6 3201077076896 1 0
0.56706744 -3.87763 -1.8274014 0 3201077074592 1 0
1.2614558 -8.643445 -1.7470129 3 3201077079200 1 0
10.795212 -55.006714 0 33 3201077079200 1 0
7.451069 -77.453156 -0.9058625 13 3201077081504 1 0
2.025466 -10.328658 -1.6375048 11 3201077081504 1 0
13.442773 -54.37398 0.3255369 13 3201077083808 1 0
4.137973 -28.440058 -0.1670344 18 3201077086112 1 0
1.5732678 -10.801956 -1.3894556 8 3201077083808 1 0
3.078893 -15.724722 -1.725976 3 3201077086112 1 0
1.8693852 -19.52144 -1.8306264 2 3201077088416 1 0
10.733421 -54.86074 1.3007817 21 3201077088416 1 0
3.047822 -15.590082 -1.110802 22 3201077090720 1 1
7.359943 -76.97571 0.90022826 26 3201077090720 1 0
2.2914772 -15.79757 -1.3031334 1 3201077093024 1 1
13.298465 -53.92491 1.6163864 17 3201077093024 1 0
12.561622 -86.68927 1.5289705 29 3201077095328 1 0
3.8017943 -15.425823 -1.018204 30 3201077095328 1 1
2.9056556 -30.530079 -1.7860308 8 3201077097632 1 0
10.705404 -54.88698 3.2567153 70 3201077097632 1 0
19.161966 -132.51062 5.454776 29 3201077099936 1 0
3.0543377 -15.671825 -0.7437535 5 3201077099936 1 1
2.3078713 -15.976012 -0.8459584 2 3201077102240 1 1
0 0 0 8 3201077104544 1 0
3.8117623 -15.505087 -0.6505023 1 3201077104544 1 1
2.821384 -29.828602 -1.046287 28 3201077106848 1 0
0 0 0 9 3201077106848 1 0
0 0 0 29 3201077109152 1 0
7.3947926 -37.972137 4.7499795 7 3201077102240 1 0
3.1102371 -16.008242 -0.37946835 4 3201077109152 1 1
0.5330465 -3.7360303 -1.7597824 0 3201077129888 1 0
3.8891149 -15.929623 -0.28621948 4 3201077129888 1 1
7.7308545 -54.24064 -1.5945103 31 3201077132192 1 0
1.1593487 -6.013818 -1.7144994 5 3201077132192 1 0
1.2318298 -8.651679 -1.7477973 4 3201077134496 1 0
7.155931 -77.21185 -0.90274274 13 3201077136800 1 0
5.626154 -29.207052 0 49 3201077134496 1 0
1.9879059 -10.327903 -1.6362749 10 3201077136800 1 0
1.5355524 -10.807383 -1.3894556 4 3201077139104 1 0
13.277497 -54.52162 0.32614136 13 3201077139104 1 0
4.0532875 -28.557295 -0.16763884 25 3201077141408 1 0
3.0292387 -15.7627125 -1.7289747 3 3201077141408 1 0
1.8030603 -19.547676 -1.8324852 2 3201077143712 1 0
10.524511 -54.807545 1.2986416 21 3201077143712 1 0
7.054157 -76.598656 0.8955252 51 3201077146016 1 0
2.2374363 -15.813368 -1.3037844 1 3201077148320 1 1
2.993384 -15.600627 -1.110802 15 3201077146016 1 1
13.108263 -53.963234 1.6161537 17 3201077148320 1 0
11.763033 -83.22401 1.4671191 29 3201077150624 1 0
3.747925 -15.439 -1.018204 49 3201077150624 1 1
2.799797 -30.547987 -1.7864958 8 3201077152928 1 0
10.513748 -54.92401 3.2567153 70 3201077152928 1 0
18.694277 -132.54108 5.45331 29 3201077155232 1 0
3.001866 -15.694165 -0.74431187 5 3201077155232 1 1
2.2520907 -15.983972 -0.8459584 2 3201077157536 1 1
7.219718 -37.775444 4.7221932 21 3201077157536 1 0
0 0 0 8 3201077159840 1 0
3.799002 -15.689213 -0.6576668 1 3201077159840 1 1
2.718333 -29.850212 -1.0467057 28 3201077162144 1 0
0 0 0 9 3201077162144 1 0
3.0745614 -16.125061 -0.38198075 4 3201077164448 1 1
0 0 0 29 3201077164448 1 0
0.5264958 -3.7845469 -1.7817585 0 3201077185184 1 0
3.8353562 -15.950878 -0.28635907 4 3201077185184 1 1
7.5079007 -54.02572 -1.5874122 30 3201077187488 1 0
1.1383495 -6.017828 -1.7144994 6 3201077187488 1 0
1.2016222 -8.655926 -1.7477973 4 3201077189792 1 0
0 0 0 7 3201077189792 1 0
6.8980894 -77.36783 -0.90427935 13 3201077192096 1 0
1.9584441 -10.369733 -1.6418092 28 3201077192096 1 0
1.4983627 -10.8166065 -1.3899606 3 3201077194400 1 0
13.064712 -54.474285 0.3255834 13 3201077194400 1 0
2.9719872 -15.761466 -1.7276896 3 3201077196704 1 0
3.967286 -28.670324 -0.16822003 30 3201077196704 1 0
1.7351671 -19.557817 -1.832857 2 3201077199008 1 0
10.330172 -54.82823 1.2982693 21 3201077199008 1 0
6.7867346 -76.62281 0.8955252 51 3201077201312 1 0
2.9418623 -15.626666 -1.1119182 46 3201077201312 1 1
2.1827686 -15.825031 -1.3041098 1 3201077203616 1 1
12.921678 -54.016438 1.6163864 17 3201077203616 1 0
11.302137 -82.02843 1.4453385 29 3201077205920 1 0
3.6949382 -15.455871 -1.0184599 93 3201077205920 1 1
2.697705 -30.609287 -1.7895191 8 3201077208224 1 0
10.3227005 -54.964302 3.256948 70 3201077208224 1 0
18.207556 -132.43132 5.4461455 29 3201077210528 1 0
2.9463282 -15.700621 -0.7441257 5 3201077210528 1 1
2.192478 -15.964033 -0.844493 2 3201077212832 1 1
10.313804 -55.005123 6.871481 22 3201077212832 1 0
3.7052784 -15.539095 -0.650828 1 3201077215136 1 1
0 0 0 8 3201077215136 1 0
2.6162117 -29.883413 -1.0475433 29 3201077217440 1 0
0 0 0 9 3201077217440 1 0
0 0 0 29 3201077219744 1 0
10.301773 -55.07362 -1.3037595 22 3201077219744 1 0
0.51084715 -3.7683997 -1.7733063 0 3201077240480 1 0
3.7805753 -15.9680605 -0.2864289 4 3201077240480 1 1
7.2870784 -53.813866 -1.5804305 30 3201077242784 1 0
1.1166338 -6.0179777 -1.713421 6 3201077242784 1 0
1.1724516 -8.667841 -1.7493663 3 3201077245088 1 0
4.3419776 -50.698963 -0.59239143 20 3201077247392 1 0
10.221518 -55.132473 0 22 3201077245088 1 0
1.9157556 -10.341529 -1.6362749 47 3201077247392 1 0
1.4611273 -10.825704 -1.3904657 3 3201077249696 1 0
12.874482 -54.519558 0.3255834 13 3201077249696 1 0
3.8837514 -28.806885 -0.16894071 30 3201077252000 1 0
2.9039326 -15.701352 -1.7199786 3 3201077252000 1 0
1.6679014 -19.57566 -1.8339723 2 3201077254304 1 0
10.132182 -54.828564 1.2974318 21 3201077254304 1 0
6.5138063 -76.58227 0.8947802 51 3201077256608 1 0
0 0 0 108 3201077256608 1 0
12.732129 -54.057323 1.6162701 17 3201077258912 1 0
2.1291084 -15.844407 -1.3050861 1 3201077258912 1 1
11.170565 -83.220856 1.4656531 29 3201077261216 1 0
3.6409647 -15.468675 -1.0184599 112 3201077261216 1 1
2.60229 -30.753803 -1.797426 8 3201077263520 1 0
10.132223 -55.007854 3.2574131 70 3201077263520 1 0
17.740929 -132.46237 5.444843 29 3201077265824 1 0
2.8929513 -15.718669 -0.74449795 10 3201077265824 1 1
2.1388583 -15.987427 -0.84533036 2 3201077268128 1 1
10.118147 -55.021267 6.869044 67 3201077268128 1 0
0 0 0 8 3201077270432 1 0
3.654668 -15.567498 -0.6514793 1 3201077270432 1 1
0 0 0 9 3201077272736 1 0
2.5132222 -29.908297 -1.0481017 29 3201077272736 1 0
0 0 0 29 3201077275040 1 0
10.118126 -55.156445 -1.3048761 100 3201077275040 1 0
0.4934199 -3.7378135 -1.7580919 0 3201077295776 1 0
3.7284448 -15.996739 -0.28670815 4 3201077295776 1 1
0 0 0 56 3201077298080 1 0
1.0963098 -6.0256286 -1.7144994 6 3201077298080 1 0
1.1421881 -8.671882 -1.7493663 3 3201077300384 1 0
10.02543 -55.14814 0 22 3201077300384 1 0
6.3257127 -77.023445 -0.899716 13 3201077302688 1 0
1.8817644 -10.359819 -1.6381197 53 3201077302688 1 0
1.4238467 -10.834672 -1.3909707 3 3201077304992 1 0
12.680471 -54.54858 0.32549042 13 3201077304992 1 0
3.799832 -28.947174 -0.16968463 41 3201077307296 1 0
2.841301 -15.668348 -1.7152663 3 3201077307296 1 0
9.937881 -54.84786 1.2970597 31 3201077309600 1 0
1.6008565 -19.59724 -1.8354595 2 3201077309600 1 0
6.2461195 -76.600555 0.89473367 51 3201077311904 1 0
0 0 0 14 3201077311904 1 0
2.0737882 -15.851743 -1.3050861 1 3201077314208 1 1
12.541551 -54.093647 1.6160374 17 3201077314208 1 0
10.961362 -83.88195 1.4766132 29 3201077316512 1 0
3.5878477 -15.485178 -1.0187157 147 3201077316512 1 1
9.941567 -55.050747 3.257878 47 3201077318816 1 0
2.4958916 -30.77464 -1.7981236 8 3201077318816 1 0
17.282574 -132.5552 5.4461455 29 3201077321120 1 0
2.8401937 -15.740468 -0.74505633 5 3201077321120 1 1
2.0835547 -15.998756 -0.8455397 2 3201077323424 1 1
9.914754 -54.993736 6.861244 22 3201077323424 1 0
0 0 0 8 3201077325728 1 0
3.5913067 -15.54122 -0.649851 1 3201077325728 1 1
2.4107323 -29.940796 -1.0489392 29 3201077328032 1 0
0 0 0 9 3201077328032 1 0
0 0 0 29 3201077330336 1 0
9.7584915 -54.26258 -1.2829157 100 3201077330336 1 0
0.48221707 -3.7538958 -1.7648538 0 3201077351072 1 0
0 0 0 18 3201077353376 1 0
3.6824195 -16.052536 -0.28747603 4 3201077351072 1 1
1.0753136 -6.029411 -1.7144994 6 3201077353376 1 0
1.1120368 -8.675799 -1.7493663 3 3201077355680 1 0
9.832265 -55.17478 0 44 3201077355680 1 0
6.057866 -77.03695 -0.8996229 13 3201077357984 1 0
1.8430451 -10.350719 -1.63566 54 3201077357984 1 0
1.3868366 -10.843472 -1.3914758 3 3201077360288 1 0
12.490681 -54.58825 0.32546717 13 3201077360288 1 0
3.717052 -29.095028 -0.17047505 37 3201077362592 1 0
2.786465 -15.674153 -1.7148379 3 3201077362592 1 0
1.5345372 -19.618525 -1.8369466 2 3201077364896 1 0
9.801215 -55.177086 1.3040386 32 3201077364896 1 0
6.016222 -77.052246 0.8997626 52 3201077367200 1 0
0 0 0 8 3201077367200 1 0
2.020876 -15.870632 -1.3060626 1 3201077369504 1 1
12.356691 -54.140274 1.6161537 17 3201077369504 1 0
16.824446 -132.274 2.327453 29 3201077371808 1 0
3.5312362 -15.48181 -1.0176923 219 3201077371808 1 1
2.3956385 -30.846691 -1.8018446 8 3201077374112 1 0
9.756135 -55.100132 3.2588084 71 3201077374112 1 0
16.804207 -132.4072 5.4376783 29 3201077376416 1 0
2.7913647 -15.777605 -0.7463592 1 3201077376416 1 1
0 0 0 1 3201077378720 1 0
2.0275855 -15.993866 -0.8449117 2 3201077378720 1 1
0 0 0 8 3201077381024 1 0
3.5438259 -15.576709 -0.650828 1 3201077381024 1 1
2.3107905 -29.968721 -1.0496373 29 3201077383328 1 0
0 0 0 9 3201077383328 1 0
0 0 0 29 3201077385632 1 0
0.47111595 -3.7662659 -1.7699252 0 3201077406368 1 0
3.6397426 -16.111473 -0.28831375 4 3201077406368 1 1
9.724258 -55.141975 -1.302922 33 3201077385632 1 0
6.6464143 -53.19973 -1.5602999 14 3201077408672 1 0
1.0849508 -8.695039 -1.7525041 3 3201077410976 1 0
9.628359 -55.097034 0 33 3201077410976 1 0
5.8434296 -77.647156 -0.9065144 13 3201077413280 1 0
1.0558894 -6.036753 -1.7155776 5 3201077408672 1 0
1.8082588 -10.3568535 -1.63566 47 3201077413280 1 0
1.3526902 -10.867778 -1.3940012 9 3201077415584 1 0
12.30817 -54.63789 0.32551366 13 3201077415584 1 0
3.6366897 -29.254326 -0.17133522 30 3201077417888 1 0
2.7353802 -15.69526 -1.7161231 3 3201077417888 1 0
1.4674618 -19.619663 -1.8365748 2 3201077420192 1 0
9.594848 -55.103752 1.3015262 31 3201077420192 1 0
5.6316557 -75.44899 0.8808109 24 3201077422496 1 0
2.7219105 -15.646225 -1.1105231 9 3201077422496 1 1
1.9668785 -15.881432 -1.306388 1 3201077424800 1 1
12.170783 -54.18237 1.6161537 8 3201077424800 1 0
16.368395 -132.3312 2.327453 29 3201077427104 1 0
3.4813461 -15.509469 -1.0187157 167 3201077427104 1 1
0 0 0 17 3201077429408 1 0
9.566027 -55.13751 3.259041 47 3201077429408 1 0
16.32965 -132.34978 5.4329567 29 3201077431712 1 0
2.7358208 -15.783277 -0.7461731 1 3201077431712 1 1
1.9707671 -15.992917 -0.844493 2 3201077434016 1 1
0 0 0 1 3201077434016 1 0
0 0 0 8 3201077436320 1 0
3.5302336 -15.772344 -0.65848094 1 3201077436320 1 1
2.207054 -30.00059 -1.0504749 34 3201077438624 1 0
0 0 0 9 3201077438624 1 0
0 0 0 29 3201077440928 1 0
9.519782 -55.12083 -1.3016192 33 3201077440928 1 0
0.45730874 -3.7679672 -1.7699252 0 3201077461664 1 0
3.5954056 -16.191078 -0.2895005 4 3201077461664 1 1
6.1005287 -50.32613 -1.4753555 34 3201077463968 1 0
1.0357497 -6.051965 -1.7188125 7 3201077463968 1 0
1.0532012 -8.698942 -1.7525041 4 3201077466272 1 0
9.482439 -55.455124 0 22 3201077466272 1 0
0 0 0 12 3201077468576 1 0
1.7725098 -10.375061 -1.6375048 41 3201077468576 1 0
1.310786 -10.852927 -1.3914758 9 3201077470880 1 0
12.105961 -54.66666 0.32542068 13 3201077470880 1 0
3.5357764 -29.311012 -0.17159094 27 3201077473184 1 0
2.701808 -15.842297 -1.7311167 2 3201077473184 1 0
1.3983773 -19.652657 -1.8391773 2 3201077475488 1 0
9.420077 -55.283997 1.3049691 21 3201077475488 1 0
5.3628917 -75.524704 0.8814628 24 3201077477792 1 0
2.667352 -15.667761 -1.1113602 3 3201077477792 1 1
1.9205232 -15.979463 -1.3138735 1 3201077480096 1 1
11.9761305 -54.22982 1.6162701 8 3201077480096 1 0
16.373362 -136.39986 2.3979607 29 3201077482400 1 0
3.4211924 -15.502411 -1.0174365 116 3201077482400 1 1
2.11249 -29.934708 -1.747659 46 3201077484704 1 0
9.369222 -55.179394 3.259506 47 3201077484704 1 0
9.091253 -75.92219 3.1152468 29 3201077487008 1 0
2.701271 -15.922983 -0.7523152 1 3201077487008 1 1
1.9196998 -16.051428 -0.84721446 4 3201077489312 1 1
0 0 0 1 3201077489312 1 0
0 0 0 8 3201077491616 1 0
3.4283655 -15.577975 -0.649851 1 3201077491616 1 1
2.1032066 -30.05213 -1.0520104 25 3201077493920 1 0
0 0 0 9 3201077493920 1 0
0 0 0 29 3201077496224 1 0
9.387029 -55.528915 -1.3104593 11 3201077496224 1 0
0.44415328 -3.7695405 -1.7699252 0 3201077516960 1 0
3.5602 -16.301212 -0.29124576 3 3201077516960 1 1
5.9304285 -50.39477 -1.4767519 34 3201077519264 1 0
1.013345 -6.047946 -1.7166559 5 3201077519264 1 0
1.0237454 -8.710357 -1.754073 3 3201077521568 1 0
9.319186 -55.66936 0 11 3201077521568 1 0
0 0 0 28 3201077523872 1 0
1.7349793 -10.373388 -1.6362749 13 3201077523872 1 0
1.2733563 -10.861378 -1.3919809 10 3201077526176 1 0
11.915916 -54.712494 0.32544392 13 3201077526176 1 0
2.6517308 -15.883013 -1.7345438 2 3201077528480 1 0
3.4446044 -29.418522 -0.17214888 15 3201077528480 1 0
1.3300371 -19.661392 -1.839549 2 3201077530784 1 0
9.277046 -55.616318 1.3120412 10 3201077530784 1 0
2.613957 -15.684849 -1.1119182 3 3201077533088 1 1
5.0458927 -74.752815 0.8722431 23 3201077533088 1 0
1.8638089 -15.978149 -1.3132226 1 3201077535392 1 1
11.789306 -54.283016 1.6166191 8 3201077535392 1 0
9.827994 -84.36051 1.4824772 29 3201077537696 1 0
3.3636715 -15.498654 -1.0164132 105 3201077537696 1 1
2.0095887 -29.965805 -1.7490543 8 3201077540000 1 0
8.827103 -75.9614 3.1155725 29 3201077542304 1 0
22.040487 -132.60907 7.828768 28 3201077540000 1 0
2.6221092 -15.790414 -0.7456147 1 3201077542304 1 1
0 0 0 1 3201077544608 1 0
3.4312124 -29.56471 -1.5598209 13 3201077544608 1 0
0 0 0 8 3201077546912 1 0
3.371431 -15.578129 -0.64936256 1 3201077546912 1 1
2.001209 -30.103165 -1.053546 17 3201077549216 1 0
0 0 0 9 3201077549216 1 0
0 0 0 29 3201077551520 1 0
9.323044 -56.346455 -1.3289766 23 3201077551520 1 0
0.42687598 -3.7350502 -1.7530205 0 3201077572256 1 0
11.765199 -54.786434 -0.9781027 10 3201077572256 1 0
0.99293894 -6.055233 -1.7177342 6 3201077574560 1 0
5.747052 -50.343575 -1.4746573 33 3201077574560 1 0
0.99358785 -8.713848 -1.754073 5 3201077576864 1 0
9.1949835 -56.11971 0 11 3201077576864 1 0
4.8752785 -75.44151 -0.88011247 26 3201077579168 1 0
1.7024045 -10.39881 -1.6393496 8 3201077579168 1 0
1.2365159 -10.869627 -1.392486 11 3201077581472 1 0
11.723021 -54.729607 0.32530442 13 3201077581472 1 0
3.3566782 -29.541407 -0.17279981 15 3201077583776 1 0
2.5993528 -15.903758 -1.735829 2 3201077583776 1 0
1.2687302 -19.753242 -1.8477281 2 3201077586080 1 0
13.641875 -83.5345 1.9695505 28 3201077586080 1 0
4.7889566 -74.7136 0.87159115 23 3201077588384 1 0
2.5627162 -15.705431 -1.1127553 2 3201077588384 1 1
0 0 0 95 3201077590688 1 0
11.603565 -54.31076 1.6162701 8 3201077590688 1 0
15.421958 -136.36179 2.3953776 29 3201077592992 1 0
3.3174155 -15.537194 -1.018204 69 3201077592992 1 1
1.9799107 -31.080233 -1.8137048 8 3201077595296 1 0
21.589062 -132.63477 7.8259773 28 3201077595296 1 0
2.5682194 -15.791172 -0.7452425 1 3201077597600 1 1
8.520727 -75.51778 3.0961957 29 3201077597600 1 0
3.3362849 -29.603712 -1.5612862 13 3201077599904 1 0
0 0 0 8 3201077602208 1 0
0 0 0 1 3201077599904 1 0
3.3274727 -15.624355 -0.650828 1 3201077602208 1 1
1.9052728 -30.157455 -1.0552212 17 3201077604512 1 0
0 0 0 29 3201077606816 1 0
9.103408 -56.159557 -1.3238587 23 3201077606816 1 0
0 0 0 9 3201077604512 1 0
0.41754183 -3.757991 -1.7631634 0 3201077627552 1 0
11.589714 -54.807472 -0.97782344 10 3201077627552 1 0
3.2951944 -29.693068 -0.8694579 14 3201077629856 1 0
0.96577555 -8.713028 -1.7532886 3 3201077632160 1 0
8.99199 -55.982445 0 11 3201077632160 1 0
0.9732996 -6.054519 -1.7166559 6 3201077629856 1 0
4.5724816 -74.38655 -0.8676332 38 3201077634464 1 0
1.6672221 -10.388496 -1.6368899 9 3201077634464 1 0
1.202798 -10.877402 -1.3929911 10 3201077636768 1 0
11.554326 -54.78182 0.32539743 26 3201077636768 1 0
3.2792234 -29.690958 -0.17361349 38 3201077639072 1 0
2.5518935 -15.927553 -1.7375425 2 3201077639072 1 0
1.2061818 -19.749182 -1.8469845 1 3201077641376 1 0
13.4527025 -84.03499 1.9803447 28 3201077641376 1 0
4.9262295 -80.83254 0.94278806 28 3201077643680 1 0
2.513994 -15.717344 -1.1130342 2 3201077643680 1 1
11.432063 -54.343033 1.6161537 8 3201077645984 1 0
2.4212198 -22.001543 -1.8069422 23 3201077645984 1 0
8.810035 -80.15299 1.4075017 29 3201077648288 1 0
3.2685876 -15.54754 -1.018204 36 3201077648288 1 1
1.8895 -31.205877 -1.8206816 8 3201077650592 1 0
21.171013 -132.69405 7.8255124 28 3201077650592 1 0
8.329181 -75.96132 3.1132927 29 3201077652896 1 0
2.5173392 -15.791271 -0.74487025 1 3201077652896 1 1
3.2554421 -29.72523 -1.5671479 37 3201077655200 1 0
0 0 0 1 3201077655200 1 0
0 0 0 8 3201077657504 1 0
1.8119583 -30.187235 -1.0560588 25 3201077659808 1 0
3.2750902 -15.619085 -0.6501767 1 3201077657504 1 1
0 0 0 9 3201077659808 1 0
0 0 0 29 3201077662112 1 0
8.892422 -55.97066 -1.3187408 22 3201077662112 1 0
0.40388212 -3.7667758 -1.7665443 1 3201077683296 1 0
11.392994 -54.918144 -0.97901016 10 3201077683296 1 0
5.4002514 -50.43423 -1.4761701 34 3201077685600 1 0
0.9505534 -6.0620313 -1.7177342 6 3201077685600 1 0
0.9328934 -8.7245 -1.7548575 4 3201077687904 1 0
13.098313 -83.61226 0 28 3201077687904 1 0
4.2578306 -73.95651 -0.862418 12 3201077690208 1 0
1.1608107 -10.885954 -1.3934962 8 3201077692512 1 0
1.6280897 -10.402702 -1.6381197 8 3201077690208 1 0
11.339894 -54.822525 0.3253742 39 3201077692512 1 0
3.1685405 -29.755266 -0.1739157 19 3201077694816 1 0
2.490786 -15.945274 -1.7383993 2 3201077694816 1 0
1.1292994 -19.765694 -1.8480998 2 3201077697120 1 0
13.030105 -83.49451 1.9663867 28 3201077697120 1 0
4.5932508 -80.599754 0.9398545 28 3201077699424 1 0
2.4526389 -15.731074 -1.1133133 3 3201077699424 1 1
2.3362632 -22.030773 -1.8085696 23 3201077701728 1 0
11.224257 -54.423077 1.617201 8 3201077701728 1 0
8.205311 -77.48288 1.3600311 27 3201077704032 1 0
3.20844 -15.568214 -1.0187157 28 3201077704032 1 1
1.7662519 -31.233093 -1.8218443 8 3201077706336 1 0
13.596141 -87.4555 5.154373 28 3201077706336 1 0
8.025291 -75.994026 3.1132927 29 3201077708640 1 0
2.4541588 -15.801213 -0.74487025 1 3201077708640 1 1
3.139443 -29.769838 -1.5688226 41 3201077710944 1 0
0 0 0 1 3201077710944 1 0
0 0 0 8 3201077713248 1 0
3.214551 -15.643898 -0.65066516 1 3201077713248 1 1
1.6916734 -30.226246 -1.0571755 25 3201077715552 1 0
0 0 0 9 3201077715552 1 0
0 0 0 29 3201077717856 1 0
8.596746 -55.563675 -1.308319 22 3201077717856 1 0
0.38886166 -3.7501333 -1.7580919 1 3201077738592 1 0
0 0 0 36 3201077738592 1 0
5.2254057 -50.464706 -1.4765191 34 3201077740896 1 0
0.93055403 -6.072927 -1.7198908 6 3201077740896 1 0
0.9028369 -8.731605 -1.7556419 4 3201077743200 1 0
12.9256115 -84.43639 0 28 3201077743200 1 0
3.9983525 -73.94696 -0.8621386 25 3201077745504 1 0
1.5911701 -10.404415 -1.6375048 8 3201077745504 1 0
1.1232115 -10.893887 -1.3940012 4 3201077747808 1 0
11.168373 -54.95977 0.32595536 39 3201077747808 1 0
3.064656 -29.766146 -0.1739157 15 3201077750112 1 0
2.4363117 -15.961735 -1.739256 2 3201077750112 1 0
12.735561 -83.519714 1.9659214 28 3201077752416 1 0
1.0607239 -19.77747 -1.8488435 2 3201077752416 1 0
2.4007168 -15.759263 -1.1147084 3 3201077754720 1 1
4.3266172 -80.890884 0.94306743 28 3201077754720 1 0
2.260567 -22.050692 -1.8095459 23 3201077757024 1 0
11.036598 -54.47368 1.61755 8 3201077757024 1 0
7.906285 -77.232544 1.3551445 27 3201077759328 1 0
3.1532853 -15.575407 -1.0184599 26 3201077759328 1 1
1.6593328 -31.278944 -1.8241699 8 3201077761632 1 0
13.24161 -87.17869 5.1353035 28 3201077761632 1 0
7.716953 -75.60012 3.0960329 29 3201077763936 1 0
2.401385 -15.825485 -0.7456147 1 3201077763936 1 1
3.037533 -29.800486 -1.5698694 41 3201077766240 1 0
0 0 0 1 3201077766240 1 0
0 0 0 8 3201077768544 1 0
1.5884578 -30.275879 -1.0587112 29 3201077770848 1 0
3.1607146 -15.658941 -0.650828 1 3201077768544 1 1
0 0 0 9 3201077770848 1 0
0 0 0 29 3201077773152 1 0
0 0 0 21 3201077773152 1 0
0.37757546 -3.7695036 -1.7665443 1 3201077793888 1 0
0 0 0 14 3201077793888 1 0
5.0516067 -50.506508 -1.4772173 34 3201077796192 1 0
0.9082096 -6.0685196 -1.7177342 6 3201077796192 1 0
0.873132 -8.742508 -1.757211 3 3201077798496 1 0
4.2272205 -28.273739 0 11 3201077798496 1 0
2.437042 -48.191147 -0.5617521 6 3201077800800 1 0
1.5589293 -10.43727 -1.6418092 17 3201077800800 1 0
1.0871438 -10.917483 -1.3965266 3 3201077803104 1 0
10.967065 -54.951347 0.32567638 26 3201077803104 1 0
2.9631085 -29.800543 -0.17405519 11 3201077805408 1 0
2.3835118 -15.989809 -1.741398 2 3201077805408 1 0
0.99227947 -19.792984 -1.8499588 2 3201077807712 1 0
12.590608 -84.54853 1.9890915 28 3201077807712 1 0
4.048023 -80.98139 0.94395214 28 3201077810016 1 0
2.3468664 -15.775441 -1.1152666 3 3201077810016 1 1
10.842482 -54.492268 1.6169683 8 3201077812320 1 0
2.1835818 -22.058447 -1.8095459 23 3201077812320 1 0
7.528067 -76.161194 1.335877 52 3201077814624 1 0
3.0988977 -15.586319 -1.0184599 16 3201077814624 1 1
1.552115 -31.32443 -1.8264955 8 3201077816928 1 0
19.65951 -132.54694 7.803652 28 3201077816928 1 0
7.5082808 -76.187416 3.1189919 29 3201077819232 1 0
2.3490574 -15.853534 -0.7465454 1 3201077819232 1 1
2.935056 -29.826807 -1.5707067 42 3201077821536 1 0
0 0 0 1 3201077821536 1 0
0 0 0 8 3201077823840 1 0
3.1037042 -15.658118 -0.6503395 1 3201077823840 1 1
0 0 0 9 3201077826144 1 0
1.4849162 -30.32516 -1.0602467 26 3201077826144 1 0
0 0 0 29 3201077828448 1 0
0 0 0 3 3201077828448 1 0
0.3654613 -3.7816238 -1.7716157 1 3201077849184 1 0
5.7356877 -29.181124 -0.51910436 28 3201077849184 1 0
4.8779635 -50.551693 -1.4780319 22 3201077851488 1 0
0.88757783 -6.0754642 -1.7188125 7 3201077851488 1 0
0.84148115 -8.73379 -1.7548575 3 3201077853792 1 0
7.960087 -54.5422 0 10 3201077853792 1 0
2.26091 -48.03156 -0.5597964 6 3201077856096 1 0
1.5230571 -10.446559 -1.6424241 52 3201077856096 1 0
1.0505456 -10.937011 -1.3985468 3 3201077858400 1 0
10.776721 -54.997147 0.3257229 26 3201077858400 1 0
2.8594491 -29.814688 -0.17407843 11 3201077860704 1 0
2.3276823 -15.998032 -1.741398 2 3201077860704 1 0
0.923183 -19.796328 -1.8499588 2 3201077863008 1 0
19.276562 -132.62213 3.1184704 28 3201077863008 1 0
3.7341163 -80.3238 0.93612933 28 3201077865312 1 0
2.1084647 -22.08578 -1.8111732 23 3201077867616 1 0
10.657568 -54.55725 1.6177828 8 3201077867616 1 0
7.325546 -76.85189 1.3475353 53 3201077869920 1 0
3.045237 -15.60096 -1.0187157 11 3201077869920 1 1
0 0 0 10 3201077872224 1 0
19.193855 -132.59499 7.8024893 28 3201077872224 1 0
7.296358 -76.78212 3.1422763 29 3201077874528 1 0
2.2919884 -15.849773 -0.745987 1 3201077874528 1 1
2.8313005 -29.840849 -1.570916 42 3201077876832 1 0
0 0 0 1 3201077876832 1 0
0 0 0 8 3201077879136 1 0
2.2929323 -15.791435 -1.1158246 3 3201077865312 1 1
3.054372 -15.696318 -0.6514793 1 3201077879136 1 1
1.3808683 -30.370092 -1.0616426 26 3201077881440 1 0
0 0 0 9 3201077881440 1 0
0 0 0 29 3201077883744 1 0
7.85767 -54.56218 -1.2827295 22 3201077883744 1 0
0.34990585 -3.7576094 -1.7597824 1 3201077904480 1 0
5.6269727 -29.165625 -0.51847607 8 3201077904480 1 0
4.7022157 -50.576374 -1.4782646 34 3201077906784 1 0
0.8117145 -8.744485 -1.7564265 2 3201077909088 1 0
0.86745214 -6.086152 -1.7209691 5 3201077906784 1 0
11.9555645 -83.969154 0 28 3201077909088 1 0
1.3278164 -30.473019 -0.3550996 3 3201077911392 1 0
1.4815735 -10.4165945 -1.6368899 45 3201077911392 1 0
1.0127275 -10.944562 -1.3990519 3 3201077913696 1 0
10.58619 -55.042286 0.3257694 26 3201077913696 1 0
2.27406 -16.02181 -1.7431116 2 3201077916000 1 0
2.756831 -29.840418 -0.17417143 7 3201077916000 1 0
0.8542469 -19.80341 -1.8503305 2 3201077918304 1 0
11.858017 -83.63266 1.9655492 28 3201077918304 1 0
3.4568036 -80.40827 0.9369675 28 3201077920608 1 0
2.031358 -22.093004 -1.8111732 26 3201077922912 1 0
2.238915 -15.807244 -1.1163826 3 3201077920608 1 1
10.464804 -54.58234 1.6174337 8 3201077922912 1 0
2.9915123 -15.615415 -1.0189716 6 3201077925216 1 1
1.2721053 -29.894249 -1.7425427 45 3201077927520 1 0
18.733686 -132.68095 7.803652 28 3201077927520 1 0
7.0301833 -76.58228 1.3423693 53 3201077925216 1 0
6.9671087 -76.13847 3.114921 29 3201077929824 1 0
2.2355323 -15.849764 -0.7456147 1 3201077929824 1 1
2.7282095 -29.862484 -1.571544 42 3201077932128 1 0
0 0 0 1 3201077932128 1 0
0 0 0 8 3201077934432 1 0
3.0010626 -15.714736 -0.651805 1 3201077934432 1 1
1.2765249 -30.414667 -1.0630387 21 3201077936736 1 0
0 0 0 29 3201077939040 1 0
7.6232247 -54.27643 -1.2753783 21 3201077939040 1 0
0 0 0 9 3201077936736 1 0
0.33840483 -3.7768617 -1.7682348 1 3201077959776 1 0
10.429086 -55.088966 -0.9786611 10 3201077959776 1 0
4.527424 -50.612392 -1.4788464 34 3201077962080 1 0
0.7815345 -8.751172 -1.757211 2 3201077964384 1 0
0.84673244 -6.0929585 -1.7220474 5 3201077962080 1 0
11.607384 -83.614174 0 28 3201077964384 1 0
1.9175256 -47.846348 -0.5574682 18 3201077966688 1 0
1.4457467 -10.425617 -1.6375048 46 3201077966688 1 0
10.380641 -55.008152 0.32535094 26 3201077968992 1 0
0.9745177 -10.94803 -1.3990519 3 3201077968992 1 0
2.6554842 -29.881733 -0.17435741 8 3201077971296 1 0
2.218665 -16.03359 -1.7435399 2 3201077971296 1 0
0.7857459 -19.822187 -1.8518176 2 3201077973600 1 0
11.573678 -83.729004 1.966852 28 3201077973600 1 0
3.1607945 -80.03218 0.9324508 28 3201077975904 1 0
2.1859071 -15.830774 -1.1174988 2 3201077975904 1 1
1.9552802 -22.111874 -1.8121495 26 3201077978208 1 0
10.273473 -54.614605 1.6173173 8 3201077978208 1 0
6.7557845 -76.52667 1.3409731 53 3201077980512 1 0
2.936986 -15.625762 -1.0189716 3 3201077980512 1 1
1.1680589 -29.906487 -1.7430079 24 3201077982816 1 0
18.239393 -132.52005 7.790396 28 3201077982816 1 0
6.684829 -75.975204 3.107268 29 3201077985120 1 0
2.2003293 -16.003933 -0.7525013 1 3201077985120 1 1
2.6246524 -29.879784 -1.5719628 42 3201077987424 1 0
0 0 0 1 3201077987424 1 0
0 0 0 8 3201077989728 1 0
2.9432456 -15.709402 -0.6511537 1 3201077989728 1 1
1.1717333 -30.45489 -1.064295 26 3201077992032 1 0
0 0 0 9 3201077992032 1 0
0 0 0 29 3201077994336 1 0
7.4017186 -54.068954 -1.2698883 21 3201077994336 1 0
0.32459724 -3.770796 -1.7648538 1 3201078015072 1 0
0 0 0 32 3201078015072 1 0
4.352832 -50.64376 -1.4793118 23 3201078017376 1 0
0.82503057 -6.0920477 -1.7209691 6 3201078017376 1 0
0.7512371 -8.753825 -1.757211 2 3201078019680 1 0
11.506116 -85.04517 0 28 3201078019680 1 0
1.7527335 -47.85667 -0.5575147 6 3201078021984 1 0
1.4103302 -10.434456 -1.6381197 49 3201078021984 1 0
0.9382861 -10.967125 -1.4010723 10 3201078024288 1 0
10.195407 -55.063126 0.32546717 26 3201078024288 1 0
4.320243 -50.574955 -0.29501274 9 3201078026592 1 0
2.1643817 -16.045021 -1.7439684 2 3201078026592 1 0
0.71813464 -19.820768 -1.8514458 2 3201078028896 1 0
11.340987 -84.15629 1.9759711 28 3201078028896 1 0
2.88956 -80.042435 0.9324508 28 3201078031200 1 0
2.132779 -15.842046 -1.1177777 2 3201078031200 1 1
1.8816704 -22.130262 -1.813126 21 3201078033504 1 0
10.0891285 -54.64896 1.6173173 17 3201078033504 1 0
6.465143 -76.15442 1.334062 52 3201078035808 1 0
2.8837466 -15.631616 -1.0187157 3 3201078035808 1 1
1.1287123 -31.610262 -1.8420768 8 3201078038112 1 0
17.778454 -132.4497 7.782722 28 3201078038112 1 0
6.3774805 -75.35588 3.0810525 29 3201078040416 1 0
2.1507306 -16.038895 -0.7538042 1 3201078040416 1 1
2.5272348 -29.908224 -1.5730095 42 3201078042720 1 0
0 0 0 1 3201078042720 1 0
0 0 0 8 3201078045024 1 0
2.893533 -15.730826 -0.65164214 1 3201078045024 1 1
1.0734481 -30.510513 -1.0661098 13 3201078047328 1 0
0 0 0 9 3201078047328 1 0
0 0 0 29 3201078049632 1 0
7.190857 -53.839207 -1.263933 21 3201078049632 1 0
0.31274936 -3.7717972 -1.7648538 1 3201078070368 1 0
9.895519 -54.236263 -0.9623257 79 3201078070368 1 0
0.80571055 -6.094633 -1.7209691 6 3201078072672 1 0
4.1477175 -50.119373 -1.4636029 10 3201078072672 1 0
0.7235459 -8.760093 -1.7579954 3 3201078074976 1 0
0 0 0 11 3201078074976 1 0
1.0228868 -30.63285 -0.3568225 3 3201078077280 1 0
1.3766315 -10.438955 -1.6381197 48 3201078077280 1 0
0.9019002 -10.962214 -1.4000621 13 3201078079584 1 0
0 0 0 7 3201078079584 1 0
4.1097865 -50.0507 -0.29187432 9 3201078081888 1 0
2.1147418 -16.075706 -1.7465386 2 3201078081888 1 0
0.65345067 -19.854885 -1.8544201 2 3201078084192 1 0
17.406725 -132.48521 3.1093514 28 3201078084192 1 0
2.4593065 -75.090645 0.8746644 24 3201078086496 1 0
2.0818486 -15.864917 -1.1188939 2 3201078086496 1 1
1.808283 -22.15238 -1.8144277 19 3201078088800 1 0
9.953128 -54.950226 1.62523 27 3201078088800 1 0
2.8312402 -15.6452675 -1.0189716 2 3201078091104 1 1
6.225083 -76.41117 1.3381807 52 3201078091104 1 0
1.0217497 -31.661842 -1.8448675 8 3201078093408 1 0
17.312847 -132.4268 7.777838 28 3201078093408 1 0
6.180274 -76.16227 3.11313 29 3201078095712 1 0
2.0869207 -15.982851 -0.75082624 1 3201078095712 1 1
2.42411 -29.932789 -1.5738468 38 3201078098016 1 0
0 0 0 1 3201078098016 1 0
2.840274 -15.752713 -0.65213066 1 3201078100320 1 1
0 0 0 8 3201078100320 1 0
0.9663021 -30.55009 -1.0673662 13 3201078102624 1 0
0 0 0 9 3201078102624 1 0
0 0 0 29 3201078104928 1 0
0 0 0 19 3201078104928 1 0
0.29797873 -3.7693565 -1.7631634 1 3201078125664 1 0
9.84039 -55.13216 -0.9775442 30 3201078125664 1 0
3.9257786 -49.752224 -1.4524322 10 3201078127968 1 0
0.78288186 -6.101491 -1.7220474 8 3201078127968 1 0
0.6901592 -8.762787 -1.7579954 2 3201078130272 1 0
6.822909 -53.23656 0 21 3201078130272 1 0
0.9073044 -30.6605 -0.35710186 3 3201078132576 1 0
1.3379982 -10.451946 -1.6393496 39 3201078132576 1 0
0.8610605 -10.973458 -1.4010723 13 3201078134880 1 0
9.801936 -55.102024 0.32528117 39 3201078134880 1 0
6.0896764 -77.75257 -0.45328277 26 3201078137184 1 0
0.57963806 -19.881083 -1.8566507 3 3201078139488 1 0
2.0536659 -16.079613 -1.7461103 2 3201078137184 1 0
16.908447 -132.54167 3.1091652 28 3201078139488 1 0
2.023037 -15.876546 -1.1191728 2 3201078141792 1 1
2.1718807 -74.86743 0.8719637 47 3201078141792 1 0
1.727337 -22.178833 -1.816055 19 3201078144096 1 0
0 0 0 16 3201078144096 1 0
5.9280066 -76.258286 1.3351091 52 3201078146400 1 0
2.7731953 -15.655661 -1.0189716 2 3201078146400 1 1
0.77429974 -27.099007 -1.5788232 10 3201078148704 1 0
16.825521 -132.5057 7.7787685 28 3201078148704 1 0
5.9851475 -77.28429 3.1580708 29 3201078151008 1 0
2.0321162 -16.022133 -0.7523152 1 3201078151008 1 1
2.3162315 -29.965368 -1.5751029 42 3201078153312 1 0
0 0 0 1 3201078153312 1 0
0 0 0 8 3201078155616 1 0
2.7834425 -15.766912 -0.65229344 1 3201078155616 1 1
0.85621935 -30.589367 -1.0686226 13 3201078157920 1 0
0 0 0 9 3201078157920 1 0
0 0 0 29 3201078160224 1 0
0 0 0 3 3201078160224 1 0
0.28372708 -3.7559137 -1.7564015 1 3201078180960 1 0
9.638237 -55.11102 -0.97656685 20 3201078180960 1 0
3.7251503 -49.39877 -1.4417269 21 3201078183264 1 0
0.7621446 -6.107998 -1.7231257 6 3201078183264 1 0
0.65982217 -8.765123 -1.7579954 2 3201078185568 1 0
6.6217647 -53.124905 0 10 3201078185568 1 0
0.80213434 -30.683437 -0.3573347 3 3201078187872 1 0
0.8245766 -10.992177 -1.4030925 10 3201078190176 1 0
9.611368 -55.127464 0.32523468 26 3201078190176 1 0
5.8101482 -77.58945 -0.45221338 26 3201078192480 1 0
1.3034272 -10.468264 -1.6411942 16 3201078187872 1 0
2.0021274 -16.114166 -1.749109 2 3201078192480 1 0
0.51217675 -19.890903 -1.8573942 3 3201078194784 1 0
16.428692 -132.36827 3.103768 28 3201078194784 1 0
1.8467588 -72.08746 0.83950835 21 3201078197088 1 0
1.9662765 -15.85955 -1.1174988 2 3201078197088 1 1
1.6533775 -22.196463 -1.8170314 16 3201078199392 1 0
