# .PCD v.7 - Point Cloud Data file format
VERSION .7
FIELDS x y z rgb timestamp_ns device_id active
SIZE 4 4 4 4 8 1 1
TYPE F F F F F U U
COUNT 1 1 1 1 1 1 1
WIDTH 945
HEIGHT 1
VIEWPOINT 0 0 0 1 0 0 0
POINTS 945               
DATA ascii
-5.5113707 20.139273 3.8069248 30 3199825152040 1 0
-4.8776016 14.9186325 -0.3652313 7 3199825152040 1 0
-1.0827969 3.9771233 -1.9220679 3 3199825172776 1 0
-10.555338 27.743355 -0.518127 32 3199825172776 1 0
-4.025875 14.795567 -0.4462488 9 3199825175080 1 0
-2.271367 6.9815645 -2.0552425 6 3199825175080 1 0
-2.9982667 11.025314 -2.2851586 2 3199825177384 1 0
-9.650709 29.678328 0 43 3199825177384 1 0
-4.5178 20.539585 -0.24483526 17 3199825179688 1 0
-4.84161 14.89652 -2.4368875 6 3199825179688 1 0
-4.2957773 15.814724 -2.085951 54 3199825181992 1 0
-8.283947 21.811466 0.13560358 28 3199825181992 1 0
-6.8148384 25.102974 -0.15117949 12 3199825184296 1 0
-4.500083 13.859433 -1.5696143 43 3199825184296 1 0
-3.640882 16.587286 -1.5852541 10 3199825186600 1 0
-9.5950365 29.565598 0.72329754 12 3199825186600 1 0
-4.5546956 20.7649 0.24748942 30 3199825188904 1 0
-4.4851894 13.827256 -1.0164913 10 3199825188904 1 0
-4.003375 14.772225 -1.2494328 10 3199825191208 1 0
-10.847626 28.611721 0.89051944 50 3199825191208 1 0
-7.1474853 26.389013 0.4772186 31 3199825193512 1 0
-5.3230963 14.046372 -0.96268886 6 3199825193512 1 0
-6.5294495 29.83001 -1.7783564 4 3199825195816 1 0
-9.133731 33.761288 1.4249177 13 3199825198120 1 0
0 0 0 9 3199825195816 1 0
-4.475832 13.825809 -0.6769348 4 3199825198120 1 0
-4.000491 14.795673 -0.8032523 8 3199825200424 1 0
-8.483571 26.218697 3.3835804 8 3199825200424 1 0
-7.112687 26.321213 2.2258065 12 3199825202728 1 0
-5.3157563 14.051669 -0.6120747 4 3199825202728 1 0
-4.584806 21.004333 -0.750758 2 3199825205032 1 0
0 0 0 23 3199825205032 1 0
-5.4061723 20.029217 3.7825305 23 3199825207336 1 0
-4.8144317 14.90132 -0.36439383 7 3199825207336 1 0
-1.0698477 3.98438 -1.9237583 3 3199825228072 1 0
0 0 0 7 3199825228072 1 0
-3.997003 14.894486 -0.44880876 5 3199825230376 1 0
-2.246983 6.989451 -2.0552425 5 3199825230376 1 0
-2.958747 11.031924 -2.2843742 2 3199825232680 1 0
-9.603342 29.887012 0 39 3199825232680 1 0
-4.443539 20.543503 -0.24469557 26 3199825234984 1 0
-4.7932076 14.924619 -2.4387324 6 3199825234984 1 0
-4.23028 15.791295 -2.0809004 78 3199825237288 1 0
-8.175396 21.754131 0.13506888 38 3199825237288 1 0
-11.42988 42.691666 -0.25686333 7 3199825239592 1 0
-4.4431725 13.848549 -1.5666156 40 3199825239592 1 0
-3.369528 15.611064 -1.4908229 8 3199825241896 1 0
-9.4148445 29.359013 0.71743524 53 3199825241896 1 0
-4.5041113 20.882328 0.2487001 28 3199825244200 1 0
-4.4271526 13.812429 -1.0142591 10 3199825244200 1 0
-3.9754617 14.874696 -1.2569184 10 3199825246504 1 0
-10.765943 28.698078 0.89203215 32 3199825246504 1 0
-7.0130115 26.25538 0.4743564 49 3199825248808 1 0
-5.2558126 14.016278 -0.9593631 7 3199825248808 1 0
0 0 0 10 3199825251112 1 0
-8.117329 25.363607 1.5509166 12 3199825251112 1 0
-7.7403617 29.01229 1.2233351 52 3199825253416 1 0
-4.4202394 13.818514 -0.675818 6 3199825253416 1 0
-3.968374 14.882881 -0.8072298 6 3199825255720 1 0
-6.452687 20.18245 2.6016667 7 3199825255720 1 0
-7.015633 26.326618 2.2241793 4 3199825258024 1 0
-5.2512627 14.028965 -0.61028355 4 3199825258024 1 0
-6.789977 21.258728 5.9797554 17 3199825260328 1 0
0 0 0 12 3199825260328 1 0
-5.266384 19.785578 3.7330248 27 3199825262632 1 0
-4.7502255 14.87994 -0.3634633 8 3199825262632 1 0
-1.056861 3.9915946 -1.9254488 3 3199825283368 1 0
-18.98333 50.962944 -0.94927126 9 3199825283368 1 0
-3.9664662 14.989518 -0.45125237 5 3199825285672 1 0
-2.2237377 7.0009227 -2.056321 6 3199825285672 1 0
-2.9172118 11.030809 -2.2820208 2 3199825287976 1 0
-9.358556 29.478104 0 26 3199825287976 1 0
-4.357659 20.49238 -0.24390398 26 3199825290280 1 0
-4.7374954 14.929957 -2.4368875 7 3199825290280 1 0
-4.166012 15.771438 -2.0763547 81 3199825292584 1 0
-8.230451 22.134956 0.13725415 12 3199825292584 1 0
-11.271601 42.696495 -0.2566541 7 3199825294888 1 0
-4.385191 13.833646 -1.5631886 46 3199825294888 1 0
-3.6184087 17.052542 -1.6272647 12 3199825297192 1 0
-9.7604065 30.806005 0.7519577 26 3199825297192 1 0
-4.4411464 20.944876 0.24925888 22 3199825299496 1 0
-4.3704786 13.80117 -1.012306 11 3199825299496 1 0
-3.941802 14.957874 -1.2627766 3 3199825301800 1 0
-10.564137 28.461847 0.8835377 14 3199825301800 1 0
-6.872428 26.09406 0.47100556 35 3199825304104 1 0
-5.1943583 14.000856 -0.95706064 7 3199825304104 1 0
0 0 0 12 3199825306408 1 0
-8.003462 25.311832 1.5460329 20 3199825306408 1 0
-7.639043 29.039131 1.2233351 19 3199825308712 1 0
-4.3635483 13.80719 -0.6745152 13 3199825308712 1 0
-3.9428062 14.9970875 -0.81267273 4 3199825311016 1 0
-6.389373 20.227566 2.6045916 7 3199825311016 1 0
-7.6561823 29.138733 2.4594853 15 3199825313320 1 0
-5.186992 14.005982 -0.60849243 4 3199825313320 1 0
-4.3811173 20.76594 -0.7411257 34 3199825315624 1 0
-6.715729 21.2823 5.9797554 15 3199825315624 1 0
-5.2122707 19.860933 3.7437868 27 3199825317928 1 0
-4.6874304 14.862107 -0.36262584 8 3199825317928 1 0
-1.04109 3.988244 -1.9220679 3 3199825338664 1 0
-18.802555 51.021393 -0.94913167 9 3199825338664 1 0
-3.9383423 15.096125 -0.45404506 5 3199825340968 1 0
-2.1969798 7.0012918 -2.0541642 6 3199825340968 1 0
-2.8757207 11.029539 -2.2796674 2 3199825343272 1 0
-8.157906 26.010695 0 7 3199825343272 1 0
-4.1780887 19.99067 -0.23775749 30 3199825345576 1 0
-4.687716 14.953946 -2.4381173 7 3199825345576 1 0
-4.100934 15.747484 -2.0713038 79 3199825347880 1 0
-10.495228 28.530317 0.17668217 29 3199825347880 1 0
-5.4997907 21.13166 -0.12690894 6 3199825350184 1 0
-4.323802 13.807121 -1.5584762 48 3199825350184 1 0
-3.2450123 15.56013 -1.4837592 9 3199825352488 1 0
-9.489166 30.317049 0.73920953 12 3199825352488 1 0
-4.346792 20.858444 0.2480482 20 3199825354792 1 0
-4.315129 13.793492 -1.0106318 5 3199825354792 1 0
-11.007736 29.977337 0.9293844 42 3199825357096 1 0
-3.9186366 15.083443 -1.2722149 3 3199825357096 1 0
-6.577269 25.332071 0.4568342 19 3199825359400 1 0
-5.1317005 13.981429 -0.95450234 7 3199825359400 1 0
-3.247782 15.618872 -0.92906153 12 3199825361704 1 0
-7.930536 25.389166 1.549056 16 3199825361704 1 0
-7.468405 28.79868 1.2121 32 3199825364008 1 0
-4.3081813 13.799453 -0.67339844 9 3199825364008 1 0
-3.9134827 15.099694 -0.81748766 6 3199825366312 1 0
-6.3069005 20.211845 2.599717 28 3199825366312 1 0
0 0 0 25 3199825368616 1 0
-5.1256967 13.990229 -0.607027 5 3199825368616 1 0
-4.3272696 20.871136 -0.7443365 34 3199825370920 1 0
-6.6528974 21.3425 5.990108 12 3199825370920 1 0
-4.617681 14.821111 -0.36123005 7 3199825373224 1 0
-5.1429114 19.879007 3.7437868 27 3199825373224 1 0
-1.0271621 3.991854 -1.9220679 3 3199825393960 1 0
-18.613384 51.056656 -0.9485732 9 3199825393960 1 0
-6.6828337 25.987118 -0.7809063 33 3199825396264 1 0
-2.173668 7.0125976 -2.0552425 6 3199825396264 1 0
-2.8303685 11.0129175 -2.2741761 1 3199825398568 1 0
-8.046938 25.974058 0 49 3199825398568 1 0
-4.131616 20.118752 -0.23910785 21 3199825400872 1 0
-4.63315 14.962667 -2.4368875 8 3199825400872 1 0
-4.0350876 15.719426 -2.0657482 79 3199825403176 1 0
-10.396943 28.570538 0.17670542 29 3199825403176 1 0
-10.97325 42.774147 -0.2566541 7 3199825405480 1 0
-4.2661777 13.791735 -1.5550492 30 3199825405480 1 0
-3.3026032 16.11759 -1.5358077 2 3199825407784 1 0
-10.400277 33.63943 0.8193278 5 3199825407784 1 0
-4.282269 13.858032 -1.0142591 11 3199825410088 1 0
-4.180085 20.415035 0.24260017 8 3199825410088 1 0
-4.818359 18.816252 -1.5856309 14 3199825412392 1 0
-10.473023 28.83179 0.8927303 47 3199825412392 1 0
-6.4788876 25.31613 0.4561361 26 3199825414696 1 0
-5.071966 13.969239 -0.9524557 7 3199825414696 1 0
-6.7110043 32.84867 -1.9525409 4 3199825417000 1 0
-8.038468 26.053925 1.5878929 13 3199825417000 1 0
-7.3787203 28.867167 1.2138911 18 3199825419304 1 0
-4.2764697 13.867863 -0.6760042 9 3199825419304 1 0
-6.5627823 25.69061 -1.3896244 4 3199825421608 1 0
-6.252681 20.286854 2.6065416 26 3199825421608 1 0
-7.225749 28.30302 2.38463 9 3199825423912 1 0
-5.0659356 13.977975 -0.60572433 5 3199825423912 1 0
-4.1211405 20.231953 -0.7210236 30 3199825426216 1 0
-6.6249723 21.51699 6.032554 7 3199825426216 1 0
-4.5423937 14.760698 -0.35936898 6 3199825428520 1 0
-5.1172433 20.068428 3.7760732 19 3199825428520 1 0
-1.0150039 4.002443 -1.9254488 4 3199825449256 1 0
-18.386208 50.985878 -0.94606006 9 3199825449256 1 0
-6.591099 26.00641 -0.7807899 8 3199825451560 1 0
-2.1491761 7.020142 -2.0552425 6 3199825451560 1 0
-7.9550524 25.998163 0 28 3199825453864 1 0
-2.789983 11.015126 -2.272607 2 3199825453864 1 0
-4.221129 20.925043 -0.24851385 29 3199825456168 1 0
-4.5762687 14.96363 -2.434428 7 3199825456168 1 0
-3.9724069 15.702641 -2.0617075 69 3199825458472 1 0
-10.2890215 28.584074 0.17656595 42 3199825458472 1 0
0 0 0 16 3199825460776 1 0
-3.1245162 15.523839 -1.4781824 11 3199825463080 1 0
-4.23544 13.863594 -1.5614749 21 3199825460776 1 0
-10.308483 33.75967 0.82137495 15 3199825463080 1 0
-4.0859275 20.315786 0.24124981 5 3199825465384 1 0
-4.2443523 13.907244 -1.0167704 14 3199825465384 1 0
-3.9966342 15.837155 -1.333401 16 3199825467688 1 0
-10.347982 28.800442 0.8906358 25 3199825467688 1 0
-6.3963466 25.361858 0.45655495 29 3199825469992 1 0
-5.0137286 13.960561 -0.9506649 7 3199825469992 1 0
0 0 0 10 3199825472296 1 0
-7.305245 29.001265 1.2184503 13 3199825474600 1 0
-7.779865 25.531769 1.5544049 25 3199825472296 1 0
-4.2524824 13.962975 -0.6799128 4 3199825474600 1 0
0 0 0 51 3199825476904 1 0
-6.252352 20.540243 2.6362777 25 3199825476904 1 0
-6.28164 24.968292 2.101807 11 3199825479208 1 0
-5.003626 13.957951 -0.60409606 4 3199825479208 1 0
-4.050493 20.246216 -0.7210236 35 3199825481512 1 0
-6.5498238 21.539986 6.032554 5 3199825481512 1 0
-5.060586 20.139599 3.786118 21 3199825483816 1 0
-4.252462 13.99211 -0.34029323 8 3199825483816 1 0
-0.9992689 3.9989274 -1.9220679 3 3199825504552 1 0
0 0 0 29 3199825504552 1 0
-5.2331605 20.9553 -0.62858826 6 3199825506856 1 0
-2.124658 7.0276012 -2.0552425 5 3199825506856 1 0
-2.7505662 11.020992 -2.2718227 2 3199825509160 1 0
0 0 0 7 3199825509160 1 0
-4.075002 20.570843 -0.2441368 22 3199825511464 1 0
-4.5228653 14.975729 -2.433813 7 3199825511464 1 0
-3.9060538 15.670209 -2.0556467 78 3199825513768 1 0
-10.776787 30.270306 0.18674842 9 3199825513768 1 0
-5.2917395 21.242434 -0.12723441 9 3199825516072 1 0
-4.208846 13.950637 -1.5696143 20 3199825516072 1 0
-3.4324758 17.367085 -1.6525456 6 3199825518376 1 0
-9.328181 30.935452 0.7518647 13 3199825518376 1 0
-3.999488 20.251446 0.24031852 63 3199825520680 1 0
-4.2188096 13.998385 -1.0223509 14 3199825520680 1 0
-6.304008 25.353104 -2.1327255 13 3199825522984 1 0
-10.794968 30.377293 0.9382279 50 3199825522984 1 0
-6.2807727 25.275354 0.45460027 35 3199825525288 1 0
-4.951606 13.940361 -0.9481066 6 3199825525288 1 0
0 0 0 36 3199825527592 1 0
-7.7217617 25.662014 1.5606838 21 3199825527592 1 0
-7.162571 28.85979 1.2114487 13 3199825529896 1 0
-4.22443 14.046608 -0.683263 8 3199825529896 1 0
-6.1360435 20.413658 2.617266 27 3199825532200 1 0
-3.9340096 15.860977 -0.8564256 6 3199825532200 1 0
-4.942853 13.941429 -0.60263056 4 3199825534504 1 0
-6.965635 28.10125 2.3634753 9 3199825534504 1 0
-3.972861 20.224928 -0.7197672 22 3199825536808 1 0
-6.4690394 21.544214 6.027378 5 3199825536808 1 0
-4.907037 19.820997 3.72298 22 3199825539112 1 0
-4.2254343 14.079642 -0.34206122 12 3199825539112 1 0
-10.6513195 30.19559 -0.5588959 23 3199825560296 1 0
-5.2106066 21.179213 -0.63475543 9 3199825562600 1 0
-2.0979106 7.027593 -2.053086 4 3199825562600 1 0
-2.7111425 11.026717 -2.2710383 1 3199825564904 1 0
-0.98530394 4.0023913 -1.9220679 4 3199825560296 1 0
-4.877648 16.347849 0 17 3199825564904 1 0
-4.025314 20.698801 -0.24548717 32 3199825567208 1 0
-4.4694333 14.987638 -2.433198 8 3199825567208 1 0
-10.659102 30.273783 0.18653919 37 3199825569512 1 0
-3.8447068 15.6567745 -2.0521111 81 3199825569512 1 0
-5.0764647 20.685844 -0.12379376 19 3199825571816 1 0
-3.5372 18.23129 -1.7335927 9 3199825574120 1 0
-4.869101 16.353924 0.39705527 5 3199825574120 1 0
-3.8998458 20.116072 0.23854908 11 3199825576424 1 0
-4.1915436 14.085691 -1.0276524 14 3199825576424 1 0
-4.182832 14.041472 -1.5781821 22 3199825571816 1 0
-3.8641582 15.775609 -1.3259155 12 3199825578728 1 0
-10.675609 30.377068 0.9370643 46 3199825578728 1 0
-5.10083 20.837496 0.37445882 25 3199825581032 1 0
-4.887039 13.912366 -0.9450366 7 3199825581032 1 0
-4.0402 20.88882 -1.2390589 7 3199825583336 1 0
-7.629863 25.681156 1.5602188 8 3199825583336 1 0
-6.4676104 26.454273 1.1095177 12 3199825585640 1 0
-4.1958456 14.130215 -0.68661326 4 3199825585640 1 0
-6.03538 20.335995 2.6045916 23 3199825587944 1 0
-6.9166756 28.326786 2.380399 14 3199825590248 1 0
-4.882257 13.924654 -0.6011651 4 3199825590248 1 0
-6.308565 25.820013 -1.3929738 36 3199825587944 1 0
-3.9014816 20.234747 -0.7196276 30 3199825592552 1 0
-3.7855406 12.768858 3.568597 2 3199825592552 1 0
-4.8546004 19.90682 3.7358947 27 3199825594856 1 0
-4.192167 14.147984 -0.34336394 15 3199825594856 1 0
-0.9704727 4.002283 -1.9203774 3 3199825615592 1 0
-10.540584 30.21748 -0.55861664 37 3199825615592 1 0
-5.1309958 21.173958 -0.6340573 9 3199825617896 1 0
-2.0744557 7.038568 -2.0541642 5 3199825617896 1 0
-2.6486325 10.936998 -2.250642 2 3199825620200 1 0
-9.904458 33.62357 0 14 3199825620200 1 0
-3.800074 19.911247 -0.23598804 49 3199825622504 1 0
-4.4137406 14.991774 -2.4313533 7 3199825622504 1 0
-3.7807028 15.631532 -2.0470605 78 3199825624808 1 0
-10.559938 30.329693 0.18665542 13 3199825624808 1 0
-5.03148 20.81619 -0.12446795 25 3199825627112 1 0
-4.1584783 14.139927 -1.5876067 22 3199825627112 1 0
-2.949119 15.489197 -1.4718623 10 3199825629416 1 0
-7.667375 26.085121 0.6326644 32 3199825629416 1 0
-3.819886 20.078482 0.23794374 13 3199825631720 1 0
-4.165969 14.180635 -1.0335119 12 3199825631720 1 0
-3.8100026 15.792877 -1.3262409 4 3199825634024 1 0
-9.999886 28.77504 0.8865631 21 3199825634024 1 0
-4.9371376 20.478039 0.36768728 44 3199825636328 1 0
-2.9449162 15.516247 -0.91975933 14 3199825638632 1 0
-4.826658 13.895403 -0.9427341 7 3199825636328 1 0
0 0 0 30 3199825638632 1 0
-6.402361 26.58937 1.1142397 24 3199825640936 1 0
-4.168977 14.221461 -0.69033575 4 3199825640936 1 0
-3.807297 15.822033 -0.85286677 13 3199825643240 1 0
-5.9944973 20.459808 2.6177535 27 3199825643240 1 0
-6.8419905 28.45154 2.388861 14 3199825645544 1 0
-4.8231473 13.911403 -0.59986246 4 3199825645544 1 0
-3.7398605 12.778286 3.5675616 2 3199825647848 1 0
-3.9408085 20.829569 -0.74028814 25 3199825647848 1 0
-4.78784 19.935125 3.7380471 22 3199825650152 1 0
-4.1652093 14.239292 -0.345225 15 3199825650152 1 0
-0.95902216 4.0162244 -1.9254488 3 3199825670888 1 0
-10.449386 30.29568 -0.5593845 37 3199825670888 1 0
-4.994097 20.927244 -0.62614465 31 3199825673192 1 0
-2.0477731 7.0383544 -2.0520077 5 3199825673192 1 0
-2.6105983 10.946139 -2.250642 1 3199825675496 1 0
-9.777467 33.623226 0 19 3199825675496 1 0
-3.817116 20.384281 -0.24143606 21 3199825677800 1 0
-4.358401 14.995607 -2.4295087 9 3199825677800 1 0
-3.7164567 15.602065 -2.0415046 84 3199825680104 1 0
-10.500462 30.498438 0.1874691 37 3199825680104 1 0
-4.9530606 20.806208 -0.12430521 46 3199825682408 1 0
-4.1306796 14.226773 -1.595746 21 3199825682408 1 0
-8.772146 30.228386 0.7324167 21 3199825684712 1 0
-3.7287781 19.973549 0.23654681 26 3199825687016 1 0
-3.6029978 19.285023 -1.8313699 6 3199825684712 1 0
-4.138286 14.267695 -1.0388134 14 3199825687016 1 0
-4.391718 18.482191 -1.5508069 10 3199825689320 1 0
-9.937444 28.915068 0.88982123 43 3199825689320 1 0
-4.8521824 20.432571 0.36657035 24 3199825691624 1 0
-4.7725506 13.892978 -0.941455 7 3199825691624 1 0
-3.9345458 21.124298 -1.2513843 16 3199825693928 1 0
-7.7910514 26.903122 1.6311483 13 3199825693928 1 0
-4.1459994 14.323874 -0.6946166 9 3199825696232 1 0
-6.3512974 26.77827 1.1212413 8 3199825696232 1 0
-6.684121 28.19887 -1.5187894 58 3199825698536 1 0
-5.8784904 20.319912 2.5972795 23 3199825698536 1 0
-6.547745 27.640547 2.3188875 13 3199825700840 1 0
-4.7668 13.9012375 -0.5987227 4 3199825700840 1 0
-5.7486167 19.891573 5.548045 4 3199825703144 1 0
-3.7694836 20.300411 -0.7210236 22 3199825703144 1 0
-4.69775 19.855467 3.7201102 31 3199825705448 1 0
-4.1403384 14.333975 -0.3471791 15 3199825705448 1 0
-0.94403803 4.012325 -1.9220679 3 3199825726184 1 0
-10.3630705 30.3718 -0.5601524 4 3199825726184 1 0
-6.122475 26.038565 -0.7784627 20 3199825728488 1 0
-2.0233068 7.041419 -2.0509293 4 3199825728488 1 0
-2.5678456 10.928045 -2.2451508 2 3199825730792 1 0
-7.1822696 25.009106 0 9 3199825730792 1 0
-3.75773 20.444115 -0.24199484 18 3199825733096 1 0
-3.6551783 15.57578 -2.036454 81 3199825735400 1 0
-10.460275 30.71514 0.18858497 13 3199825735400 1 0
-4.3017793 14.987278 -2.4258192 11 3199825733096 1 0
-4.9198112 20.978468 -0.12523511 23 3199825737704 1 0
-4.1092677 14.332293 -1.6060274 22 3199825737704 1 0
0 0 0 14 3199825740008 1 0
-8.677147 30.280752 0.732975 17 3199825740008 1 0
-3.6485317 19.915174 0.23570865 21 3199825742312 1 0
-3.6933308 15.779627 -1.3229864 11 3199825744616 1 0
-4.1143928 14.36594 -1.044952 15 3199825742312 1 0
-9.780628 28.774298 0.8844686 39 3199825744616 1 0
-4.8286047 20.643576 0.37006083 44 3199825746920 1 0
-4.7114177 13.867461 -0.93864083 6 3199825746920 1 0
-2.8198502 15.429872 -0.9134803 13 3199825749224 1 0
-7.48028 26.161495 1.5846372 12 3199825749224 1 0
-4.884794 20.911228 0.87488085 19 3199825751528 1 0
-4.11819 14.410868 -0.69815296 17 3199825751528 1 0
-3.681351 15.769783 -0.84867984 6 3199825753832 1 0
-5.796216 20.293991 2.5914297 21 3199825753832 1 0
-6.1337066 26.2922 2.204001 12 3199825756136 1 0
-4.702675 13.86821 -0.5966059 5 3199825756136 1 0
-3.6914797 20.265984 -0.71934843 19 3199825758440 1 0
-5.6657553 19.859089 5.533551 6 3199825758440 1 0
-4.6261415 19.85611 3.7172403 22 3199825760744 1 0
-4.113148 14.424985 -0.34904015 17 3199825760744 1 0
-0.9324806 4.026191 -1.9271393 4 3199825781480 1 0
-12.19871 36.1642 -0.66619325 18 3199825781480 1 0
-4.793682 20.711487 -0.61869746 25 3199825783784 1 0
-1.9997661 7.0521445 -2.0520077 5 3199825783784 1 0
-2.5261483 10.921657 -2.242013 1 3199825786088 1 0
-7.111288 25.091751 0 9 3199825786088 1 0
-3.6615176 20.319336 -0.24036509 24 3199825788392 1 0
-4.251592 15.009809 -2.427049 10 3199825788392 1 0
-3.5927489 15.553648 -2.0319083 84 3199825790696 1 0
-9.825901 29.18584 0.17898369 61 3199825790696 1 0
-4.847452 20.99941 -0.12525837 25 3199825793000 1 0
-4.078703 14.415431 -1.6137383 22 3199825793000 1 0
-2.7387362 15.236513 -1.4450943 20 3199825795304 1 0
-8.60948 30.445538 0.73623186 12 3199825795304 1 0
-3.564852 19.849054 0.23477736 24 3199825797608 1 0
-4.084841 14.453172 -1.0502535 15 3199825797608 1 0
-3.9300013 17.058924 -1.4290856 3 3199825799912 1 0
-9.678854 28.804474 0.8843522 25 3199825799912 1 0
-4.7672834 20.707075 0.37089854 36 3199825802216 1 0
-4.6528153 13.85355 -0.9365942 6 3199825802216 1 0
-2.7363977 15.274533 -0.9037129 35 3199825804520 1 0
-4.805502 20.900887 0.8737411 8 3199825806824 1 0
-4.089551 14.5020685 -0.70187545 17 3199825806824 1 0
-6.814261 29.657467 -1.5947813 4 3199825809128 1 0
-5.7318034 20.337029 2.5943546 23 3199825809128 1 0
-7.3910823 26.195133 1.5851023 8 3199825804520 1 0
-6.1025615 26.577673 2.226132 12 3199825811432 1 0
-4.645345 13.858015 -0.5954661 6 3199825811432 1 0
-3.5623963 19.952112 -0.70776176 19 3199825813736 1 0
-5.4351563 19.306 5.374119 8 3199825813736 1 0
-4.570875 19.933506 3.72872 20 3199825816040 1 0
-4.0887656 14.531641 -0.35127342 25 3199825816040 1 0
-0.91600394 4.018818 -1.9220679 3 3199825836776 1 0
-12.07999 36.229324 -0.6666121 18 3199825836776 1 0
-4.755987 20.880133 -0.6232356 25 3199825839080 1 0
-1.9740995 7.0553727 -2.0509293 6 3199825839080 1 0
-2.4871387 10.926583 -2.2412283 1 3199825841384 1 0
-6.9999585 25.031673 0 46 3199825841384 1 0
-3.6121306 20.454096 -0.24180858 22 3199825843688 1 0
-4.1970444 15.016945 -2.4258192 8 3199825843688 1 0
-9.765643 29.345205 0.17975086 48 3199825845992 1 0
-3.5305185 15.531271 -2.0273626 84 3199825845992 1 0
-4.752856 20.92259 -0.12470042 27 3199825848296 1 0
-2.6813886 15.222446 -1.4428637 74 3199825850600 1 0
-4.0465384 14.4946995 -1.6210209 16 3199825848296 1 0
-8.556889 30.667994 0.7408845 39 3199825850600 1 0
-4.05473 14.540371 -1.055555 15 3199825852904 1 0
-3.563687 15.719488 -1.3158263 12 3199825855208 1 0
-9.633702 29.005041 0.8894722 32 3199825855208 1 0
-4.723251 20.848408 0.37313244 29 3199825857512 1 0
-4.5931096 13.83561 -0.9342917 7 3199825857512 1 0
-3.5066366 19.924404 0.23552239 19 3199825852904 1 0
-2.6789203 15.260393 -0.9023176 95 3199825859816 1 0
-7.560911 27.15943 1.641846 13 3199825859816 1 0
-4.0635386 14.604793 -0.7061563 11 3199825862120 1 0
-5.5827093 24.67536 1.0307083 14 3199825862120 1 0
0 0 0 85 3199825864424 1 0
-6.006236 26.583258 2.2248302 12 3199825866728 1 0
-5.7097073 20.532864 2.6167786 27 3199825864424 1 0
-3.4996178 20.003803 -0.70915776 33 3199825869032 1 0
-4.5881443 13.847589 -0.5943263 3 3199825866728 1 0
-5.3718686 19.339745 5.3782597 12 3199825869032 1 0
-4.5107937 19.991566 3.736612 15 3199825871336 1 0
-0.90117675 4.018453 -1.9203774 3 3199825892072 1 0
-12.210072 37.04995 -0.6809231 6 3199825892072 1 0
-4.681324 20.888803 -0.6230029 25 3199825894376 1 0
-4.0583396 14.619036 -0.3530414 15 3199825871336 1 0
-2.4498398 10.939026 -2.242013 1 3199825896680 1 0
-1.9463848 7.0510817 -2.0476944 5 3199825894376 1 0
-6.896582 24.998116 0 28 3199825896680 1 0
-3.5632105 20.59664 -0.2433452 19 3199825898984 1 0
-4.141448 15.020073 -2.4239745 7 3199825898984 1 0
-3.4684885 15.508649 -2.022817 82 3199825901288 1 0
-4.6981144 21.021029 -0.12518862 40 3199825903592 1 0
-4.01915 14.593089 -1.6304455 20 3199825903592 1 0
-9.694394 29.474108 0.18033206 39 3199825901288 1 0
-2.620787 15.188542 -1.4387742 69 3199825905896 1 0
-8.459336 30.732376 0.741722 13 3199825905896 1 0
-3.437066 19.936523 0.23552239 19 3199825908200 1 0
-5.650695 25.335136 -2.1190562 9 3199825910504 1 0
-4.028293 14.642924 -1.0619725 13 3199825908200 1 0
-9.549855 29.091677 0.89110124 25 3199825910504 1 0
-4.6365266 20.802309 0.3720155 29 3199825912808 1 0
-4.5335865 13.817423 -0.93198925 7 3199825912808 1 0
-2.6161613 15.214555 -0.8990618 76 3199825915112 1 0
-5.1683125 23.220037 0.96915895 9 3199825917416 1 0
-8.042407 29.284266 1.768589 10 3199825915112 1 0
-4.034743 14.699804 -0.71006495 9 3199825917416 1 0
0 0 0 8 3199825919720 1 0
-5.541372 20.200426 2.5719306 19 3199825919720 1 0
-5.8857255 26.479525 2.2144156 12 3199825922024 1 0
-4.5273414 13.825538 -0.592698 3 3199825922024 1 0
-2.6121616 15.244391 -0.5401046 63 3199825924328 1 0
-5.2951384 19.324842 5.3689423 14 3199825924328 1 0
-4.6388144 20.898447 3.9030664 27 3199825926632 1 0
-4.028409 14.710252 -0.35490248 13 3199825926632 1 0
-0.8879252 4.0251145 -1.9220679 4 3199825947368 1 0
-9.789379 30.057196 -0.5517753 4 3199825947368 1 0
-4.816678 21.84992 -0.6511625 25 3199825949672 1 0
-1.922772 7.061549 -2.0487728 6 3199825949672 1 0
-2.4082654 10.932189 -2.238875 2 3199825951976 1 0
-6.804029 25.002739 0 31 3199825951976 1 0
-3.4178064 20.175161 -0.23822312 19 3199825954280 1 0
-4.084844 15.019182 -2.4215147 7 3199825954280 1 0
-3.405807 15.481909 -2.0177662 82 3199825956584 1 0
-9.618653 29.591455 0.1808435 21 3199825956584 1 0
-4.595509 20.904474 -0.1243982 19 3199825958888 1 0
-3.992166 14.695302 -1.6402984 13 3199825958888 1 0
-2.5631084 15.170109 -1.4361718 68 3199825961192 1 0
-9.186057 33.833645 0.8157918 5 3199825961192 1 0
-3.3474808 19.83008 0.23412547 16 3199825963496 1 0
-4.001189 14.74547 -1.0683901 12 3199825963496 1 0
-3.4290843 15.631055 -1.306388 19 3199825965800 1 0
-9.521041 29.349222 0.8979666 18 3199825965800 1 0
-4.475477 13.802786 -0.9299426 7 3199825968104 1 0
-4.539048 20.705076 0.369991 29 3199825968104 1 0
-2.5583959 15.19603 -0.89743394 73 3199825970408 1 0
-7.9182115 29.231218 1.7637054 20 3199825970408 1 0
-4.0053334 14.794792 -0.7139736 8 3199825972712 1 0
-5.0897923 23.24965 0.9696474 22 3199825972712 1 0
-6.6416163 30.35936 -1.628695 47 3199825975016 1 0
-5.9959035 27.42686 2.2918744 9 3199825977320 1 0
-4.47044 13.814639 -0.5915582 3 3199825977320 1 0
-2.5470278 15.182452 -0.5375919 70 3199825979624 1 0
-5.4594193 20.177488 2.5665684 23 3199825975016 1 0
-4.571712 20.941423 3.9080887 20 3199825981928 1 0
-4.0051904 14.828459 -0.35741487 10 3199825981928 1 0
-5.2256336 19.335747 5.366872 24 3199825979624 1 0
-0.87310094 4.0246468 -1.9203774 3 3199826002664 1 0
-8.332947 25.891972 -0.47477525 6 3199826002664 1 0
-4.747155 21.897861 -0.6520934 6 3199826004968 1 0
-2.3742423 10.959696 -2.2427974 2 3199826007272 1 0
-1.8981109 7.0682178 -2.0487728 6 3199826004968 1 0
-6.7571487 25.177004 0 9 3199826007272 1 0
-3.3342752 20.108051 -0.23729184 39 3199826009576 1 0
-4.0262485 15.010444 -2.4178252 9 3199826009576 1 0
-3.3441935 15.458798 -2.0132205 74 3199826011880 1 0
-9.578908 29.822884 0.18205239 17 3199826011880 1 0
-4.4912395 20.775732 -0.12353804 25 3199826014184 1 0
-3.967605 14.809027 -1.6514364 15 3199826014184 1 0
-2.5055907 15.151458 -1.4335693 72 3199826016488 1 0
0 0 0 19 3199826016488 1 0
-3.9692926 14.832584 -1.0736916 13 3199826018792 1 0
0 0 0 19 3199826021096 1 0
-3.2867165 19.892946 0.2347308 14 3199826018792 1 0
-9.403889 29.336588 0.89657027 21 3199826021096 1 0
-4.4211793 13.799317 -0.9286635 6 3199826023400 1 0
-4.465061 20.712975 0.3698514 25 3199826023400 1 0
-2.4994934 15.169407 -0.8953409 78 3199826025704 1 0
-7.8099437 29.235533 1.76231 10 3199826025704 1 0
-4.641055 21.559835 0.8984911 14 3199826028008 1 0
-3.9763405 14.893613 -0.7180683 4 3199826028008 1 0
-6.550723 30.452652 -1.6324631 42 3199826030312 1 0
-5.3674593 20.115868 2.5563314 23 3199826030312 1 0
-8.212591 38.205284 3.1901383 9 3199826032616 1 0
-4.402715 13.769251 -0.58895296 8 3199826032616 1 0
-2.4901297 15.1675825 -0.53675425 76 3199826034920 1 0
-5.208853 19.544273 5.4196706 16 3199826034920 1 0
-4.5051923 20.988035 3.9138286 12 3199826037224 1 0
-3.972961 14.91577 -0.3591829 21 3199826037224 1 0
-0.8598032 4.031215 -1.9220679 4 3199826057960 1 0
0 0 0 72 3199826057960 1 0
-4.527334 21.241697 -0.6320791 27 3199826060264 1 0
-1.8734267 7.0748005 -2.0487728 5 3199826060264 1 0
-2.3335202 10.956408 -2.240444 2 3199826062568 1 0
-3.2288363 19.902422 -0.2347308 24 3199826064872 1 0
-6.6886673 25.273909 0 6 3199826062568 1 0
-3.964732 14.990017 -2.412291 9 3199826064872 1 0
-3.2819574 15.431566 -2.00817 78 3199826067176 1 0
-9.561861 30.130642 0.18372622 13 3199826067176 1 0
-4.2839856 20.15745 -0.11977192 40 3199826069480 1 0
-3.9351878 14.895843 -1.6595758 18 3199826069480 1 0
-2.4482346 15.13259 -1.4309669 68 3199826071784 1 0
-7.194822 27.250565 0.65583444 14 3199826071784 1 0
-3.231936 19.995113 0.23580179 13 3199826074088 1 0
-3.9409084 14.935088 -1.0801092 11 3199826074088 1 0
-3.3000264 15.561013 -1.298577 6 3199826076392 1 0
-9.402832 29.689419 0.90634465 7 3199826076392 1 0
-4.214469 19.887247 0.35484233 20 3199826078696 1 0
-4.360937 13.776609 -0.92610514 6 3199826078696 1 0
-2.4420786 15.150443 -0.89371306 79 3199826081000 1 0
-7.63868 29.000032 1.7464962 15 3199826081000 1 0
-4.4019375 20.801706 0.86625093 13 3199826083304 1 0
-3.946706 14.992411 -0.722163 4 3199826083304 1 0
0 0 0 17 3199826085608 1 0
-5.30529 20.165197 2.5602312 23 3199826085608 1 0
-5.639436 26.687931 2.2267828 12 3199826087912 1 0
-4.3558283 13.788346 -0.58911574 12 3199826087912 1 0
-5.153364 19.610916 5.4331293 22 3199826090216 1 0
-4.4205284 20.949728 3.903784 25 3199826092520 1 0
-2.4308314 15.136712 -0.53535825 72 3199826090216 1 0
-0.84423876 4.027096 -1.9186869 4 3199826113256 1 0
-3.943218 15.014637 -0.36123005 7 3199826092520 1 0
-8.12921 25.87702 -0.47344887 20 3199826113256 1 0
-4.4220066 21.108664 -0.62765735 17 3199826115560 1 0
-1.8487196 7.081297 -2.0487728 6 3199826115560 1 0
-2.2952611 10.964486 -2.240444 2 3199826117864 1 0
-5.4723973 20.973837 0 2 3199826117864 1 0
-3.1537037 19.87802 -0.23431171 24 3199826120168 1 0
-3.905402 14.976994 -2.4079869 7 3199826120168 1 0
-3.2223878 15.41574 -2.0046344 78 3199826122472 1 0
-9.246028 29.492086 0.17963463 8 3199826122472 1 0
-4.189061 20.05482 -0.119074486 37 3199826124776 1 0
-3.9052198 14.994157 -1.6690004 15 3199826124776 1 0
-2.3910406 15.113508 -1.4283644 68 3199826127080 1 0
-7.081524 27.205854 0.6541595 21 3199826127080 1 0
-3.1877222 20.168251 0.23771092 32 3199826129384 1 0
-3.9108522 15.033711 -1.0862478 10 3199826129384 1 0
-5.2752604 25.31009 -2.1105945 16 3199826131688 1 0
-4.1605177 19.976229 0.35616872 61 3199826133992 1 0
-21.956667 70.17825 2.140016 32 3199826131688 1 0
-4.3163953 13.803177 -0.9268727 7 3199826133992 1 0
-2.382962 15.11943 -0.89138746 74 3199826136296 1 0
-7.530379 28.999466 1.7448683 15 3199826136296 1 0
-4.787456 23.019941 0.9579237 6 3199826138600 1 0
-3.9184375 15.098918 -0.72663003 6 3199826138600 1 0
-3.2445703 15.612539 -0.8357006 10 3199826140904 1 0
-5.306633 20.46029 2.5953295 16 3199826140904 1 0
-4.7023907 22.643953 1.8879812 9 3199826143208 1 0
-4.3148155 13.826358 -0.5900927 10 3199826143208 1 0
-2.3748791 15.12536 -0.5346603 63 3199826145512 1 0
-5.095536 19.669928 5.4445176 14 3199826145512 1 0
-4.3385844 20.922646 3.8958917 17 3199826147816 1 0
-3.913835 15.11735 -0.36337024 3 3199826147816 1 0
-0.8301764 4.0300183 -1.9186869 4 3199826168552 1 0
0 0 0 14 3199826168552 1 0
-4.2628465 20.708855 -0.61532295 25 3199826170856 1 0
-1.82207 7.0802464 -2.046616 6 3199826170856 1 0
-2.2538128 10.957064 -2.237306 2 3199826173160 1 0
0 0 0 74 3199826173160 1 0
-3.095943 19.964003 -0.23519644 27 3199826175464 1 0
-3.847195 14.9675665 -2.4042974 8 3199826175464 1 0
-3.1629689 15.399686 -2.0010989 74 3199826177768 1 0
0 0 0 14 3199826177768 1 0
-4.100535 19.979198 -0.118539795 26 3199826180072 1 0
-3.8775797 15.104 -1.6797101 16 3199826180072 1 0
-7.001422 27.28851 0.6555553 35 3199826182376 1 0
-2.3413131 15.141441 -1.4302233 58 3199826182376 1 0
-3.1020365 20.080433 0.23654681 16 3199826184680 1 0
-3.8841195 15.147767 -1.0935025 3 3199826184680 1 0
-5.1772814 25.28148 -2.106689 22 3199826186984 1 0
0 0 0 33 3199826186984 1 0
-4.288214 13.882998 -0.9312218 9 3199826189288 1 0
-4.0875554 19.974957 0.35588947 16 3199826189288 1 0
-2.336858 15.171069 -0.8939456 63 3199826191592 1 0
-6.80234 26.576796 1.5976603 13 3199826191592 1 0
-4.261409 20.855425 0.8672279 30 3199826193896 1 0
-6.578834 25.719128 -1.2366111 11 3199826193896 1 0
-6.676575 32.69955 -1.7490677 18 3199826196200 1 0
-5.278447 20.647936 2.6167786 30 3199826196200 1 0
-4.622523 22.656324 1.8876557 19 3199826198504 1 0
-4.2841854 13.898625 -0.5925352 7 3199826198504 1 0
-2.3299491 15.184924 -0.53647506 59 3199826200808 1 0
-5.042138 19.747492 5.461082 12 3199826200808 1 0
-4.2498136 20.860544 3.8815422 25 3199826203112 1 0
-6.644354 26.038355 -0.6253132 9 3199826203112 1 0
-0.81468165 4.0294805 -1.9169965 4 3199826223296 1 0
-10.307538 33.65141 -0.6143247 16 3199826223296 1 0
-1.7952125 7.08313 -2.045538 6 3199826225600 1 0
-4.136391 20.473484 -0.6078758 27 3199826225600 1 0
-2.21535 10.972908 -2.238875 2 3199826227904 1 0
-3.0237849 19.979105 -0.23524301 28 3199826230208 1 0
-3.7877872 14.962326 -2.4012227 8 3199826230208 1 0
-3.0998957 15.376078 -1.9965532 77 3199826232512 1 0
-7.9410954 25.976854 0.15787482 20 3199826232512 1 0
-5.2959595 20.907688 0 29 3199826227904 1 0
-4.026427 19.986105 -0.118493296 31 3199826234816 1 0
-4.0684295 16.089594 -1.7876639 20 3199826234816 1 0
-2.2941887 15.201016 -1.4350564 58 3199826237120 1 0
-6.560606 25.960602 0.62307996 28 3199826237120 1 0
-6.4802814 25.657677 -1.8504997 15 3199826239424 1 0
-3.0026042 19.913538 0.23445141 21 3199826239424 1 0
-3.121722 15.528637 -1.2930442 7 3199826241728 1 0
-9.022611 29.573154 0.8998284 18 3199826241728 1 0
-4.031378 20.067963 0.35728568 24 3199826244032 1 0
-4.2649913 13.986164 -0.9371059 5 3199826244032 1 0
-2.292435 15.246496 -0.89789903 68 3199826246336 1 0
-6.72244 26.663013 1.6013812 8 3199826246336 1 0
-4.6220937 23.041483 0.95743525 42 3199826248640 1 0
-7.231506 28.698835 -1.3786241 9 3199826248640 1 0
-3.1184294 15.556752 -0.83151364 19 3199826250944 1 0
-5.1919327 20.61664 2.6104414 23 3199826250944 1 0
-4.5321994 22.625776 1.8837503 22 3199826253248 1 0
-4.2647862 14.013247 -0.59676874 4 3199826253248 1 0
-4.937808 19.630442 5.423812 20 3199826255552 1 0
-2.2853 15.256386 -0.5387086 61 3199826255552 1 0
-6.5478168 26.046307 -0.624941 35 3199826257856 1 0
-0.80131495 4.0321603 -1.9169965 4 3199826278592 1 0
-4.9507995 16.35656 -0.29829654 7 3199826278592 1 0
-4.070663 20.498884 -0.60822487 33 3199826280896 1 0
-4.173289 20.863949 3.8793898 15 3199826257856 1 0
-1.7725966 7.092794 -2.046616 6 3199826280896 1 0
-2.1765003 10.968684 -2.2365215 2 3199826283200 1 0
-5.2796035 21.138655 0 27 3199826283200 1 0
-2.965859 20.048437 -0.23594147 19 3199826285504 1 0
-3.7311225 14.948042 -2.3969183 8 3199826285504 1 0
0 0 0 61 3199826287808 1 0
-4.930386 16.323362 0.099104755 23 3199826287808 1 0
-3.9605942 15.887044 -1.7636741 26 3199826290112 1 0
-2.2541454 15.2835 -1.4421202 58 3199826292416 1 0
-5.1837053 20.806175 0.49894783 5 3199826292416 1 0
-2.9565268 20.065987 0.23612773 24 3199826294720 1 0
-3.9469724 19.93671 -0.11812133 16 3199826290112 1 0
-3.9566312 15.890841 -1.1451223 12 3199826294720 1 0
-4.9200435 16.323423 0.49616814 20 3199826297024 1 0
-4.998341 25.305275 -2.1057127 9 3199826297024 1 0
-4.2383976 14.069305 -0.9417108 12 3199826299328 1 0
-3.9867263 20.199192 0.35937995 40 3199826299328 1 0
-2.2494593 15.31344 -0.9013874 50 3199826301632 1 0
-4.222348 21.4258 0.8896983 51 3199826303936 1 0
0 0 0 12 3199826303936 1 0
-6.8477836 27.55372 1.6534737 13 3199826301632 1 0
-4.0811133 20.725012 -1.1070101 28 3199826306240 1 0
-5.110259 20.587952 2.6045916 23 3199826306240 1 0
-4.471168 22.72325 1.890585 22 3199826308544 1 0
-4.2365274 14.092777 -0.59953684 4 3199826308544 1 0
-2.2429788 15.33135 -0.5410818 51 3199826310848 1 0
-4.875332 19.665955 5.4289885 14 3199826310848 1 0
-3.9986303 20.352983 3.7818131 28 3199826313152 1 0
-5.190124 20.9488 -0.50220466 30 3199826313152 1 0
-0.7879294 4.038491 -1.9186869 4 3199826333888 1 0
-4.8868027 16.35075 -0.29787767 12 3199826333888 1 0
-4.0058203 20.548317 -0.6092721 33 3199826336192 1 0
-1.7459339 7.0914707 -2.0444596 6 3199826336192 1 0
-5.190185 21.094885 0 12 3199826338496 1 0
-2.1372898 10.972396 -2.235737 2 3199826338496 1 0
-2.8685641 19.872673 -0.23375295 22 3199826340800 1 0
-3.671989 14.934189 -2.3926141 8 3199826340800 1 0
-2.7034 13.90131 -1.8026052 23 3199826343104 1 0
0 0 0 5 3199826343104 1 0
-3.8834975 19.985846 -0.11833056 43 3199826345408 1 0
-3.9718716 16.175135 -1.7940898 22 3199826345408 1 0
-2.212026 15.374155 -1.4499274 55 3199826347712 1 0
-5.102514 20.793297 0.4982034 24 3199826347712 1 0
-2.8814604 20.048618 0.23580179 24 3199826350016 1 0
-6.523356 26.600933 -1.9152337 16 3199826350016 1 0
-7.7492304 26.044077 0.79079705 23 3199826352320 1 0
-2.996692 15.459857 -1.2855587 17 3199826352320 1 0
-3.921715 20.248579 0.36000824 28 3199826354624 1 0
-4.20882 14.15316 -0.94631577 12 3199826354624 1 0
-2.2067692 15.404369 -0.90627104 61 3199826356928 1 0
-6.891002 28.15588 1.6881247 14 3199826356928 1 0
-4.1063623 21.236692 0.8812312 13 3199826359232 1 0
-6.3203754 25.841452 -1.2392169 26 3199826359232 1 0
-4.0001154 20.704184 -1.105126 14 3199826361536 1 0
-6.1309776 25.08368 3.1705527 21 3199826361536 1 0
-4.394206 22.762619 1.8925376 9 3199826363840 1 0
-4.2075753 14.1806755 -0.60263056 5 3199826363840 1 0
-4.802819 19.675837 5.4269176 16 3199826366144 1 0
-2.1991765 15.418459 -0.5438737 55 3199826366144 1 0
-3.9238496 20.359516 3.780378 23 3199826368448 1 0
-5.1317387 21.037275 -0.5038796 6 3199826368448 1 0
-0.77244115 4.037791 -1.9169965 3 3199826389184 1 0
0 0 0 14 3199826389184 1 0
-3.9136612 20.47245 -0.6065958 41 3199826391488 1 0
-1.7191783 7.094041 -2.0433812 6 3199826391488 1 0
-2.0968027 10.976212 -2.2349527 2 3199826393792 1 0
-5.004531 20.66258 0 30 3199826393792 1 0
-2.799238 19.898712 -0.2339392 31 3199826396096 1 0
-3.6089072 14.908895 -2.3864648 8 3199826396096 1 0
-2.928006 15.349145 -1.9889771 100 3199826398400 1 0
-9.881784 33.57542 0.20341697 10 3199826398400 1 0
-3.7891822 19.877726 -0.11760989 30 3199826400704 1 0
-3.833946 15.856714 -1.7572484 58 3199826400704 1 0
-2.1648679 15.43315 -1.4547606 55 3199826403008 1 0
-5.0393248 20.853958 0.499227 24 3199826403008 1 0
-2.8126879 20.0705 0.23594147 26 3199826405312 1 0
-3.814463 15.794235 -1.1361934 13 3199826405312 1 0
-4.832002 25.402498 -2.11092 16 3199826407616 1 0
-7.660526 26.07864 0.7910298 20 3199826407616 1 0
-3.8103762 20.045963 0.35616872 28 3199826409920 1 0
-4.1810656 14.240447 -0.9511765 13 3199826409920 1 0
-2.161394 15.467252 -0.9095268 63 3199826412224 1 0
0 0 0 21 3199826412224 1 0
-3.8837917 20.461391 0.8485026 13 3199826414528 1 0
-2.9403353 15.501956 -0.8269081 10 3199826416832 1 0
-6.0492907 25.119839 3.1725028 18 3199826416832 1 0
-6.24025 25.89791 -1.240892 22 3199826414528 1 0
-3.9118428 20.638668 1.7148377 5 3199826419136 1 0
-2.1545272 15.477233 -0.5456885 57 3199826421440 1 0
-4.187696 14.290708 -0.6067013 13 3199826419136 1 0
-4.7330713 19.676834 5.4227767 16 3199826421440 1 0
-4.1171227 21.752836 4.0365167 26 3199826423744 1 0
-5.097008 21.202038 -0.5074156 27 3199826423744 1 0
-0.75774235 4.0295095 -1.911925 2 3199826444480 1 0
-15.064818 51.68505 -0.9397074 9 3199826444480 1 0
-3.8564117 20.523994 -0.6077594 33 3199826446784 1 0
-1.69678 7.0994315 -2.0433812 6 3199826446784 1 0
-4.943638 20.697798 0 44 3199826449088 1 0
-2.0648851 10.998224 -2.2380905 2 3199826449088 1 0
-2.735842 19.907528 -0.2339392 25 3199826451392 1 0
-3.5522242 14.88187 -2.3803158 8 3199826451392 1 0
-2.8657184 15.288235 -1.9798857 82 3199826453696 1 0
-3.717906 19.850487 -0.11737741 24 3199826456000 1 0
-9.769832 33.591507 0.20332399 15 3199826453696 1 0
-3.8465912 16.13589 -1.7868072 21 3199826456000 1 0
-2.1242137 15.507139 -1.4610808 55 3199826458304 1 0
-4.9626966 20.83122 0.49829647 33 3199826458304 1 0
-2.7416117 20.035925 0.23542927 22 3199826460608 1 0
-6.3314815 26.593933 -1.9116064 16 3199826460608 1 0
-4.076301 21.81662 -1.8118241 7 3199826462912 1 0
-8.801335 30.32732 0.91902816 15 3199826462912 1 0
-4.156682 14.3307295 -0.9562931 12 3199826465216 1 0
-3.73815 20.022942 0.35554042 28 3199826465216 1 0
0 0 0 6 3199826467520 1 0
-3.8206096 20.497677 0.84947956 31 3199826469824 1 0
-2.1191752 15.537579 -0.91324776 69 3199826467520 1 0
-6.7123013 28.266457 -1.3533112 8 3199826469824 1 0
-3.7884984 20.341824 -1.084401 31 3199826472128 1 0
-5.9833746 25.213156 3.1817648 29 3199826472128 1 0
-3.8372457 20.620226 1.712234 8 3199826474432 1 0
-4.1567426 14.362164 -0.60914373 12 3199826474432 1 0
-2.1075819 15.520004 -0.5469449 59 3199826476736 1 0
-4.664549 19.68128 5.4196706 16 3199826476736 1 0
-4.0440154 21.766544 4.0365167 21 3199826479040 1 0
-0.7449872 4.03926 -1.915306 2 3199826499776 1 0
-15.065653 52.367657 -0.95115614 9 3199826499776 1 0
-4.956622 20.927198 -0.50043666 38 3199826479040 1 0
-3.7803981 20.513739 -0.60706127 27 3199826502080 1 0
-1.6702234 7.097812 -2.0412247 6 3199826502080 1 0
-2.0243506 10.993793 -2.235737 2 3199826504384 1 0
-1.9249198 14.378742 -0.16888884 4 3199826506688 1 0
-4.856708 20.652628 0 26 3199826504384 1 0
-3.4930212 14.863398 -2.3753965 8 3199826506688 1 0
-2.8065956 15.266924 -1.9758452 82 3199826508992 1 0
-9.662449 33.660007 0.20353322 15 3199826508992 1 0
-3.6615996 19.934158 -0.11779587 31 3199826511296 1 0
-3.7629817 16.033064 -1.7739555 26 3199826511296 1 0
-1.9115235 14.326201 -1.349176 105 3199826513600 1 0
-4.8917785 20.856203 0.49848256 26 3199826513600 1 0
-1.914969 14.367966 0.16874914 4 3199826515904 1 0
-3.6879845 15.734095 -1.1300548 22 3199826515904 1 0
-2.8245878 15.415222 -1.279375 10 3199826518208 1 0
-8.87818 30.995918 0.93834424 11 3199826518208 1 0
-3.6732757 20.063406 0.3560291 39 3199826520512 1 0
-4.1308026 14.42958 -0.9619214 12 3199826520512 1 0
-6.8074203 29.099724 1.7404498 9 3199826522816 1 0
-3.8496428 21.061304 0.8722756 13 3199826525120 1 0
0 0 0 204 3199826522816 1 0
-3.6829093 15.753687 -0.75361806 22 3199826525120 1 0
-2.8189611 15.435162 -0.8223025 8 3199826527424 1 0
-5.8366184 24.982594 3.1500788 29 3199826527424 1 0
-3.7394795 20.492304 1.7005175 10 3199826529728 1 0
-4.1307335 14.461131 -0.612726 13 3199826529728 1 0
0 0 0 200 3199826532032 1 0
-4.6204014 19.802795 5.4486585 14 3199826532032 1 0
-3.7430208 20.545551 3.8076422 14 3199826534336 1 0
-6.0749164 26.053896 -0.62252164 42 3199826534336 1 0
-0.730883 4.041836 -1.915306 3 3199826555072 1 0
-14.99418 52.812355 -0.95827675 9 3199826555072 1 0
-3.621328 20.042854 -0.5927487 13 3199826557376 1 0
-1.9859629 11.0007925 -2.235737 2 3199826559680 1 0
-4.8657737 21.020182 0 17 3199826559680 1 0
-1.6454372 7.103599 -2.0412247 6 3199826557376 1 0
-1.8721325 14.365542 -0.168656 27 3199826561984 1 0
-3.4331 14.840843 -2.3698623 7 3199826561984 1 0
-2.7476566 15.245387 -1.9718046 81 3199826564288 1 0
-7.1038876 25.076761 0.15148172 37 3199826564288 1 0
-3.6104255 20.04917 -0.118400306 35 3199826566592 1 0
-3.8224726 16.545969 -1.8292176 15 3199826566592 1 0
-1.8584263 14.30909 -1.3469454 208 3199826568896 1 0
-4.814449 20.85367 0.4980173 20 3199826568896 1 0
-1.8653183 14.378529 0.1687957 19 3199826571200 1 0
-6.133109 26.583054 -1.9077001 16 3199826571200 1 0
-2.7341094 15.220943 -1.2624512 61 3199826573504 1 0
-8.617674 30.488062 0.9220536 23 3199826573504 1 0
-4.103198 14.524582 -0.9672938 10 3199826575808 1 0
-3.5919147 20.013123 0.35491213 26 3199826575808 1 0
-1.8534656 14.33619 -0.841853 205 3199826578112 1 0
0 0 0 9 3199826578112 1 0
-3.6865804 20.574993 0.8515963 26 3199826580416 1 0
-2.73198 15.260103 -0.8124634 46 3199826582720 1 0
0 0 0 2 3199826580416 1 0
-5.7360315 24.944777 3.1427667 29 3199826582720 1 0
-3.6510773 20.411045 1.6927065 7 3199826585024 1 0
-1.8461046 14.34488 -0.5050655 192 3199826587328 1 0
-4.1008315 14.548551 -0.61581975 11 3199826585024 1 0
-3.8283148 21.437853 3.970509 13 3199826589632 1 0
0 0 0 3 3199826589632 1 0
-0.71803516 4.0515018 -1.9186869 4 3199826610368 1 0
-14.973728 53.44974 -0.9688878 9 3199826610368 1 0
-3.570864 20.165611 -0.5960069 18 3199826612672 1 0
-1.620631 7.1092997 -2.0412247 6 3199826612672 1 0
-1.9455007 10.996071 -2.2333837 2 3199826614976 1 0
-4.5884333 19.980728 5.4931755 17 3199826587328 1 0
-4.7754893 20.962936 0 28 3199826614976 1 0
-1.8179518 14.340246 -0.16828349 21 3199826617280 1 0
-3.3751335 14.82576 -2.365558 8 3199826617280 1 0
-2.6868317 15.211903 -1.9662488 81 3199826619584 1 0
-7.0216937 25.120667 0.15159796 18 3199826619584 1 0
-3.7893796 16.667795 -1.8412125 25 3199826621888 1 0
-1.8069694 14.303636 -1.3458301 207 3199826624192 1 0
-3.564054 20.195578 -0.11919072 24 3199826621888 1 0
-4.697329 20.675371 0.4933647 26 3199826624192 1 0
-1.8096086 14.341302 0.16828349 22 3199826626496 1 0
-3.5621483 15.689416 -1.1250324 6 3199826626496 1 0
-2.677506 15.210763 -1.2608238 65 3199826628800 1 0
-3.4901667 19.844349 0.3517009 26 3199826631104 1 0
-9.387667 33.660645 1.0170051 17 3199826628800 1 0
-4.0728374 14.611876 -0.9721546 11 3199826631104 1 0
-1.8024153 14.334648 -0.8413879 207 3199826633408 1 0
-5.7278495 25.279287 1.5095215 16 3199826633408 1 0
-3.6707215 20.90659 0.8647855 16 3199826635712 1 0
-3.5560734 15.704971 -0.7500817 21 3199826635712 1 0
-2.672484 15.234138 -0.8105793 85 3199826638016 1 0
-5.594598 24.724566 3.112543 21 3199826638016 1 0
-3.5894432 20.478642 1.6972629 10 3199826640320 1 0
-4.0735817 14.647489 -0.619402 5 3199826640320 1 0
-1.793042 14.327437 -0.50422794 206 3199826642624 1 0
-4.5169563 19.989086 5.491105 21 3199826642624 1 0
-3.6096694 20.629324 3.8184044 33 3199826644928 1 0
0 0 0 100 3199826644928 1 0
-0.7020279 4.043268 -1.9136155 3 3199826665664 1 0
-10.660664 38.57179 -0.6985151 20 3199826665664 1 0
-2.638665 15.210284 -0.4492742 56 3199826667968 1 0
-1.595805 7.1149135 -2.0412247 6 3199826667968 1 0
-1.9057658 10.995066 -2.2318149 2 3199826670272 1 0
-4.8956265 21.842077 0 15 3199826670272 1 0
-1.768373 14.350474 -0.16833006 16 3199826672576 1 0
-3.3207698 14.82588 -2.3637133 7 3199826672576 1 0
-2.6283035 15.18991 -1.9622082 82 3199826674880 1 0
-6.9329 25.141169 0.15157472 37 3199826674880 1 0
-3.4894483 20.184248 -0.11905124 33 3199826677184 1 0
-3.7650318 16.832283 -1.8579196 37 3199826677184 1 0
-1.7575148 14.313809 -1.3462019 213 3199826679488 1 0
-4.617279 20.656519 0.49252722 15 3199826679488 1 0
0 0 0 172 3199826681792 1 0
-5.938678 26.58628 -1.9049097 19 3199826681792 1 0
-2.6203294 15.196444 -1.2588711 63 3199826684096 1 0
-9.28284 33.739468 1.0184014 12 3199826684096 1 0
-3.4174807 19.836704 0.35135186 24 3199826686400 1 0
-4.0450916 14.71068 -0.97778285 11 3199826686400 1 0
-1.7538201 14.352744 -0.8420856 118 3199826688704 1 0
-5.631754 25.26405 1.5074285 8 3199826688704 1 0
-3.6905265 21.458899 0.88709307 8 3199826691008 1 0
-2.6138787 15.211879 -0.8089045 78 3199826693312 1 0
-3.5012312 15.717289 -0.7500817 3 3199826691008 1 0
-5.5134354 24.767197 3.1154678 17 3199826693312 1 0
-3.5428972 20.636429 1.7093048 7 3199826695616 1 0
-4.045691 14.746413 -0.62298423 5 3199826695616 1 0
-1.7459143 14.357419 -0.5050655 204 3199826697920 1 0
-4.541899 20.430925 5.608091 15 3199826697920 1 0
-3.5163667 20.517685 3.7954452 26 3199826700224 1 0
-4.6474724 20.920193 -0.49866867 26 3199826700224 1 0
-0.68912536 4.0528417 -1.9169965 3 3199826720960 1 0
-10.51123 38.55475 -0.6975378 19 3199826720960 1 0
-2.581537 15.195751 -0.44857603 78 3199826723264 1 0
-1.5709597 7.1204405 -2.0412247 7 3199826723264 1 0
-1.8680305 11.005518 -2.2325993 2 3199826725568 1 0
-4.591993 20.827799 0 64 3199826725568 1 0
0 0 0 106 3199826727872 1 0
-3.2647455 14.818082 -2.3606386 7 3199826727872 1 0
-2.5719507 15.179431 -1.9596828 49 3199826730176 1 0
-6.852448 25.192232 0.15173744 9 3199826730176 1 0
-3.4136298 20.164755 -0.11886526 35 3199826732480 1 0
-3.7096715 16.86086 -1.8596332 27 3199826732480 1 0
0 0 0 23 3199826734784 1 0
-4.5545917 20.715471 0.49355078 18 3199826734784 1 0
-1.7080251 14.341671 0.16814381 117 3199826737088 1 0
-5.8407006 26.583464 -1.9032357 35 3199826737088 1 0
-2.5612946 15.170118 -1.255942 65 3199826739392 1 0
-19.000223 70.012924 2.1112745 62 3199826739392 1 0
-3.3655133 19.951048 0.3531669 28 3199826741696 1 0
-4.0167055 14.809468 -0.98341113 9 3199826741696 1 0
-1.7074729 14.390502 -0.84394604 205 3199826744000 1 0
-5.0055985 22.83009 1.3611507 31 3199826744000 1 0
-3.4954767 20.758293 0.857621 23 3199826746304 1 0
-6.6600857 30.39719 -1.4495375 9 3199826746304 1 0
-2.5567873 15.197275 -0.8076485 82 3199826748608 1 0
-5.406568 24.69321 3.1037683 10 3199826748608 1 0
-3.4767888 20.684055 1.712234 5 3199826750912 1 0
-4.0140266 14.833746 -0.62607795 4 3199826750912 1 0
-1.6981305 14.383276 -0.50576353 106 3199826753216 1 0
-4.4779816 20.480625 5.6174088 9 3199826753216 1 0
-3.4414694 20.51043 3.7918577 30 3199826755520 1 0
-4.5616155 20.877686 -0.49727288 28 3199826755520 1 0
-0.6743789 4.0516467 -1.915306 4 3199826776256 1 0
-14.799511 55.040356 -0.99485695 20 3199826776256 1 0
-2.5220296 15.16521 -0.4474124 75 3199826778560 1 0
-1.5453302 7.122105 -2.0401464 7 3199826778560 1 0
-1.828477 11.004206 -2.2310302 2 3199826780864 1 0
-4.37123 20.159533 0 26 3199826780864 1 0
-1.6864588 14.517382 -0.17014608 116 3199826783168 1 0
-3.206628 14.798415 -2.3557193 7 3199826783168 1 0
0 0 0 22 3199826785472 1 0
-6.749655 25.157852 0.15138873 25 3199826785472 1 0
-3.315832 20.006742 -0.11786561 39 3199826787776 1 0
-3.378035 15.610291 -1.720407 21 3199826787776 1 0
-1.7502128 15.120869 -1.420929 33 3199826790080 1 0
-4.490765 20.766226 0.49438825 16 3199826790080 1 0
-3.3849714 15.663281 -1.120568 5 3199826792384 1 0
