# .PCD v.7 - Point Cloud Data file format
VERSION .7
FIELDS x y z rgb timestamp_ns device_id active
SIZE 4 4 4 4 8 1 1
TYPE F F F F F U U
COUNT 1 1 1 1 1 1 1
WIDTH 977
HEIGHT 1
VIEWPOINT 0 0 0 1 0 0 0
POINTS 977               
DATA ascii
-7.14539 9.066053 -2.3086927 3 3201218803272 1 0
-27.124058 31.155039 0 42 3201218803272 1 0
-4.8393264 5.55688 -2.0627906 4 3201218800968 1 0
-25.225634 35.450035 -0.5065268 15 3201218805576 1 0
-10.683056 12.274299 -2.5315835 3 3201218805576 1 0
-13.081764 16.608046 -2.6910284 6 3201218807880 1 0
-27.319221 28.46169 0.22929162 60 3201218807880 1 0
-26.95579 34.232155 -0.2532367 48 3201218810184 1 0
-15.545775 17.871817 -2.55148 7 3201218810184 1 0
-11.056005 15.551561 -1.7811801 49 3201218812488 1 0
0 0 0 5 3201218812488 1 0
-23.344404 32.846745 0.46913564 5 3201218814792 1 0
-16.129074 18.553288 -1.7190785 2 3201218814792 1 0
-12.576775 15.986056 -1.6604862 5 3201218817096 1 0
-27.050829 28.214914 1.1375562 14 3201218817096 1 0
-26.964365 34.28406 0.7613438 24 3201218819400 1 0
-17.409832 18.164322 -1.6124974 2 3201218819400 1 0
-11.281972 15.888976 -1.1348737 2 3201218821704 1 0
-117.39048 135.15343 10.425489 28 3201218821704 1 0
-30.203758 38.42581 1.9912373 31 3201218824008 1 0
-16.886757 19.447691 -1.1997585 3 3201218824008 1 0
-16.02259 20.390356 -1.3590602 3 3201218826312 1 0
-16.784058 19.335094 3.1437416 7 3201218826312 1 0
-21.581413 27.47274 2.8519876 7 3201218828616 1 0
-18.871523 19.712303 -1.1117972 10 3201218828616 1 0
-17.970354 25.339783 -1.084816 4 3201218830920 1 0
0 0 0 9 3201218830920 1 0
0 0 0 29 3201218833224 1 0
-27.055157 31.194801 -0.9608607 45 3201218833224 1 0
-2.552262 3.2597046 -1.9305202 4 3201218853960 1 0
-26.945473 28.236265 -0.68127215 19 3201218853960 1 0
-26.91912 34.390934 -1.2710236 27 3201218856264 1 0
-4.8199 5.5737386 -2.0627906 5 3201218856264 1 0
-27.122395 31.373594 0 12 3201218858568 1 0
-25.217115 35.70122 -0.50885504 15 3201218860872 1 0
-10.653068 12.3264675 -2.5346582 2 3201218860872 1 0
-7.118534 9.097118 -2.3102617 2 3201218858568 1 0
-27.294218 28.635056 0.2299193 36 3201218863176 1 0
-12.40528 15.862812 -2.563245 3 3201218863176 1 0
-26.939606 34.45839 -0.2542131 49 3201218865480 1 0
-15.449501 17.886845 -2.545911 7 3201218865480 1 0
-10.955726 15.524979 -1.7737446 50 3201218867784 1 0
-27.091576 31.37482 0.96458286 19 3201218867784 1 0
-23.21116 32.901886 0.46876314 5 3201218870088 1 0
-16.25716 18.832994 -1.7397264 2 3201218870088 1 0
0 0 0 26 3201218872392 1 0
0 0 0 13 3201218872392 1 0
-26.9356 34.494606 0.76392674 24 3201218874696 1 0
-17.305038 18.18161 -1.60866 5 3201218874696 1 0
0 0 0 32 3201218877000 1 0
0 0 0 3 3201218877000 1 0
-30.214516 38.716904 2.0008442 21 3201218879304 1 0
-15.948859 20.44301 -1.3588507 3 3201218881608 1 0
-16.703966 19.373367 -1.191569 3 3201218879304 1 0
-16.690542 19.363493 3.138867 10 3201218881608 1 0
-20.011835 25.658566 2.6563873 6 3201218883912 1 0
0 0 0 21 3201218883912 1 0
-17.861082 25.372936 -1.0835596 4 3201218886216 1 0
0 0 0 9 3201218886216 1 0
-27.050484 31.410257 -0.96458286 6 3201218888520 1 0
0 0 0 29 3201218888520 1 0
-2.5386431 3.2657316 -1.9288298 3 3201218909256 1 0
-26.94853 28.437561 -0.6838551 13 3201218909256 1 0
-19.890026 25.594378 -0.9433478 17 3201218911560 1 0
-4.8054333 5.596374 -2.0649474 4 3201218911560 1 0
-7.0963616 9.134301 -2.3133996 3 3201218913864 1 0
-27.098694 31.568237 0 61 3201218913864 1 0
-25.186483 35.9233 -0.5107642 15 3201218916168 1 0
-10.62542 12.381575 -2.5383477 3 3201218916168 1 0
-12.318198 15.8652725 -2.556679 15 3201218918472 1 0
-27.290335 28.83183 0.23073298 48 3201218918472 1 0
-19.893023 25.628992 -0.18856172 17 3201218920776 1 0
-15.366258 17.916515 -2.542484 7 3201218920776 1 0
-10.862623 15.507672 -1.7674243 50 3201218923080 1 0
-22.995224 32.83855 0.4667143 5 3201218925384 1 0
-16.180935 18.87751 -1.7386104 2 3201218925384 1 0
-12.347594 15.922248 -1.6448642 35 3201218927688 1 0
-26.941093 28.496048 1.1412798 14 3201218927688 1 0
-27.072994 31.57545 0.96783966 32 3201218923080 1 0
-19.877867 25.64025 0.5662957 14 3201218929992 1 0
-17.156467 18.151972 -1.6007293 2 3201218929992 1 0
0 0 0 36 3201218932296 1 0
0 0 0 3 3201218932296 1 0
-19.918158 25.70766 1.3249406 11 3201218934600 1 0
-16.618048 19.41031 -1.1902661 3 3201218934600 1 0
-15.955677 20.599615 -1.3655498 3 3201218936904 1 0
-16.615105 19.412586 3.1374044 7 3201218936904 1 0
-19.939234 25.75033 2.6586654 6 3201218939208 1 0
-18.453598 19.547136 -1.0951886 21 3201218939208 1 0
-17.907495 25.628466 -1.0917958 4 3201218941512 1 0
0 0 0 9 3201218941512 1 0
0 0 0 29 3201218943816 1 0
0 0 0 19 3201218943816 1 0
-2.5227983 3.2688334 -1.9254488 3 3201218964552 1 0
-26.928585 28.61592 -0.6858796 13 3201218964552 1 0
-19.815218 25.682644 -0.944046 5 3201218966856 1 0
-4.788368 5.616045 -2.0660255 2 3201218966856 1 0
-7.052456 9.143487 -2.3094773 3 3201218969160 1 0
-27.081747 31.772228 0 43 3201218969160 1 0
-13.312979 19.129921 -0.27133036 1 3201218971464 1 0
-10.584699 12.4215975 -2.5389626 3 3201218971464 1 0
-12.216716 15.848464 -2.5470827 20 3201218973768 1 0
-27.274452 29.017265 0.23145366 48 3201218973768 1 0
-25.316467 32.852352 -0.24105494 6 3201218976072 1 0
-15.27526 17.936739 -2.5377717 7 3201218976072 1 0
-10.772048 15.4931755 -1.761476 52 3201218978376 1 0
-27.058527 31.782421 0.9712826 39 3201218978376 1 0
-13.308696 19.147514 0.27147007 4 3201218980680 1 0
-16.133045 18.955147 -1.7405635 2 3201218980680 1 0
-27.492792 29.283678 1.168974 46 3201218982984 1 0
-12.218977 15.870484 -1.6351005 33 3201218982984 1 0
-25.303682 32.8753 0.7241352 7 3201218985288 1 0
-17.052023 18.168089 -1.5968919 2 3201218985288 1 0
-10.978308 15.809449 -1.1209203 2 3201218987592 1 0
0 0 0 3 3201218987592 1 0
-30.306572 39.39891 2.0251057 32 3201218989896 1 0
-16.477728 19.38296 -1.1850547 3 3201218989896 1 0
-16.005424 20.81351 -1.376017 3 3201218992200 1 0
-16.583235 19.51282 3.1442292 10 3201218992200 1 0
-21.559822 28.044907 2.8877878 7 3201218994504 1 0
-18.426254 19.655169 -1.0976311 21 3201218994504 1 0
-13.26833 19.13097 -0.8130187 9 3201218996808 1 0
0 0 0 9 3201218996808 1 0
0 0 0 29 3201218999112 1 0
-26.965134 31.756847 -0.96942157 33 3201218999112 1 0
-2.5135775 3.2804973 -1.9271393 4 3201219019296 1 0
-26.924105 28.812017 -0.6883229 19 3201219019296 1 0
-19.353455 25.266014 -0.9262426 5 3201219021600 1 0
-4.7687354 5.6327257 -2.0660255 4 3201219021600 1 0
-7.0109577 9.155593 -2.3063393 2 3201219023904 1 0
-27.063705 31.976484 0 50 3201219023904 1 0
0 0 0 14 3201219026208 1 0
-10.559146 12.47959 -2.543267 3 3201219026208 1 0
-12.113089 15.82799 -2.536981 9 3201219028512 1 0
-27.178455 29.118143 0.23150015 24 3201219028512 1 0
-15.189445 17.962618 -2.5339162 7 3201219030816 1 0
-25.150597 32.87381 -0.24056673 6 3201219030816 1 0
-10.679445 15.474958 -1.7551558 49 3201219033120 1 0
-27.037779 31.983566 0.97453946 19 3201219033120 1 0
0 0 0 86 3201219035424 1 0
-16.092537 19.041822 -1.7433538 2 3201219035424 1 0
-12.115083 15.849691 -1.6285913 35 3201219037728 1 0
-27.37132 29.358995 1.1681595 25 3201219037728 1 0
-25.159632 32.925293 0.72329754 7 3201219040032 1 0
-16.904129 18.136976 -1.5889611 4 3201219040032 1 0
0 0 0 16 3201219042336 1 0
0 0 0 3 3201219042336 1 0
-30.307125 39.685513 2.034387 21 3201219044640 1 0
-16.373886 19.397614 -1.1824489 3 3201219044640 1 0
-15.976306 20.926403 -1.3797852 4 3201219046944 1 0
-16.266657 19.27627 3.0969439 7 3201219046944 1 0
-21.568222 28.259438 2.902108 7 3201219049248 1 0
-18.428337 19.795425 -1.1018647 7 3201219049248 1 0
0 0 0 89 3201219051552 1 0
0 0 0 9 3201219051552 1 0
0 0 0 29 3201219053856 1 0
-26.99589 32.018932 -0.97453946 33 3201219053856 1 0
-2.502111 3.2892513 -1.9271393 3 3201219074592 1 0
-26.945787 29.037748 -0.69146436 19 3201219074592 1 0
-19.151573 25.183697 -0.92077357 5 3201219076896 1 0
-4.746607 5.646354 -2.0649474 4 3201219076896 1 0
-6.981463 9.18303 -2.307124 2 3201219079200 1 0
-27.052755 32.189793 0 51 3201219079200 1 0
-12.580145 18.347925 -0.25899082 5 3201219081504 1 0
-10.520878 12.522196 -2.5444968 3 3201219081504 1 0
-11.988609 15.778202 -2.522334 3 3201219083808 1 0
-27.243368 29.390993 0.23291825 30 3201219083808 1 0
-24.928013 32.817158 -0.23952058 6 3201219086112 1 0
-15.104288 17.98757 -2.5300608 7 3201219086112 1 0
-10.583274 15.44925 -1.748092 55 3201219088416 1 0
-27.037928 32.208275 0.9785407 19 3201219088416 1 0
-22.439331 32.766193 0.46233726 5 3201219090720 1 0
-16.044899 19.11846 -1.745307 2 3201219090720 1 0
-12.000353 15.81179 -1.6204548 35 3201219093024 1 0
-27.264952 29.446905 1.1679268 15 3201219093024 1 0
-24.957264 32.89339 0.72071457 7 3201219095328 1 0
-16.801233 18.15083 -1.5851237 2 3201219095328 1 0
0 0 0 3 3201219097632 1 0
-10.807942 15.795935 -1.1146413 28 3201219097632 1 0
-30.396181 40.08482 2.0495303 23 3201219099936 1 0
-16.29993 19.44416 -1.1818905 3 3201219099936 1 0
-15.926711 21.009304 -1.3816693 4 3201219102240 1 0
-16.305513 19.456278 3.1169302 7 3201219102240 1 0
-21.522694 28.399248 2.9089427 7 3201219104544 1 0
-18.396276 19.896046 -1.1039815 3 3201219104544 1 0
-12.561236 18.380184 -0.7774212 24 3201219106848 1 0
0 0 0 9 3201219106848 1 0
0 0 0 29 3201219109152 1 0
-26.98245 32.223476 -0.9779824 54 3201219109152 1 0
-2.493375 3.3004231 -1.9288298 4 3201219129888 1 0
-19.000484 25.15773 -0.91751546 5 3201219132192 1 0
-26.23131 28.45648 -0.6755477 12 3201219129888 1 0
-4.7204504 5.6531935 -2.0617123 4 3201219132192 1 0
-6.960427 9.218653 -2.3102617 2 3201219134496 1 0
-12.489971 18.34656 -0.25838548 19 3201219136800 1 0
-27.043268 32.39601 0 44 3201219134496 1 0
-10.466632 12.541842 -2.5414221 3 3201219136800 1 0
-26.246223 28.504255 0.22520003 5 3201219139104 1 0
-24.780508 32.84855 -0.23914863 6 3201219141408 1 0
-11.90276 15.773527 -2.515263 3 3201219139104 1 0
-15.029272 18.019234 -2.5274904 7 3201219141408 1 0
-10.498386 15.434864 -1.7425154 55 3201219143712 1 0
-27.023167 32.408325 0.9818906 53 3201219143712 1 0
0 0 0 86 3201219146016 1 0
-16.073391 19.281902 -1.7553519 2 3201219146016 1 0
-11.89746 15.784641 -1.6136203 35 3201219148320 1 0
-27.24294 29.619556 1.1711849 15 3201219148320 1 0
-24.807133 32.921673 0.71952784 7 3201219150624 1 0
-16.72474 18.188814 -1.5835887 2 3201219150624 1 0
-10.71511 15.772232 -1.1104553 14 3201219152928 1 0
0 0 0 3 3201219152928 1 0
-30.729525 40.804764 2.081119 25 3201219155232 1 0
-16.23025 19.491964 -1.1815183 3 3201219155232 1 0
-15.948252 21.18327 -1.3896244 4 3201219157536 1 0
-16.279005 19.556013 3.1242425 7 3201219157536 1 0
-21.461964 28.515057 2.913499 7 3201219159840 1 0
-18.292349 19.915731 -1.1017019 3 3201219159840 1 0
-12.466547 18.372118 -0.7753272 9 3201219162144 1 0
0 0 0 9 3201219162144 1 0
0 0 0 29 3201219164448 1 0
-26.97006 32.426533 -0.98142534 55 3201219164448 1 0
-2.4845922 3.311573 -1.9305202 4 3201219185184 1 0
-26.944376 29.425241 -0.69642085 19 3201219185184 1 0
-18.832802 25.108788 -0.9134428 5 3201219187488 1 0
-4.7114725 5.6807094 -2.0660255 3 3201219187488 1 0
-6.9296837 9.241784 -2.3102617 3 3201219189792 1 0
-27.032236 32.602917 0 45 3201219189792 1 0
-12.426422 18.384834 -0.25833893 10 3201219192096 1 0
-10.419665 12.570623 -2.5401924 3 3201219192096 1 0
-11.883241 15.857711 -2.522334 3 3201219194400 1 0
-24.56952 32.796986 -0.23817222 6 3201219196704 1 0
0 0 0 5 3201219194400 1 0
-14.9484825 18.045015 -2.5240633 7 3201219196704 1 0
-10.401893 15.4040365 -1.7350799 50 3201219199008 1 0
-26.99575 32.597492 0.9848683 26 3201219199008 1 0
-12.379918 18.33902 0.2575939 12 3201219201312 1 0
-16.041458 19.375868 -1.7589792 2 3201219201312 1 0
-11.784408 15.744904 -1.6054838 35 3201219203616 1 0
-26.921705 29.469255 1.1616431 15 3201219203616 1 0
-24.602219 32.88048 0.7168052 7 3201219205920 1 0
-16.574303 18.147997 -1.5751463 2 3201219205920 1 0
-10.596848 15.712444 -1.1037111 2 3201219208224 1 0
0 0 0 3 3201219208224 1 0
-31.06228 41.539436 2.1131964 28 3201219210528 1 0
-16.186876 19.574686 -1.1831934 3 3201219210528 1 0
-15.902373 21.272617 -1.3919271 4 3201219212832 1 0
-16.295832 19.712282 3.1403291 7 3201219212832 1 0
-21.412315 28.65196 2.9200082 7 3201219215136 1 0
-18.275494 20.034105 -1.1047956 3 3201219215136 1 0
-12.394747 18.401358 -0.7747688 3 3201219217440 1 0
0 0 0 9 3201219217440 1 0
0 0 0 29 3201219219744 1 0
-26.96579 32.648216 -0.98533356 48 3201219219744 1 0
-2.4730177 3.3202257 -1.9305202 4 3201219240480 1 0
-18.70904 25.126406 -0.9116973 5 3201219242784 1 0
-26.881857 29.563501 -0.697468 26 3201219240480 1 0
-6.899589 9.269163 -2.3110461 3 3201219245088 1 0
-27.022024 32.824085 0 45 3201219245088 1 0
-12.343944 18.401796 -0.2579664 1 3201219247392 1 0
-10.398051 12.634611 -2.5457265 5 3201219247392 1 0
-12.689417 17.05831 -2.7061806 12 3201219249696 1 0
-4.6964703 5.703102 -2.0681822 4 3201219242784 1 0
-26.862053 29.578001 0.23222083 12 3201219249696 1 0
-24.3797 32.78394 -0.23745154 5 3201219252000 1 0
-14.864534 18.073055 -2.520636 7 3201219252000 1 0
-10.309694 15.3844595 -1.7287596 53 3201219254304 1 0
-26.987041 32.82243 0.9887765 33 3201219254304 1 0
-12.305987 18.369457 0.25740764 4 3201219256608 1 0
-15.990473 19.454136 -1.7609324 2 3201219256608 1 0
-11.692795 15.738622 -1.6006019 15 3201219258912 1 0
-26.910975 29.668262 1.1657159 15 3201219258912 1 0
-24.392138 32.842545 0.71408266 7 3201219261216 1 0
-16.496254 18.192036 -1.5738671 2 3201219261216 1 0
-10.525244 15.726874 -1.1020833 2 3201219263520 1 0
0 0 0 3 3201219263520 1 0
-31.287735 42.153942 2.1387606 30 3201219265824 1 0
-16.119413 19.635447 -1.1833795 3 3201219265824 1 0
-15.857102 21.371082 -1.3946486 4 3201219268128 1 0
-16.235271 19.782736 3.1422791 10 3201219268128 1 0
-21.31183 28.731747 2.9203336 7 3201219270432 1 0
-18.206232 20.10246 -1.1049584 3 3201219270432 1 0
0 0 0 15 3201219272736 1 0
0 0 0 9 3201219272736 1 0
0 0 0 29 3201219275040 1 0
-26.94951 32.868767 -0.9890557 55 3201219275040 1 0
-26.824236 29.718237 -0.69879436 27 3201219295776 1 0
-2.458677 3.3263524 -1.9288298 3 3201219295776 1 0
-18.53384 25.082125 -0.90762466 5 3201219298080 1 0
-4.6682644 5.711296 -2.0649474 4 3201219298080 1 0
-6.8703656 9.300599 -2.3126152 3 3201219300384 1 0
-27.008318 33.052605 0 53 3201219300384 1 0
-25.085484 37.69243 -0.52710825 10 3201219302688 1 0
-10.35445 12.675472 -2.5463414 7 3201219302688 1 0
-12.599027 17.066029 -2.7001197 10 3201219304992 1 0
-24.217817 32.814262 -0.23703308 5 3201219307296 1 0
-27.220366 30.1924 0.23626591 19 3201219304992 1 0
-14.7762165 18.09915 -2.5167806 6 3201219307296 1 0
-10.214219 15.361999 -1.7220677 48 3201219309600 1 0
-26.974194 33.050068 0.9926847 40 3201219309600 1 0
-12.259441 18.443794 0.25782672 4 3201219311904 1 0
0 0 0 19 3201219314208 1 0
-16.013391 19.626198 -1.7712563 2 3201219311904 1 0
-27.237226 30.246466 1.1845665 31 3201219314208 1 0
-24.204937 32.836777 0.7120582 7 3201219316512 1 0
-16.42799 18.248335 -1.5736113 2 3201219316512 1 0
0 0 0 12 3201219318816 1 0
0 0 0 3 3201219318816 1 0
-31.484867 42.73886 2.1626964 32 3201219321120 1 0
-16.096872 19.75196 -1.1869159 3 3201219321120 1 0
-15.839756 21.508091 -1.3998822 4 3201219323424 1 0
-16.134296 19.803762 3.1364293 7 3201219323424 1 0
-20.717463 28.13988 2.8526385 7 3201219325728 1 0
-18.270626 20.318907 -1.1132627 3 3201219325728 1 0
-12.594179 18.9893 -0.79570854 46 3201219328032 1 0
0 0 0 9 3201219328032 1 0
0 0 0 29 3201219330336 1 0
-26.930908 33.08535 -0.9926847 63 3201219330336 1 0
-2.4470508 3.3349144 -1.9288298 3 3201219351072 1 0
-27.192814 30.338829 -0.71115065 61 3201219351072 1 0
-18.42489 25.117653 -0.9065774 5 3201219353376 1 0
-4.645872 5.7245655 -2.063869 4 3201219353376 1 0
-6.8378587 9.324525 -2.3126152 2 3201219355680 1 0
-25.980474 32.02222 0 12 3201219355680 1 0
-24.993439 37.839836 -0.5279464 5 3201219357984 1 0
-12.527651 17.0939 -2.6975944 14 3201219360288 1 0
-27.197515 30.379618 0.23698659 38 3201219360288 1 0
-24.001474 32.759853 -0.23603344 5 3201219362592 1 0
-14.692914 18.125902 -2.5133536 6 3201219362592 1 0
-10.322591 12.726887 -2.549416 8 3201219357984 1 0
-10.110082 15.321103 -1.7135168 49 3201219364896 1 0
-25.967403 32.044193 0.9597441 12 3201219364896 1 0
-21.573034 32.702732 0.45609763 5 3201219367200 1 0
0 0 0 23 3201219369504 1 0
-15.967392 19.709879 -1.7737676 2 3201219367200 1 0
-27.21943 30.439713 1.1884065 36 3201219369504 1 0
-24.019316 32.82424 0.7099639 7 3201219371808 1 0
-16.364191 18.305567 -1.5736113 2 3201219371808 1 0
0 0 0 12 3201219374112 1 0
-26.062614 32.199966 2.4125369 10 3201219374112 1 0
-31.668142 43.30338 2.1856554 35 3201219376416 1 0
-16.090662 19.885683 -1.191569 3 3201219376416 1 0
-15.889529 21.734158 -1.4109774 4 3201219378720 1 0
-16.087542 19.887741 3.1408167 10 3201219378720 1 0
-20.604996 28.192713 2.8506856 7 3201219381024 1 0
-18.18894 20.370634 -1.1126114 3 3201219381024 1 0
-12.569576 19.09659 -0.7983609 56 3201219383328 1 0
0 0 0 9 3201219383328 1 0
0 0 0 29 3201219385632 1 0
-25.82489 31.953753 -0.956022 13 3201219385632 1 0
-2.4417982 3.3522267 -1.9339012 4 3201219406368 1 0
-27.182468 30.541115 -0.7136638 41 3201219406368 1 0
-4.6234446 5.7377486 -2.0627906 4 3201219408672 1 0
-18.280613 25.104242 -0.9037847 5 3201219408672 1 0
-6.80296 9.345165 -2.3118305 2 3201219410976 1 0
-26.980165 33.49267 0 67 3201219410976 1 0
-24.865585 37.93354 -0.5280395 11 3201219413280 1 0
-10.290498 12.778234 -2.5524905 9 3201219413280 1 0
-12.467906 17.137526 -2.6975944 17 3201219415584 1 0
-27.192293 30.587967 0.23787001 26 3201219415584 1 0
-23.81169 32.73992 -0.23528951 5 3201219417888 1 0
-14.609605 18.152294 -2.5099263 6 3201219417888 1 0
-10.021628 15.302992 -1.7075684 50 3201219420192 1 0
-26.940845 33.48371 1.0000359 27 3201219420192 1 0
-21.421505 32.720947 0.45530605 5 3201219422496 1 0
-15.938509 19.815243 -1.778232 2 3201219422496 1 0
-11.377854 15.658357 -1.580098 31 3201219424800 1 0
-27.147524 30.573408 1.1899192 10 3201219424800 1 0
-23.824673 32.797867 0.70759034 7 3201219427104 1 0
-16.379694 18.452137 -1.5812862 2 3201219427104 1 0
0 0 0 12 3201219429408 1 0
-37.699375 46.910915 3.5048528 28 3201219429408 1 0
-31.883076 43.918205 2.2110567 37 3201219431712 1 0
-16.02115 19.94173 -1.191569 3 3201219431712 1 0
-15.818258 21.795956 -1.411396 4 3201219434016 1 0
-15.963327 19.875677 3.1300921 7 3201219434016 1 0
-20.6282 28.432264 2.8676095 7 3201219436320 1 0
-17.47871 19.713295 -1.0733696 3 3201219436320 1 0
-12.555309 19.220673 -0.80171126 59 3201219438624 1 0
0 0 0 9 3201219438624 1 0
0 0 0 29 3201219440928 1 0
-25.798286 32.149746 -0.9591858 78 3201219440928 1 0
-27.171041 30.743696 -0.7161769 41 3201219461664 1 0
-18.176476 25.145218 -0.9029702 5 3201219463968 1 0
-4.6057944 5.7568603 -2.063869 4 3201219463968 1 0
-6.7702975 9.368855 -2.3118305 3 3201219466272 1 0
-2.4279578 3.3577921 -1.9322107 3 3201219461664 1 0
-26.948036 33.69285 0 47 3201219466272 1 0
-24.698124 37.96646 -0.5272945 10 3201219468576 1 0
-10.238426 12.804815 -2.5506458 9 3201219468576 1 0
-12.412655 17.187376 -2.6986046 10 3201219470880 1 0
-27.180653 30.790653 0.23870692 26 3201219470880 1 0
-23.64575 32.75149 -0.23477806 5 3201219473184 1 0
-14.528773 18.181433 -2.5069277 6 3201219473184 1 0
-9.931254 15.281111 -1.7012482 56 3201219475488 1 0
-26.916151 33.69315 1.0034788 33 3201219475488 1 0
-21.29626 32.77875 0.45507324 5 3201219477792 1 0
-15.993748 20.026657 -1.7921833 2 3201219477792 1 0
-11.2694845 15.62361 -1.5726125 35 3201219480096 1 0
-27.191362 30.838928 1.1965518 37 3201219480096 1 0
-23.679632 32.83866 0.70668286 7 3201219482400 1 0
-16.331022 18.527166 -1.5828211 2 3201219482400 1 0
-10.139964 15.622132 -1.0846416 2 3201219484704 1 0
-37.35358 46.814365 3.4878762 28 3201219484704 1 0
-16.058582 20.13185 -1.1995723 3 3201219487008 1 0
-31.96558 44.356716 2.2275023 38 3201219487008 1 0
-15.788779 21.91586 -1.4155829 4 3201219489312 1 0
-20.566107 28.555859 2.8728168 7 3201219491616 1 0
-17.327919 19.681194 -1.0683218 3 3201219491616 1 0
-15.388892 19.298046 3.0306468 6 3201219489312 1 0
-12.533804 19.334824 -0.8046428 56 3201219493920 1 0
0 0 0 9 3201219493920 1 0
-14.776804 20.530054 4.6119323 10 3201219496224 1 0
-25.748201 32.317795 -0.9615121 13 3201219496224 1 0
-2.414108 3.3633015 -1.9305202 3 3201219516960 1 0
-27.137424 30.922522 -0.7181316 6 3201219516960 1 0
-18.081598 25.198767 -0.9026211 5 3201219519264 1 0
-4.588067 5.7759185 -2.0649474 4 3201219519264 1 0
-6.7787056 9.4498 -2.325951 3 3201219521568 1 0
-26.9422 33.92767 0 48 3201219521568 1 0
-24.49169 37.93819 -0.5257113 10 3201219523872 1 0
-10.191209 12.83738 -2.550031 10 3201219523872 1 0
-12.329465 17.19835 -2.6935537 12 3201219526176 1 0
-27.175837 31.002653 0.23961358 6 3201219526176 1 0
-23.45206 32.72329 -0.23398764 5 3201219528480 1 0
-12.680551 15.98263 -2.1976314 21 3201219528480 1 0
-9.845474 15.26548 -1.6956716 56 3201219530784 1 0
-26.90026 33.915356 1.0072939 34 3201219530784 1 0
-21.079845 32.694897 0.4528847 5 3201219533088 1 0
-15.9857235 20.160528 -1.7991589 2 3201219533088 1 0
-11.173102 15.604506 -1.5667543 35 3201219535392 1 0
-27.16783 31.02992 1.2002754 21 3201219535392 1 0
-23.453123 32.76502 0.703332 7 3201219537696 1 0
-10.052935 15.607077 -1.0811533 1 3201219540000 1 0
-16.2978 18.620104 -1.5858911 2 3201219537696 1 0
-36.39149 45.936592 3.4129932 26 3201219540000 1 0
-16.084959 20.309942 -1.2068312 3 3201219542304 1 0
-32.052387 44.806087 2.2444365 20 3201219542304 1 0
-17.784834 24.869093 -1.6023177 5 3201219544608 1 0
-15.277075 19.295618 3.0218723 6 3201219544608 1 0
-20.554409 28.750715 2.8851843 7 3201219546912 1 0
-17.138107 19.60315 -1.0608318 3 3201219546912 1 0
0 0 0 10 3201219549216 1 0
0 0 0 9 3201219549216 1 0
-14.6959 20.5687 4.609062 10 3201219551520 1 0
-26.888094 33.99131 -1.0085037 72 3201219551520 1 0
-2.4002497 3.3687556 -1.9288298 3 3201219572256 1 0
0 0 0 50 3201219572256 1 0
-18.058662 25.352785 -0.90587926 5 3201219574560 1 0
-4.570305 5.79489 -2.0660255 4 3201219574560 1 0
-6.704863 9.415794 -2.3118305 3 3201219576864 1 0
-26.930593 34.156185 0 48 3201219576864 1 0
-24.329733 37.975773 -0.5250594 5 3201219579168 1 0
-10.1392765 12.863343 -2.5481863 11 3201219579168 1 0
-12.2422495 17.202133 -2.6874928 17 3201219581472 1 0
-27.091991 31.123692 0.2398228 19 3201219581472 1 0
-23.292507 32.738922 -0.2335227 5 3201219583776 1 0
-12.585889 15.976353 -2.1907773 3 3201219583776 1 0
-9.762736 15.252365 -1.6904668 53 3201219586080 1 0
-26.894533 34.149254 1.0114813 20 3201219586080 1 0
-20.945702 32.73352 0.45241904 5 3201219588384 1 0
-15.943435 20.249884 -1.8022282 8 3201219588384 1 0
-11.077897 15.584275 -1.560896 35 3201219590688 1 0
-27.160852 31.237646 1.2046973 33 3201219590688 1 0
-23.28284 32.763653 0.7015867 7 3201219592992 1 0
-16.233927 18.67582 -1.5858911 2 3201219592992 1 0
-9.993079 15.631252 -1.0804555 1 3201219595296 1 0
-36.12317 45.919476 3.402528 26 3201219595296 1 0
-16.153917 20.540565 -1.2172542 3 3201219597600 1 0
-32.346027 45.544037 2.2758627 21 3201219597600 1 0
-17.878155 25.18027 -1.618437 5 3201219599904 1 0
-20.525877 28.917885 2.894948 7 3201219602208 1 0
-17.021648 19.6039 -1.057738 3 3201219602208 1 0
-15.154879 19.275715 3.0106602 6 3201219599904 1 0
-17.697166 27.715786 -1.1483331 5 3201219604512 1 0
0 0 0 9 3201219604512 1 0
-14.610324 20.595812 4.60404 17 3201219606816 1 0
-26.854517 34.185814 -1.0115744 50 3201219606816 1 0
-2.3932528 3.3826153 -1.9322107 4 3201219627552 1 0
-27.138334 31.351456 -0.7237862 49 3201219627552 1 0
-17.990652 25.435379 -0.90669376 5 3201219629856 1 0
-4.5463123 5.803949 -2.063869 4 3201219629856 1 0
-6.6781316 9.444383 -2.3133996 2 3201219632160 1 0
-26.918293 34.374424 0 49 3201219632160 1 0
-11.150945 17.533007 -0.24190171 4 3201219634464 1 0
-10.11362 12.91868 -2.5524905 9 3201219634464 1 0
-12.148498 17.190786 -2.6794116 14 3201219636768 1 0
-23.089186 32.682037 -0.23256955 5 3201219639072 1 0
0 0 0 10 3201219636768 1 0
-12.427461 15.883317 -2.1723566 4 3201219639072 1 0
-9.673656 15.22415 -1.6837747 59 3201219641376 1 0
-26.887083 34.37369 1.0154825 27 3201219641376 1 0
-20.753399 32.67113 0.45060304 5 3201219643680 1 0
-15.910607 20.34665 -1.8061346 3 3201219643680 1 0
-10.97328 15.546013 -1.5534105 35 3201219645984 1 0
-27.156427 31.442528 1.209119 33 3201219645984 1 0
-23.114113 32.755722 0.6997717 7 3201219648288 1 0
-16.26843 18.841341 -1.5953568 2 3201219648288 1 0
-9.915512 15.623845 -1.0776649 1 3201219650592 1 0
-35.99528 46.070477 3.4048536 26 3201219650592 1 0
-32.74073 46.42513 2.3144531 23 3201219652896 1 0
-15.992249 20.474361 -1.2101815 3 3201219652896 1 0
-17.810669 25.26227 -1.6199025 5 3201219655200 1 0
-15.042005 19.26328 3.0009108 6 3201219655200 1 0
-20.537817 29.138948 2.9102445 7 3201219657504 1 0
-16.886066 19.578524 -1.0533416 3 3201219657504 1 0
-17.684347 27.899248 -1.1534982 5 3201219659808 1 0
0 0 0 9 3201219659808 1 0
-14.426371 20.480076 4.5674486 10 3201219662112 1 0
-26.849237 34.413406 -1.0156687 51 3201219662112 1 0
-2.3778546 3.3846004 -1.9288298 3 3201219683296 1 0
-27.117659 31.538319 -0.7260201 14 3201219683296 1 0
-17.949312 25.557457 -0.9089047 5 3201219685600 1 0
-4.5340095 5.8282127 -2.0671039 2 3201219685600 1 0
-6.6418557 9.460345 -2.3118305 2 3201219687904 1 0
-26.895964 34.584656 0 14 3201219687904 1 0
-10.072302 12.955927 -2.5531056 8 3201219690208 1 0
0 0 0 29 3201219690208 1 0
-12.00104 17.10535 -2.659714 36 3201219692512 1 0
-27.135015 31.59939 0.24207783 27 3201219692512 1 0
-22.942656 32.71181 -0.23222083 5 3201219694816 1 0
-12.3656645 15.9163685 -2.1710713 15 3201219694816 1 0
-9.593505 15.21361 -1.6789416 64 3201219697120 1 0
-26.851835 34.573547 1.0186464 14 3201219697120 1 0
-20.563158 32.621113 0.44892672 5 3201219699424 1 0
-10.884632 15.535246 -1.5485287 36 3201219701728 1 0
-15.90111 20.480513 -1.8131102 3 3201219699424 1 0
-27.140211 31.646393 1.213308 33 3201219701728 1 0
-22.91173 32.712227 0.69711894 7 3201219704032 1 0
-16.212543 18.910488 -1.5963802 2 3201219704032 1 0
-9.77512 15.523627 -1.0683626 1 3201219706336 1 0
-20.009857 25.798101 1.9013785 18 3201219706336 1 0
-12.600234 18.002243 0.8952345 2 3201219708640 1 0
-15.951168 20.572153 -1.2126011 3 3201219708640 1 0
-17.827799 25.47966 -1.6297417 5 3201219710944 1 0
-14.929206 19.260494 2.992136 6 3201219710944 1 0
-13.35375 19.09181 1.9019759 3 3201219713248 1 0
-16.760893 19.575428 -1.0499222 3 3201219713248 1 0
-20.566568 32.70767 -1.3492146 7 3201219715552 1 0
0 0 0 9 3201219715552 1 0
-14.396748 20.597008 4.581798 10 3201219717856 1 0
-19.870764 25.661133 -0.7552146 9 3201219717856 1 0
-2.3627684 3.3907313 -1.9271393 3 3201219738592 1 0
-26.910698 31.541807 -0.7237164 7 3201219738592 1 0
-13.276285 19.057676 -0.67594767 6 3201219740896 1 0
-4.5117674 5.845448 -2.0671039 4 3201219740896 1 0
-6.6105165 9.491832 -2.3133996 3 3201219743200 1 0
-19.822659 25.689198 0 4 3201219743200 1 0
-11.061661 17.669744 -0.2426933 19 3201219745504 1 0
-10.023615 12.993631 -2.5531056 7 3201219745504 1 0
-12.086881 17.36486 -2.6930487 8 3201219747808 1 0
-27.110577 31.8098 0.24291475 27 3201219747808 1 0
0 0 0 14 3201219750112 1 0
-12.221788 15.851707 -2.1560779 54 3201219750112 1 0
-9.508112 15.201397 -1.6737368 60 3201219752416 1 0
-19.816051 25.708454 0.7553076 4 3201219752416 1 0
-20.412601 32.6448 0.44822827 5 3201219754720 1 0
-15.92396 20.664623 -1.8242713 3 3201219754720 1 0
-10.785284 15.512213 -1.5423449 35 3201219757024 1 0
-27.124378 31.859768 1.2177298 28 3201219757024 1 0
0 0 0 6 3201219759328 1 0
-9.686114 15.504034 -1.0646417 1 3201219761632 1 0
-19.835348 25.761374 1.8934716 6 3201219761632 1 0
-16.165478 18.992693 -1.5984268 2 3201219759328 1 0
0 0 0 94 3201219763936 1 0
-15.985899 20.767485 -1.2207905 3 3201219763936 1 0
-13.247667 19.0751 -1.2171249 6 3201219766240 1 0
-14.811036 19.246416 2.981899 6 3201219766240 1 0
-13.280762 19.128096 1.9009995 9 3201219768544 1 0
0 0 0 19 3201219768544 1 0
0 0 0 9 3201219770848 1 0
-19.882774 31.862385 -1.3115231 6 3201219770848 1 0
-14.328808 20.649118 4.5825157 28 3201219773152 1 0
-19.763813 25.70325 -0.75447017 4 3201219773152 1 0
-2.354168 3.4011183 -1.9288298 4 3201219793888 1 0
-27.132168 32.004475 -0.73237276 21 3201219793888 1 0
0 0 0 28 3201219796192 1 0
-6.578018 9.509614 -2.3126152 2 3201219798496 1 0
-25.240494 32.92676 0 6 3201219798496 1 0
-4.4885654 5.8535776 -2.0649474 4 3201219796192 1 0
-11.015493 17.722113 -0.24292612 35 3201219800800 1 0
-9.981893 13.025711 -2.5531056 8 3201219800800 1 0
-12.02398 17.394005 -2.6915336 8 3201219803104 1 0
-27.10336 32.010117 0.2437749 21 3201219803104 1 0
-13.239191 19.158195 -0.13534784 10 3201219805408 1 0
-12.138761 15.8503065 -2.1505086 7 3201219805408 1 0
-9.439406 15.20198 -1.6703908 57 3201219807712 1 0
-25.228136 32.95231 0.9656995 6 3201219807712 1 0
-20.233229 32.596325 0.44664508 5 3201219810016 1 0
-15.957655 20.850056 -1.8359904 3 3201219810016 1 0
-10.688485 15.482276 -1.5358357 35 3201219812320 1 0
-27.116686 32.065556 1.2221515 28 3201219812320 1 0
0 0 0 21 3201219814624 1 0
-16.220541 19.186775 -1.610195 2 3201219814624 1 0
-9.63397 15.5364895 -1.0646417 1 3201219816928 1 0
-110.53393 144.55931 10.597814 28 3201219816928 1 0
-12.5415 18.184183 0.8999566 8 3201219819232 1 0
-16.005363 20.938879 -1.2276772 3 3201219819232 1 0
0 0 0 68 3201219821536 1 0
-14.697236 19.23362 2.9721496 6 3201219821536 1 0
-13.228742 19.193169 1.9029523 3 3201219823840 1 0
-16.55349 19.604887 -1.045363 28 3201219823840 1 0
-19.72863 31.85936 -1.3085915 6 3201219826144 1 0
0 0 0 67 3201219826144 1 0
0 0 0 4 3201219828448 1 0
-14.174501 20.57879 4.555969 10 3201219828448 1 0
-27.071333 32.17103 -0.7339086 14 3201219849184 1 0
-12.598324 18.350107 -0.647788 9 3201219851488 1 0
-2.339634 3.4067354 -1.9271393 3 3201219849184 1 0
-4.469456 5.8730226 -2.0660255 3 3201219851488 1 0
-6.5499167 9.543266 -2.3149686 3 3201219853792 1 0
-25.091059 32.980484 0 6 3201219853792 1 0
0 0 0 28 3201219856096 1 0
-9.931976 13.058846 -2.5524905 7 3201219856096 1 0
-11.935966 17.401617 -2.6859777 6 3201219858400 1 0
-12.558832 18.315413 -0.12907098 9 3201219860704 1 0
-27.08716 32.227875 0.24468157 28 3201219858400 1 0
-12.020997 15.815097 -2.139799 4 3201219860704 1 0
-9.357138 15.191981 -1.6655577 62 3201219863008 1 0
-25.036049 32.94794 0.9629079 6 3201219863008 1 0
-19.486158 31.647474 0.43267578 9 3201219865312 1 0
-15.790472 20.786852 -1.8253874 3 3201219865312 1 0
-10.601027 15.474683 -1.5312793 37 3201219867616 1 0
-27.072832 32.2489 1.2254096 5 3201219867616 1 0
-12.528397 18.293837 0.38702455 4 3201219869920 1 0
-9.523697 15.482566 -1.0585953 1 3201219872224 1 0
-110.25289 145.27037 10.620836 28 3201219872224 1 0
-16.264278 19.379578 -1.6214515 2 3201219869920 1 0
-12.363359 18.064121 0.8918151 8 3201219874528 1 0
-16.050947 21.155285 -1.2369834 3 3201219874528 1 0
-12.575083 18.379206 -1.1670918 25 3201219876832 1 0
-14.573142 19.21333 2.9609375 6 3201219876832 1 0
-20.175707 29.497158 2.9174047 7 3201219879136 1 0
-16.467978 19.645493 -1.044386 6 3201219879136 1 0
-19.416191 31.605871 -1.2953297 19 3201219881440 1 0
-13.759057 18.150997 6.102953 5 3201219881440 1 0
-13.110814 19.180159 4.2359753 21 3201219883744 1 0
-24.95184 32.926502 -0.961326 19 3201219883744 1 0
-2.327728 3.4148817 -1.9271393 3 3201219904480 1 0
-27.05888 32.38502 -0.73663116 14 3201219904480 1 0
-12.487044 18.324495 -0.64534444 37 3201219906784 1 0
-4.4443274 5.882409 -2.063869 4 3201219906784 1 0
-24.889473 32.9526 0 6 3201219909088 1 0
-6.516704 9.565976 -2.3149686 3 3201219909088 1 0
-11.152166 18.229912 -0.24879323 24 3201219911392 1 0
-9.886618 13.09322 -2.5524905 8 3201219911392 1 0
-11.81313 17.35099 -2.6718357 4 3201219913696 1 0
-27.083084 32.450424 0.24565797 28 3201219913696 1 0
-12.470734 18.322311 -0.12881525 24 3201219916000 1 0
-11.911196 15.783513 -2.129946 2 3201219916000 1 0
-9.275638 15.17657 -1.6603528 68 3201219918304 1 0
-24.883793 32.982967 0.96141905 6 3201219918304 1 0
0 0 0 15 3201219920608 1 0
-15.87746 21.051302 -1.8438032 3 3201219920608 1 0
-10.509737 15.454936 -1.5257466 40 3201219922912 1 0
0 0 0 16 3201219922912 1 0
-12.440929 18.30026 0.38625666 23 3201219925216 1 0
-16.213139 19.453571 -1.6229866 2 3201219925216 1 0
0 0 0 17 3201219927520 1 0
0 0 0 3 3201219927520 1 0
-12.353336 18.182219 0.89556015 23 3201219929824 1 0
-12.494504 18.395462 -1.1654171 15 3201219932128 1 0
-14.467063 19.208902 2.9526505 6 3201219932128 1 0
-19.625263 28.90256 2.8519876 7 3201219934432 1 0
-16.375593 19.67059 -1.0427577 3 3201219934432 1 0
-15.872912 21.069485 -1.2287939 3 3201219929824 1 0
0 0 0 96 3201219936736 1 0
-13.68585 18.182085 6.097777 7 3201219936736 1 0
-19.108149 25.393084 -0.7394887 8 3201219939040 1 0
-12.990639 19.14298 4.218038 11 3201219939040 1 0
-2.3143592 3.4195795 -1.9254488 3 3201219959776 1 0
-27.073936 32.6223 -0.739982 21 3201219959776 1 0
0 0 0 18 3201219962080 1 0
-4.4247103 5.897179 -2.063869 4 3201219962080 1 0
-6.493457 9.6007185 -2.3181064 2 3201219964384 1 0
-24.663893 32.88208 0 6 3201219964384 1 0
-10.659094 17.556143 -0.23910785 18 3201219966688 1 0
-9.847314 13.132687 -2.5537205 8 3201219966688 1 0
-11.736739 17.364452 -2.667795 6 3201219968992 1 0
-27.065327 32.65249 0.24649489 29 3201219968992 1 0
-12.390655 18.337954 -0.12862927 22 3201219971296 1 0
-11.786093 15.728311 -2.1170945 19 3201219971296 1 0
-9.203279 15.173997 -1.656635 65 3201219973600 1 0
-24.641928 32.894638 0.9563942 6 3201219973600 1 0
-10.928315 18.024376 0.24539404 10 3201219975904 1 0
-15.877171 21.201263 -1.8521739 3 3201219975904 1 0
-10.418708 15.434745 -1.5202138 42 3201219978208 1 0
-27.070082 32.69886 1.2354168 17 3201219978208 1 0
-12.382249 18.349665 0.3863963 16 3201219980512 1 0
-16.15871 19.52472 -1.6242657 2 3201219980512 1 0
-9.387997 15.499899 -1.0553395 58 3201219982816 1 0
0 0 0 3 3201219982816 1 0
-12.3057 18.248245 0.89669997 25 3201219985120 1 0
-15.902482 21.262121 -1.2367972 3 3201219985120 1 0
-12.448078 18.465462 -1.1670918 6 3201219987424 1 0
-14.35713 19.202051 2.9438758 6 3201219987424 1 0
-12.322986 18.285923 1.8001076 9 3201219989728 1 0
-16.250525 19.660095 -1.0391755 3 3201219989728 1 0
-11.000373 18.187048 -0.7422425 57 3201219992032 1 0
-12.705942 17.004484 5.6878076 20 3201219992032 1 0
0 0 0 9 3201219994336 1 0
-18.934525 25.348328 -0.73623186 8 3201219994336 1 0
-2.3018103 3.428039 -1.9254488 3 3201220015072 1 0
-27.043188 32.829353 -0.7424254 50 3201220015072 1 0
-12.387647 18.45447 -0.64685714 3 3201220017376 1 0
-4.40541 5.9164143 -2.0649474 4 3201220017376 1 0
-6.4496226 9.611332 -2.3149686 2 3201220019680 1 0
-24.500696 32.914143 0 6 3201220019680 1 0
-10.9210615 18.136242 -0.24646501 21 3201220021984 1 0
-9.799401 13.168477 -2.5537205 8 3201220021984 1 0
-11.702253 17.449856 -2.674361 6 3201220024288 1 0
-27.03791 32.861885 0.2473318 29 3201220024288 1 0
-12.337393 18.40273 -0.12876876 11 3201220026592 1 0
-11.698087 15.72949 -2.1115253 64 3201220026592 1 0
-9.133894 15.183339 -1.6540326 67 3201220028896 1 0
-24.53218 32.996502 0.9567664 6 3201220028896 1 0
-10.910509 18.142591 0.24646501 13 3201220031200 1 0
-10.327469 15.419226 -1.5150065 42 3201220033504 1 0
-27.053503 32.91985 1.2400713 17 3201220033504 1 0
-12.300538 18.370857 0.38590762 4 3201220035808 1 0
-15.814721 21.277725 -1.8538481 3 3201220031200 1 0
-9.309632 15.4958725 -1.0527813 73 3201220038112 1 0
-16.184614 19.699966 -1.6339872 2 3201220035808 1 0
0 0 0 3 3201220038112 1 0
-12.257979 18.318819 0.8980026 25 3201220040416 1 0
-15.940471 21.472996 -1.2457312 3 3201220040416 1 0
0 0 0 21 3201220042720 1 0
-14.243381 19.19272 2.9346137 6 3201220042720 1 0
-12.217724 18.270155 1.7942494 9 3201220045024 1 0
-10.898475 18.164429 -0.7397297 51 3201220047328 1 0
-16.208109 19.751982 -1.0409666 3 3201220045024 1 0
-12.732731 17.167578 5.727148 11 3201220047328 1 0
-18.77281 25.319132 -0.7334403 8 3201220049632 1 0
-2.293851 3.4420867 -1.9288298 3 3201220070368 1 0
-12.828343 19.195347 4.2094283 11 3201220049632 1 0
-27.022114 33.038094 -0.74500835 50 3201220070368 1 0
-17.90543 26.875996 -0.93985695 5 3201220072672 1 0
-4.387107 5.9347897 -2.0660255 4 3201220072672 1 0
-6.4141397 9.630336 -2.314184 2 3201220074976 1 0
-24.30341 32.886166 0 5 3201220074976 1 0
-9.7563 13.205357 -2.5543354 7 3201220077280 1 0
-11.591718 17.41395 -2.6627443 2 3201220079584 1 0
-27.016062 33.066006 0.24816872 22 3201220079584 1 0
-12.298798 18.481422 -0.12902449 2 3201220081888 1 0
-11.587559 15.692598 -2.1012442 52 3201220081888 1 0
-10.632818 17.796087 -0.24134293 42 3201220077280 1 0
-9.069918 15.193819 -1.651802 70 3201220084192 1 0
-24.279613 32.889984 0.9512763 6 3201220084192 1 0
-10.859212 18.196634 0.24669783 37 3201220086496 1 0
-15.853888 21.482096 -1.8669623 9 3201220086496 1 0
-10.237856 15.397549 -1.5094737 45 3201220088800 1 0
-27.013056 33.097683 1.2433294 11 3201220088800 1 0
-12.256459 18.438725 0.3864661 2 3201220091104 1 0
-16.118336 19.75423 -1.6339872 2 3201220091104 1 0
-9.255698 15.523499 -1.0525489 93 3201220093408 1 0
0 0 0 3 3201220093408 1 0
-12.210167 18.379519 0.8989796 20 3201220095712 1 0
-15.880718 21.54205 -1.2466619 3 3201220095712 1 0
-12.514957 18.84366 -1.1855141 61 3201220098016 1 0
-14.158458 19.211084 2.9302266 6 3201220098016 1 0
-12.186005 18.35357 1.7984803 3 3201220100320 1 0
-16.127657 19.786798 -1.0399896 3 3201220100320 1 0
-10.836663 18.19672 -0.7395901 60 3201220102624 1 0
-12.669357 17.200005 5.724042 4 3201220102624 1 0
-12.848139 19.361822 4.2366924 9 3201220104928 1 0
-18.6614 25.34179 -0.73232365 8 3201220104928 1 0
-2.281025 3.4462528 -1.9271393 3 3201220125664 1 0
-17.84459 26.969183 -0.94113696 5 3201220127968 1 0
-25.982409 31.971346 -0.71910894 13 3201220125664 1 0
-4.3728704 5.954848 -2.0681822 4 3201220127968 1 0
-6.38776 9.65726 -2.315753 2 3201220130272 1 0
-10.608338 17.885138 -0.24208796 21 3201220132576 1 0
-9.711561 13.233391 -2.5537205 7 3201220132576 1 0
-10.251041 15.508208 -2.3662665 1 3201220134880 1 0
-25.953785 31.976015 0.23935786 13 3201220134880 1 0
-21.542238 32.60083 -0.22710633 5 3201220137184 1 0
-24.16303 32.915047 0 5 3201220130272 1 0
-11.487095 15.662837 -2.092248 52 3201220137184 1 0
-9.012027 15.209713 -1.6503149 75 3201220139488 1 0
-24.178946 32.97894 0.9515555 6 3201220139488 1 0
-10.729904 18.115303 0.24511465 21 3201220141792 1 0
0 0 0 35 3201220141792 1 0
-10.147205 15.371525 -1.5036155 52 3201220144096 1 0
-20.759615 25.60856 0.95940584 4 3201220144096 1 0
-21.563461 32.67633 0.6833664 6 3201220146400 1 0
-9.207558 15.561381 -1.0530139 75 3201220148704 1 0
-16.052307 19.807922 -1.6339872 2 3201220146400 1 0
0 0 0 3 3201220148704 1 0
-12.191952 18.487432 0.90223616 28 3201220151008 1 0
-15.829021 21.624645 -1.248337 3 3201220151008 1 0
-12.488129 18.942839 -1.189073 45 3201220153312 1 0
-15.141 20.691341 3.148129 3 3201220153312 1 0
-19.549162 29.663347 2.9001553 7 3201220155616 1 0
-16.198084 20.012787 -1.0489452 3 3201220155616 1 0
-10.8043785 18.285591 -0.7416841 51 3201220157920 1 0
-12.527888 17.1313 5.686772 4 3201220157920 1 0
-12.809036 19.448997 4.24602 24 3201220160224 1 0
-18.49786 25.303066 -0.729346 8 3201220160224 1 0
-2.2683785 3.45459 -1.9271393 3 3201220180960 1 0
-17.846945 27.187902 -0.94648963 5 3201220183264 1 0
-27.0251 33.50454 -0.751361 36 3201220180960 1 0
-4.3488336 5.9676585 -2.0671039 4 3201220183264 1 0
-23.944263 32.8669 0 5 3201220185568 1 0
-6.361211 9.69354 -2.3188908 1 3201220185568 1 0
-10.3873415 17.657984 -0.23850252 27 3201220187872 1 0
-9.665898 13.27167 -2.5543354 7 3201220187872 1 0
-10.110168 15.415679 -2.3465686 1 3201220190176 1 0
-27.002708 33.514664 0.25014478 22 3201220190176 1 0
-21.398664 32.63787 -0.22682737 5 3201220192480 1 0
-11.376922 15.630049 -2.082395 53 3201220192480 1 0
-8.953514 15.234993 -1.6495713 72 3201220194784 1 0
-23.95256 32.9165 0.94727504 6 3201220194784 1 0
-10.851684 18.470694 0.24939856 22 3201220197088 1 0
-10.064191 15.364084 -1.4993845 52 3201220199392 1 0
-11.551368 15.878929 -1.3730865 4 3201220197088 1 0
-20.555798 25.541903 0.9541695 8 3201220199392 1 0
-21.395254 32.672035 0.681691 6 3201220201696 1 0
-16.017233 19.908075 -1.6375688 2 3201220201696 1 0
-9.174964 15.631575 -1.055572 67 3201220204000 1 0
-36.09704 49.663563 3.5755498 28 3201220204000 1 0
-12.162093 18.58356 0.9048414 100 3201220206304 1 0
-15.856471 21.822224 -1.2565265 3 3201220206304 1 0
-15.045348 20.711946 3.143254 7 3201220208608 1 0
-12.548774 19.18019 -1.2012149 22 3201220208608 1 0
-19.511396 29.831217 2.909919 7 3201220210912 1 0
-16.145945 20.090778 -1.050085 3 3201220210912 1 0
-10.785493 18.398752 -0.74475527 46 3201220213216 1 0
-12.554602 19.206469 4.1835995 20 3201220215520 1 0
-18.382343 25.32784 -0.72822934 8 3201220215520 1 0
-12.536609 17.268362 5.71783 6 3201220213216 1 0
-2.2549305 3.4590564 -1.9254488 4 3201220236256 1 0
-26.998867 33.700096 -0.7537345 51 3201220236256 1 0
-17.854725 27.397804 -0.9517259 5 3201220238560 1 0
-4.326719 5.978958 -2.0660255 4 3201220238560 1 0
-23.747915 32.826557 0 5 3201220240864 1 0
-6.318185 9.698241 -2.3149686 2 3201220240864 1 0
-10.336409 17.706375 -0.23868877 27 3201220243168 1 0
-9.633126 13.319874 -2.5574098 7 3201220243168 1 0
0 0 0 30 3201220245472 1 0
-26.970415 33.704746 0.25088868 15 3201220245472 1 0
-21.197485 32.568623 -0.22585097 5 3201220247776 1 0
-11.287184 15.61653 -2.0755408 53 3201220247776 1 0
-8.908298 15.27531 -1.6506866 71 3201220250080 1 0
-23.73176 32.844444 0.9429016 6 3201220250080 1 0
-10.874038 18.652254 0.25135428 15 3201220252384 1 0
-11.4534445 15.856275 -1.367785 6 3201220252384 1 0
-9.984038 15.3545065 -1.4951535 34 3201220254688 1 0
-20.45202 25.589254 0.95335495 12 3201220254688 1 0
-21.21708 32.640247 0.6795269 6 3201220256992 1 0
-15.964771 19.980837 -1.6391038 2 3201220256992 1 0
-9.150074 15.710887 -1.0588279 43 3201220259296 1 0
-35.78832 49.591316 3.5615964 28 3201220259296 1 0
-12.127214 18.66833 0.9069582 112 3201220261600 1 0
-15.857078 21.979641 -1.2624824 3 3201220261600 1 0
0 0 0 15 3201220263904 1 0
0 0 0 8 3201220263904 1 0
-11.978732 18.451504 1.7958766 9 3201220266208 1 0
-16.169569 20.261312 -1.0561097 3 3201220266208 1 0
-12.404788 21.327827 -0.8615988 50 3201220268512 1 0
-14.248719 19.768454 6.5294867 6 3201220268512 1 0
-18.293144 25.387411 -0.7281363 13 3201220270816 1 0
-12.559421 19.3583 4.207276 20 3201220270816 1 0
-2.2448115 3.4699504 -1.9271393 4 3201220291552 1 0
-17.832804 27.574112 -0.9556822 5 3201220293856 1 0
-26.978165 33.916203 -0.7564571 51 3201220291552 1 0
-4.305822 5.9940248 -2.0660255 4 3201220293856 1 0
-6.288552 9.726825 -2.3165374 1 3201220296160 1 0
-23.567854 32.81828 0 5 3201220296160 1 0
-10.272534 17.738886 -0.2386422 24 3201220298464 1 0
-9.584268 13.350207 -2.556795 8 3201220298464 1 0
-9.888271 15.304457 -2.3192947 4 3201220300768 1 0
-26.952127 33.923958 0.2518186 15 3201220300768 1 0
-21.053288 32.59538 -0.2255255 5 3201220303072 1 0
-11.183917 15.587976 -2.0665445 53 3201220303072 1 0
-8.866888 15.326996 -1.6529173 62 3201220305376 1 0
-23.60065 32.90434 0.94225025 6 3201220305376 1 0
-10.586598 18.30577 0.24618563 13 3201220307680 1 0
0 0 0 1 3201220307680 1 0
-9.884987 15.318916 -1.4883189 32 3201220309984 1 0
-20.265642 25.538342 0.94881684 12 3201220309984 1 0
-21.059656 32.646896 0.6781307 6 3201220312288 1 0
-16.048742 20.230333 -1.6549653 2 3201220312288 1 0
0 0 0 36 3201220314592 1 0
-35.8708 50.073025 3.5871775 28 3201220314592 1 0
-12.077135 18.73406 0.90809804 114 3201220316896 1 0
-17.769365 24.812363 -1.4216189 4 3201220316896 1 0
-10.386543 16.11676 -1.0048504 7 3201220319200 1 0
-13.841392 19.33345 2.919502 18 3201220319200 1 0
-16.096264 20.314499 -1.0559468 3 3201220321504 1 0
-11.853794 18.399364 1.7867638 5 3201220321504 1 0
-12.380209 21.457563 -0.8650887 33 3201220323808 1 0
-12.421507 17.360844 5.719901 18 3201220323808 1 0
-12.521594 19.448343 4.217321 20 3201220326112 1 0
-18.190456 25.431597 -0.727578 13 3201220326112 1 0
-2.2340364 3.4812057 -1.9288298 4 3201220346296 1 0
-26.95528 34.143555 -0.7593193 51 3201220346296 1 0
-20.909624 32.59302 -1.1269673 8 3201220348600 1 0
-6.2549767 9.753109 -2.317322 1 3201220350904 1 0
-4.2860594 6.0129027 -2.0671039 4 3201220348600 1 0
-23.449732 32.907696 0 5 3201220350904 1 0
-10.227366 17.811104 -0.23910785 16 3201220353208 1 0
-9.537565 13.388465 -2.5574098 5 3201220353208 1 0
-26.93163 34.154434 0.252795 15 3201220355512 1 0
-9.821405 15.323893 -2.3167694 30 3201220355512 1 0
-11.085192 15.570546 -2.0588336 56 3201220357816 1 0
-20.864626 32.56455 -0.22478157 5 3201220357816 1 0
-8.828487 15.390484 -1.6562634 63 3201220360120 1 0
-23.384823 32.85704 0.9384351 6 3201220360120 1 0
-10.5453 18.389555 0.24679096 13 3201220362424 1 0
-11.737571 16.49705 -1.4157774 1 3201220362424 1 0
-9.807281 15.321466 -1.4850644 34 3201220364728 1 0
-20.142218 25.574755 0.94742054 8 3201220364728 1 0
-20.8795 32.62954 0.676176 6 3201220367032 1 0
-16.018934 20.345472 -1.6595702 2 3201220367032 1 0
-9.1128435 15.907629 -1.067665 1 3201220369336 1 0
0 0 0 3 3201220369336 1 0
0 0 0 29 3201220371640 1 0
-17.791716 25.036919 -1.430739 4 3201220371640 1 0
-10.288675 16.094141 -1.0010822 7 3201220373944 1 0
-13.726751 19.322557 2.91024 28 3201220373944 1 0
-11.7369 18.365423 1.7792783 14 3201220376248 1 0
-16.043934 20.401632 -1.0574123 3 3201220376248 1 0
-12.392793 21.662409 -0.8715102 23 3201220378552 1 0
-12.232537 17.22983 5.6619253 22 3201220378552 1 0
-12.405748 19.42446 4.202254 20 3201220380856 1 0
-18.094809 25.494837 -0.72748494 8 3201220380856 1 0
-2.2238185 3.4920406 -1.9305202 4 3201220401592 1 0
-26.942024 34.372787 -0.7623211 44 3201220401592 1 0
-20.785227 32.648796 -1.1263855 8 3201220403896 1 0
-4.269538 6.034085 -2.0692606 5 3201220403896 1 0
-6.227354 9.78472 -2.3196752 1 3201220406200 1 0
-23.228941 32.838795 0 5 3201220406200 1 0
-10.466428 18.374743 -0.24618563 21 3201220408504 1 0
-9.491065 13.421469 -2.5574098 4 3201220408504 1 0
0 0 0 30 3201220410808 1 0
-26.916805 34.379734 0.2537714 15 3201220410808 1 0
-20.706942 32.565544 -0.22429337 5 3201220413112 1 0
-10.990025 15.550285 -2.0511227 56 3201220413112 1 0
-8.795082 15.45544 -1.659981 61 3201220415416 1 0
-23.179123 32.806812 0.93471295 6 3201220415416 1 0
-10.436494 18.345758 0.24571998 22 3201220417720 1 0
0 0 0 1 3201220417720 1 0
-9.7204275 15.301198 -1.4798571 32 3201220420024 1 0
-19.96318 25.527208 0.9431151 11 3201220420024 1 0
-20.729021 32.640095 0.6749195 6 3201220422328 1 0
-15.941777 20.390787 -1.6588027 2 3201220422328 1 0
-9.07815 15.973401 -1.0699905 3 3201220424632 1 0
0 0 0 3 3201220424632 1 0
0 0 0 58 3201220426936 1 0
-17.729254 25.130104 -1.4326003 4 3201220426936 1 0
-10.20388 16.081844 -0.99815136 7 3201220429240 1 0
-13.564803 19.232897 2.889766 24 3201220429240 1 0
-11.678732 18.411911 1.7799292 8 3201220431544 1 0
-16.08525 20.597752 -1.0647396 3 3201220431544 1 0
-12.506775 22.034555 -0.88477206 10 3201220433848 1 0
-11.995996 17.018543 5.5791035 10 3201220433848 1 0
-12.344206 19.472948 4.2036886 25 3201220436152 1 0
-18.02692 25.58203 -0.72822934 8 3201220436152 1 0
-2.210289 3.4963315 -1.9288298 3 3201220456888 1 0
-19.917007 25.584522 -0.56594664 19 3201220456888 1 0
-20.674473 32.714314 -1.1262691 8 3201220459192 1 0
-4.242818 6.0387855 -2.0660255 4 3201220459192 1 0
-6.18635 9.792144 -2.3165374 1 3201220461496 1 0
-23.04127 32.80469 0 5 3201220461496 1 0
-10.422749 18.440916 -0.24660471 32 3201220463800 1 0
-9.453027 13.462779 -2.5592546 9 3201220463800 1 0
-9.657558 15.296443 -2.3026273 3 3201220466104 1 0
-19.897448 25.590097 0.18839899 13 3201220466104 1 0
-20.59765 32.63478 -0.22429337 5 3201220468408 1 0
-10.887573 15.515422 -2.0416982 56 3201220468408 1 0
-8.766603 15.526518 -1.6644424 38 3201220470712 1 0
-22.972315 32.747005 0.9308048 6 3201220470712 1 0
-10.301921 18.251917 0.2439971 15 3201220473016 1 0
0 0 0 1 3201220473016 1 0
-9.632593 15.276581 -1.4743242 32 3201220475320 1 0
-19.911264 25.638634 0.94474417 11 3201220475320 1 0
-20.546017 32.59497 0.6725459 6 3201220477624 1 0
-15.919246 20.504488 -1.6636635 2 3201220477624 1 0
