# .PCD v.7 - Point Cloud Data file format
VERSION .7
FIELDS x y z rgb timestamp_ns device_id active
SIZE 4 4 4 4 8 1 1
TYPE F F F F F U U
COUNT 1 1 1 1 1 1 1
WIDTH 981
HEIGHT 1
VIEWPOINT 0 0 0 1 0 0 0
POINTS 981               
DATA ascii
-5.8051004 4.406045 -2.0401464 4 3206815475896 1 0
-37.36351 28.367302 0 24 3206815478200 1 0
-32.109795 29.749615 -0.50960004 10 3206815480504 1 0
-8.577503 7.199081 -2.2396595 3 3206815478200 1 0
-12.250543 9.303724 -2.393229 2 3206815480504 1 0
-16.63641 13.971154 -2.765274 6 3206815482808 1 0
-44.424168 30.444443 0.31300643 36 3206815482808 1 0
-28.225885 23.710926 -0.21425039 20 3206815485112 1 0
-20.673853 15.710325 -2.7969465 15 3206815485112 1 0
-39.629063 30.123726 1.1583183 25 3206815487416 1 0
-31.881348 29.572447 0.5062474 12 3206815489720 1 0
-18.967512 17.588722 -2.414687 2 3206815487416 1 0
-24.498974 18.628326 -2.1521268 4 3206815489720 1 0
-21.589237 18.151937 -2.3026147 60 3206815492024 1 0
-28.510912 19.563274 1.0062997 4 3206815492024 1 0
-28.569439 24.02789 0.65160304 31 3206815494328 1 0
-31.02554 21.29537 -2.411711 13 3206815494328 1 0
0 0 0 85 3206815496632 1 0
-28.404903 21.617853 2.0788188 14 3206815496632 1 0
-35.411327 29.799747 1.8855612 30 3206815498936 1 0
-27.856344 21.206764 -1.6308228 5 3206815498936 1 0
-24.108322 20.293901 -1.6515135 5 3206815501240 1 0
-28.405258 21.631174 4.383884 13 3206815501240 1 0
-26.65974 22.44826 2.8451529 7 3206815503544 1 0
-46.7198 32.107628 -2.3095682 11 3206815503544 1 0
-23.869627 22.186201 -1.1380028 5 3206815505848 1 0
0 0 0 9 3206815505848 1 0
0 0 0 29 3206815508152 1 0
-27.920717 21.28144 -0.8169084 5 3206815508152 1 0
-3.1376684 2.6505969 -1.915306 5 3206815528888 1 0
-47.01934 32.42436 -0.9969513 10 3206815528888 1 0
-24.611914 20.797453 -0.93776244 11 3206815531192 1 0
-5.7927456 4.4286213 -2.0412247 4 3206815531192 1 0
-26.655005 20.384205 0 13 3206815533496 1 0
-28.584085 26.669085 -0.4551198 12 3206815535800 1 0
-8.561308 7.236574 -2.242013 3 3206815533496 1 0
-12.230549 9.356035 -2.3956885 3 3206815535800 1 0
-16.58754 14.02914 -2.765274 6 3206815538104 1 0
-44.02797 30.399332 0.31096062 36 3206815538104 1 0
-28.356707 23.990152 -0.21587773 46 3206815540408 1 0
-20.612572 15.77756 -2.7960896 18 3206815540408 1 0
-18.839052 17.592304 -2.406136 2 3206815542712 1 0
-26.651808 20.406343 0.78108317 4 3206815542712 1 0
-31.6727 29.585262 0.5045711 19 3206815545016 1 0
-24.5225 18.781666 -2.1599395 4 3206815545016 1 0
-21.489233 18.196272 -2.2987092 75 3206815547320 1 0
-28.47205 19.68314 1.007347 4 3206815547320 1 0
-28.512857 24.150734 0.65223134 19 3206815549624 1 0
-31.010115 21.444408 -2.4163158 4 3206815549624 1 0
-21.037249 19.667952 -1.6771945 7 3206815551928 1 0
-26.741512 20.499716 1.9623083 19 3206815551928 1 0
-35.16379 29.801723 1.8779082 29 3206815554232 1 0
0 0 0 10 3206815554232 1 0
-24.058664 20.396013 -1.6529789 5 3206815556536 1 0
-28.36738 21.759192 4.389734 13 3206815556536 1 0
-26.708925 22.64948 2.858822 7 3206815558840 1 0
-46.581154 32.252316 -2.3082657 11 3206815558840 1 0
0 0 0 9 3206815561144 1 0
0 0 0 29 3206815563448 1 0
0 0 0 17 3206815563448 1 0
-3.1228747 2.656835 -1.911925 4 3206815584184 1 0
-46.754784 32.483322 -0.99374 10 3206815584184 1 0
0 0 0 53 3206815561144 1 0
-24.490448 20.841776 -0.9359007 5 3206815586488 1 0
-5.7803035 4.4511647 -2.0423028 4 3206815586488 1 0
-8.538982 7.268957 -2.2427974 3 3206815588792 1 0
-36.774788 28.327217 0 16 3206815588792 1 0
-28.208069 26.50304 -0.45060304 8 3206815591096 1 0
-12.207209 9.405909 -2.3975334 2 3206815591096 1 0
-16.532427 14.081811 -2.7642639 6 3206815593400 1 0
-43.675316 30.381521 0.30921707 36 3206815593400 1 0
-28.111423 23.9515 -0.2146456 25 3206815595704 1 0
-20.544775 15.839703 -2.7943761 15 3206815595704 1 0
0 0 0 100 3206815598008 1 0
-31.365301 29.503809 0.5013116 18 3206815600312 1 0
-38.945972 30.035774 1.1444534 24 3206815598008 1 0
-24.440992 18.854965 -2.1585443 4 3206815600312 1 0
-28.416294 19.791548 1.0078125 4 3206815602616 1 0
-21.425585 18.271172 -2.2987092 85 3206815602616 1 0
-28.12715 23.993156 0.6453202 25 3206815604920 1 0
-30.168653 21.018559 -2.3564515 4 3206815604920 1 0
-21.12256 19.886341 -1.68952 60 3206815607224 1 0
-28.310183 21.859556 2.083005 22 3206815607224 1 0
-34.91363 29.799744 1.8700925 19 3206815609528 1 0
-26.528097 20.489687 -1.5613984 10 3206815609528 1 0
-24.017702 20.505806 -1.6550723 5 3206815611832 1 0
-28.391788 21.935753 4.405333 13 3206815611832 1 0
-26.656986 22.765875 2.8617513 7 3206815614136 1 0
-47.254997 32.963497 -2.3473446 11 3206815614136 1 0
-21.398594 20.169716 -1.0268828 28 3206815616440 1 0
0 0 0 29 3206815618744 1 0
0 0 0 9 3206815616440 1 0
0 0 0 1 3206815618744 1 0
-47.90257 33.52928 -1.0206168 10 3206815639480 1 0
-3.1190875 2.6724372 -1.915306 4 3206815639480 1 0
-24.298996 20.82584 -0.9313625 5 3206815641784 1 0
-5.7586107 4.466635 -2.0401464 4 3206815641784 1 0
-8.519406 7.303949 -2.2443662 3 3206815644088 1 0
-36.501453 28.321085 0 24 3206815644088 1 0
-27.972443 26.467257 -0.4483214 16 3206815646392 1 0
-16.485771 14.142497 -2.764769 6 3206815648696 1 0
-12.189707 9.460845 -2.4006078 3 3206815646392 1 0
-43.33882 30.37436 0.3075897 35 3206815648696 1 0
-27.990347 24.019243 -0.21436663 40 3206815651000 1 0
-20.463652 15.89255 -2.790949 21 3206815651000 1 0
0 0 0 56 3206815653304 1 0
-38.624836 30.006409 1.1381259 24 3206815653304 1 0
-31.16189 29.52118 0.4997284 6 3206815655608 1 0
-24.39927 18.960993 -2.1607766 12 3206815655608 1 0
-21.387829 18.370472 -2.3016381 110 3206815657912 1 0
-28.460426 19.972654 1.0118852 4 3206815657912 1 0
-27.944578 24.009624 0.64308625 56 3206815660216 1 0
-29.028627 20.378017 -2.273051 8 3206815660216 1 0
-21.086336 19.994453 -1.6923106 72 3206815662520 1 0
-28.282541 21.999525 2.0867257 15 3206815662520 1 0
-34.652443 29.791336 1.8617882 29 3206815664824 1 0
-25.436184 19.791727 -1.5012802 5 3206815664824 1 0
-24.044125 20.677559 -1.6619806 5 3206815667128 1 0
-28.35072 22.06646 4.411183 13 3206815667128 1 0
-26.653774 22.928898 2.8702133 7 3206815669432 1 0
-47.208447 33.18327 -2.3509269 11 3206815669432 1 0
-21.366585 20.284992 -1.0288372 33 3206815671736 1 0
0 0 0 9 3206815671736 1 0
0 0 0 29 3206815674040 1 0
-3.103783 2.6791136 -1.911925 4 3206815694776 1 0
-27.520477 21.440504 -0.8117905 5 3206815674040 1 0
-42.635395 30.075962 -0.9107364 9 3206815694776 1 0
-5.7483363 4.4923716 -2.0423028 4 3206815697080 1 0
-24.198597 20.893503 -0.93043166 5 3206815697080 1 0
-8.501698 7.3425694 -2.2467196 3 3206815699384 1 0
-36.212303 28.308271 0 23 3206815699384 1 0
0 0 0 10 3206815701688 1 0
-12.164705 9.512232 -2.4024527 2 3206815701688 1 0
-16.437654 14.204464 -2.765274 6 3206815703992 1 0
-28.006765 24.208576 -0.21515705 51 3206815706296 1 0
-42.997005 30.366653 0.30593914 23 3206815703992 1 0
-20.353178 15.924302 -2.7836664 20 3206815706296 1 0
0 0 0 28 3206815708600 1 0
-38.274742 29.95464 1.1309608 24 3206815708600 1 0
-29.72534 28.36193 0.47830883 5 3206815710904 1 0
-24.34726 19.060116 -2.1621716 4 3206815710904 1 0
0 0 0 19 3206815713208 1 0
-28.438337 20.108154 1.0136305 4 3206815713208 1 0
-28.101488 24.317602 0.64867103 25 3206815715512 1 0
-28.953165 20.47818 -2.2727952 8 3206815715512 1 0
-21.062038 20.112673 -1.6960316 68 3206815717816 1 0
-28.25837 22.140804 2.0906792 22 3206815717816 1 0
-34.384644 29.771347 1.8529954 29 3206815720120 1 0
-24.008034 20.792744 -1.6644927 5 3206815722424 1 0
-25.162235 19.720554 -1.4891821 5 3206815720120 1 0
-28.320387 22.20203 4.4184947 13 3206815722424 1 0
-26.616096 23.057957 2.8747694 7 3206815724728 1 0
-42.44159 30.053564 -2.1187325 10 3206815724728 1 0
-21.333803 20.394745 -1.0306519 12 3206815727032 1 0
0 0 0 9 3206815727032 1 0
0 0 0 29 3206815729336 1 0
-27.490452 21.5698 -0.8130933 5 3206815729336 1 0
-3.103091 2.696525 -1.9169965 4 3206815750072 1 0
-42.33654 30.075893 -0.906478 9 3206815750072 1 0
-24.267838 21.09447 -0.9357843 5 3206815752376 1 0
-5.72732 4.506687 -2.0401464 4 3206815752376 1 0
-8.477195 7.370845 -2.2467196 3 3206815754680 1 0
-35.93866 28.287708 0 23 3206815754680 1 0
-27.5105 26.39545 -0.44385123 24 3206815756984 1 0
-12.139097 9.557674 -2.4036825 2 3206815756984 1 0
-16.396032 14.264581 -2.7662842 6 3206815759288 1 0
-42.647457 30.334118 0.3041723 23 3206815759288 1 0
-27.726305 24.129026 -0.2136227 40 3206815761592 1 0
-20.27781 15.975219 -2.7806678 11 3206815761592 1 0
0 0 0 28 3206815763896 1 0
-38.092224 30.01871 1.1285415 24 3206815763896 1 0
-27.90474 26.804907 0.45046335 15 3206815766200 1 0
-24.308014 19.161747 -2.164404 4 3206815766200 1 0
0 0 0 9 3206815768504 1 0
-28.383352 20.213278 1.014096 4 3206815768504 1 0
-27.949741 24.352064 0.6470654 18 3206815770808 1 0
0 0 0 18 3206815770808 1 0
0 0 0 12 3206815773112 1 0
-28.239605 22.280962 2.0948653 15 3206815773112 1 0
-34.117645 29.7435 1.8440398 19 3206815775416 1 0
-24.072605 20.992474 -1.6739132 5 3206815777720 1 0
-24.919474 19.66727 -1.478759 5 3206815775416 1 0
-26.57936 23.185291 2.8793259 7 3206815780024 1 0
-28.331913 22.367168 4.432144 13 3206815777720 1 0
-29.395103 20.966034 -1.4709983 6 3206815780024 1 0
-27.441841 26.414024 -1.3300896 7 3206815782328 1 0
0 0 0 9 3206815782328 1 0
0 0 0 29 3206815784632 1 0
-27.541914 21.763002 -0.8168154 5 3206815784632 1 0
-3.0909312 2.704953 -1.915306 4 3206815805368 1 0
-42.101204 30.130388 -0.9036856 27 3206815805368 1 0
-24.166979 21.15535 -0.934737 5 3206815807672 1 0
-5.7206106 4.533829 -2.0433812 5 3206815807672 1 0
-8.460267 7.4081426 -2.249073 3 3206815809976 1 0
-27.46997 26.541344 -0.44468936 40 3206815812280 1 0
-35.664165 28.273829 0 22 3206815809976 1 0
-12.124242 9.614724 -2.4073718 2 3206815812280 1 0
-16.355093 14.329571 -2.7677994 6 3206815814584 1 0
-42.255188 30.27778 0.30212653 23 3206815814584 1 0
-27.51256 24.112297 -0.21262304 20 3206815816888 1 0
-20.206347 16.033545 -2.7785258 11 3206815816888 1 0
0 0 0 28 3206815819192 1 0
-37.808674 30.009787 1.1232375 16 3206815819192 1 0
-27.739132 26.832628 0.44929925 15 3206815821496 1 0
-24.578485 19.514448 -2.1945386 4 3206815821496 1 0
-21.345219 18.72365 -2.3179111 7 3206815823800 1 0
-28.410084 20.382153 1.0175868 4 3206815823800 1 0
-27.924692 24.502234 0.64846164 25 3206815826104 1 0
-25.76972 18.493563 -2.0328264 7 3206815826104 1 0
-19.61207 18.987726 -1.5897534 3 3206815828408 1 0
-28.22731 22.431574 2.0997488 7 3206815828408 1 0
-33.884468 29.749027 1.8370382 29 3206815830712 1 0
-24.681767 19.619873 -1.4687084 4 3206815830712 1 0
-22.64255 19.884964 -1.5792898 4 3206815833016 1 0
-28.287848 22.49311 4.4375067 13 3206815833016 1 0
-25.7944 22.659605 2.8028433 6 3206815835320 1 0
-29.279545 21.038197 -1.4688815 6 3206815835320 1 0
-27.46142 26.618164 -1.335534 7 3206815837624 1 0
0 0 0 9 3206815837624 1 0
0 0 0 29 3206815839928 1 0
-26.683546 21.23646 -0.7935522 9 3206815839928 1 0
-3.0814705 2.715726 -1.915306 4 3206815860664 1 0
-42.112564 30.361366 -0.90619874 27 3206815860664 1 0
-24.233952 21.36385 -0.94020605 5 3206815862968 1 0
-5.7017393 4.5513673 -2.0423028 4 3206815862968 1 0
-8.446123 7.448006 -2.2522109 3 3206815865272 1 0
-35.39959 28.265865 0 22 3206815865272 1 0
-12.093695 9.659454 -2.4079869 3 3206815867576 1 0
-27.500425 26.757008 -0.44669163 16 3206815867576 1 0
-16.322826 14.402326 -2.77083 6 3206815869880 1 0
-41.850864 30.209711 0.29998773 11 3206815869880 1 0
-27.782099 24.520517 -0.21536627 30 3206815872184 1 0
-18.460789 17.977425 -2.4053924 2 3206815874488 1 0
-20.134722 16.091564 -2.7763839 8 3206815872184 1 0
-37.503784 29.98177 1.1172822 16 3206815874488 1 0
-27.605188 26.890219 0.44864735 10 3206815876792 1 0
-24.27649 19.41322 -2.1736116 4 3206815876792 1 0
-21.291683 18.808601 -2.319213 11 3206815879096 1 0
-28.374409 20.50696 1.0188669 4 3206815879096 1 0
-27.898932 24.652525 0.6498578 19 3206815881400 1 0
-25.811762 18.66058 -2.0412688 7 3206815881400 1 0
-19.417006 18.930628 -1.5792884 3 3206815883704 1 0
-26.627447 21.312267 1.9862615 6 3206815883704 1 0
-33.630707 29.734758 1.8288966 28 3206815886008 1 0
-24.594416 19.690926 -1.4675916 4 3206815886008 1 0
-22.423391 19.831564 -1.5688226 4 3206815888312 1 0
-28.314522 22.676096 4.4540806 13 3206815888312 1 0
-25.768894 22.797054 2.8087015 7 3206815890616 1 0
-28.976063 20.973886 -1.4573207 6 3206815890616 1 0
-20.25091 19.766636 -0.98821414 7 3206815892920 1 0
0 0 0 29 3206815895224 1 0
0 0 0 9 3206815892920 1 0
-26.587412 21.311964 -0.79290086 14 3206815895224 1 0
-3.0746834 2.728872 -1.9169965 4 3206815915960 1 0
-41.92219 30.447077 -0.9043837 9 3206815915960 1 0
-24.15923 21.44831 -0.94020605 5 3206815918264 1 0
-5.6858172 4.5712423 -2.0423028 4 3206815918264 1 0
-8.42594 7.482652 -2.25378 3 3206815920568 1 0
-26.46384 21.282545 0 42 3206815920568 1 0
-20.218737 19.810022 -0.32953578 13 3206815922872 1 0
-12.08762 9.723907 -2.413521 4 3206815922872 1 0
-16.284319 14.469758 -2.7728503 6 3206815925176 1 0
-41.518703 30.190945 0.2983604 11 3206815925176 1 0
-27.786026 24.697065 -0.21606371 25 3206815927480 1 0
-20.069134 16.154268 -2.7750988 14 3206815927480 1 0
-18.41214 18.055698 -2.4072514 4 3206815929784 1 0
-26.456755 21.302206 0.79038846 14 3206815929784 1 0
-20.238617 19.85259 0.330048 10 3206815932088 1 0
-24.245869 19.527876 -2.17696 4 3206815932088 1 0
-19.95997 17.756624 -2.1808934 3 3206815934392 1 0
-41.34851 30.103977 1.4885044 24 3206815934392 1 0
-27.711126 24.659365 0.6474843 25 3206815936696 1 0
-19.214031 18.864006 -1.5681257 3 3206815939000 1 0
0 0 0 9 3206815939000 1 0
-25.45283 18.536716 -2.0179882 3 3206815936696 1 0
-33.264034 29.618088 1.8145677 28 3206815941304 1 0
-24.37001 19.651249 -1.4582855 4 3206815941304 1 0
-28.263006 22.797228 4.458468 6 3206815943608 1 0
-25.721905 22.916039 2.8122816 7 3206815945912 1 0
-28.892986 21.06784 -1.4568322 6 3206815945912 1 0
-22.189968 19.763594 -1.5573087 4 3206815943608 1 0
0 0 0 9 3206815948216 1 0
-20.193192 19.848413 -0.9887725 7 3206815948216 1 0
0 0 0 19 3206815950520 1 0
0 0 0 29 3206815950520 1 0
-3.067842 2.742004 -1.9186869 4 3206815971256 1 0
-28.517277 20.863848 -0.61676806 5 3206815971256 1 0
-24.06931 21.519188 -0.93962425 5 3206815973560 1 0
-5.678807 4.5983334 -2.045538 5 3206815973560 1 0
-8.402693 7.5146337 -2.2545643 3 3206815975864 1 0
-26.432905 21.410038 0 14 3206815975864 1 0
-27.415457 27.049473 -0.44836795 12 3206815978168 1 0
-12.056674 9.76853 -2.414136 3 3206815978168 1 0
-28.508993 20.883265 0.20539303 5 3206815980472 1 0
-16.21597 14.510636 -2.7698197 6 3206815980472 1 0
-27.762238 24.849928 -0.2165519 41 3206815982776 1 0
-19.990997 16.206694 -2.7721 11 3206815982776 1 0
-18.388676 18.159037 -2.4124563 7 3206815985080 1 0
-26.4164 21.422132 0.79141206 9 3206815985080 1 0
-27.331423 26.997957 0.44725043 10 3206815987384 1 0
-22.776857 18.47617 -2.0508404 3 3206815987384 1 0
-28.394983 20.825144 1.0248014 4 3206815989688 1 0
-19.73158 17.677216 -2.1626678 3 3206815989688 1 0
-28.032925 25.12161 0.6570482 19 3206815991992 1 0
-25.256008 18.52864 -2.0074992 3 3206815991992 1 0
-19.062876 18.846737 -1.561149 3 3206815994296 1 0
-36.751766 29.838957 2.7569523 14 3206815994296 1 0
-33.02059 29.608616 1.8069148 28 3206815996600 1 0
-24.291962 19.72864 -1.4577271 4 3206815996600 1 0
-21.984058 19.718243 -1.547679 4 3206815998904 1 0
-28.214071 22.920778 4.4633427 6 3206815998904 1 0
-25.724844 23.080233 2.8213944 7 3206816001208 1 0
-28.387642 20.851524 -1.435013 5 3206816001208 1 0
0 0 0 64 3206816003512 1 0
0 0 0 9 3206816003512 1 0
-26.341797 21.418852 -0.79001623 14 3206816005816 1 0
0 0 0 29 3206816005816 1 0
-3.0582519 2.752696 -1.9186869 4 3206816026552 1 0
-28.437834 20.958519 -0.6166284 11 3206816026552 1 0
-5.665706 4.6205626 -2.046616 4 3206816028856 1 0
-24.008905 21.61645 -0.94020605 5 3206816028856 1 0
-8.388068 7.554418 -2.2577024 4 3206816031160 1 0
-34.58094 28.210228 0 22 3206816031160 1 0
-27.369104 27.19293 -0.44915956 8 3206816033464 1 0
-16.159323 14.56184 -2.7688096 6 3206816035768 1 0
-12.040875 9.825549 -2.4178252 2 3206816033464 1 0
-28.33293 20.906652 0.2046491 10 3206816035768 1 0
-27.993227 25.233244 -0.21903941 41 3206816038072 1 0
-19.934305 16.276377 -2.7721 8 3206816038072 1 0
0 0 0 6 3206816040376 1 0
-29.321264 29.166441 0.4814752 5 3206816042680 1 0
-36.52807 29.834053 1.0974619 15 3206816040376 1 0
0 0 0 12 3206816042680 1 0
-19.566153 17.652515 -2.1512766 6 3206816044984 1 0
-28.004444 25.272902 0.6584444 19 3206816047288 1 0
-28.325335 20.92651 1.0249177 4 3206816044984 1 0
-25.021032 18.490948 -1.9939402 7 3206816047288 1 0
-18.943205 18.859632 -1.5567304 3 3206816049592 1 0
-36.492817 29.840673 2.7453246 44 3206816049592 1 0
-32.884407 29.694235 1.8051237 28 3206816051896 1 0
-21.882486 19.765408 -1.5453761 4 3206816054200 1 0
-24.145628 19.750069 -1.453074 4 3206816051896 1 0
-36.719093 30.043528 5.8253546 33 3206816054200 1 0
-25.69441 23.215324 2.8269272 7 3206816056504 1 0
-28.285767 20.929094 -1.4335476 11 3206816056504 1 0
0 0 0 10 3206816058808 1 0
0 0 0 9 3206816058808 1 0
0 0 0 29 3206816061112 1 0
-3.0513105 2.7657893 -1.9203774 4 3206816081296 1 0
-26.492374 19.6678 -0.5759294 9 3206816081296 1 0
-23.945467 21.71052 -0.9406715 5 3206816083600 1 0
-5.6496105 4.640229 -2.046616 4 3206816083600 1 0
-27.581762 22.587471 -0.82956356 5 3206816061112 1 0
-8.364774 7.586044 -2.2584867 4 3206816085904 1 0
-28.953796 23.78715 0 10 3206816085904 1 0
-29.913374 29.92643 -0.49260408 4 3206816088208 1 0
-12.016096 9.874524 -2.41967 3 3206816088208 1 0
-40.30636 29.955978 0.29187432 10 3206816090512 1 0
-27.883123 25.30727 -0.21885343 15 3206816092816 1 0
-16.106306 14.614554 -2.7683046 6 3206816090512 1 0
-19.872412 16.339363 -2.7712433 11 3206816092816 1 0
-18.33904 18.36146 -2.4224942 11 3206816095120 1 0
-29.11486 29.158087 0.47970575 16 3206816097424 1 0
-22.276346 18.325687 -2.0170782 21 3206816097424 1 0
-36.349106 29.894697 1.0951356 31 3206816095120 1 0
-19.370728 17.59513 -2.1363056 6 3206816099728 1 0
-28.363626 21.103117 1.028874 4 3206816099728 1 0
-27.957857 25.40181 0.65935194 13 3206816102032 1 0
-24.79865 18.455746 -1.9811487 7 3206816102032 1 0
-18.837704 18.880493 -1.5532421 3 3206816104336 1 0
-36.278725 29.868671 2.73672 29 3206816104336 1 0
-32.525074 29.567019 1.7907947 28 3206816106640 1 0
-24.196918 19.926903 -1.4601467 4 3206816106640 1 0
-21.69565 19.727684 -1.536793 4 3206816108944 1 0
-36.42927 30.008621 5.795131 11 3206816108944 1 0
-25.723799 23.396599 2.8386438 7 3206816111248 1 0
-26.492243 19.73772 -1.3459455 10 3206816111248 1 0
-27.116726 27.206799 -1.341397 14 3206816113552 1 0
0 0 0 9 3206816113552 1 0
0 0 0 29 3206816115856 1 0
0 0 0 17 3206816115856 1 0
-3.0399282 2.7729185 -1.9186869 5 3206816136592 1 0
-28.34306 21.180182 -0.61760575 5 3206816136592 1 0
-24.00383 21.901869 -0.9456751 5 3206816138896 1 0
-5.631968 4.655583 -2.045538 3 3206816138896 1 0
-8.3435755 7.615172 -2.2592711 3 3206816141200 1 0
-28.794998 23.810009 0 31 3206816141200 1 0
-29.691065 29.893856 -0.49050868 9 3206816143504 1 0
-11.99372 9.920305 -2.4215147 2 3206816143504 1 0
-39.99892 29.926645 0.29033995 21 3206816145808 1 0
-28.014265 25.591003 -0.22052725 10 3206816148112 1 0
-19.804472 16.390476 -2.7691014 11 3206816148112 1 0
-18.313322 18.454502 -2.4269555 4 3206816150416 1 0
-35.999805 29.802801 1.0875052 30 3206816150416 1 0
-16.06239 14.668692 -2.7688096 6 3206816145808 1 0
-28.735626 28.965576 0.47500277 16 3206816152720 1 0
-22.096933 18.298586 -2.0061963 32 3206816152720 1 0
-19.266224 17.615103 -2.1310983 6 3206816155024 1 0
-28.320324 21.214588 1.029805 13 3206816155024 1 0
-28.019192 25.625422 0.6627726 26 3206816157328 1 0
-24.706177 18.512863 -1.9785905 11 3206816157328 1 0
-18.67715 18.843048 -1.5451026 3 3206816159632 1 0
-35.934395 29.783901 2.7181156 28 3206816159632 1 0
-32.297546 29.555523 1.7836303 28 3206816161936 1 0
-24.269417 20.121443 -1.4685223 4 3206816161936 1 0
-21.488682 19.67006 -1.5267445 4 3206816164240 1 0
-36.210373 30.030418 5.776119 11 3206816164240 1 0
-25.669252 23.503685 2.8412473 7 3206816166544 1 0
-26.509478 19.888208 -1.3501791 15 3206816166544 1 0
0 0 0 43 3206816168848 1 0
0 0 0 9 3206816168848 1 0
0 0 0 29 3206816171152 1 0
-24.412825 20.264318 -0.73827904 43 3206816171152 1 0
-3.0302305 2.7835128 -1.9186869 5 3206816191888 1 0
-28.221025 21.242908 -0.6165586 11 3206816191888 1 0
-23.936066 21.99364 -0.9460242 5 3206816194192 1 0
-5.6186433 4.6776786 -2.046616 5 3206816194192 1 0
-8.319831 7.646904 -2.2600555 3 3206816196496 1 0
-28.570318 23.792631 0 30 3206816196496 1 0
-29.50789 29.91758 -0.48920488 4 3206816198800 1 0
-11.97724 9.977289 -2.4252043 2 3206816198800 1 0
-16.002327 14.716612 -2.7672944 6 3206816201104 1 0
-39.597137 29.842196 0.28817794 21 3206816201104 1 0
-27.983643 25.742796 -0.22099221 10 3206816203408 1 0
-19.741028 16.454414 -2.7682445 14 3206816203408 1 0
-18.279543 18.549519 -2.431045 7 3206816205712 1 0
-35.849483 29.88987 1.0861095 15 3206816205712 1 0
-28.538904 28.96883 0.47341958 16 3206816208016 1 0
-21.9318 18.29127 -1.9969883 32 3206816208016 1 0
-19.069706 17.55803 -2.1161273 3 3206816210320 1 0
-28.284397 21.342215 1.0312012 13 3206816210320 1 0
-28.011942 25.798933 0.6647273 19 3206816212624 1 0
-24.54582 18.526846 -1.9709156 7 3206816212624 1 0
-18.58045 18.876823 -1.5425445 3 3206816214928 1 0
-35.66467 29.77097 2.7055576 42 3206816214928 1 0
-32.061928 29.546202 1.7763029 37 3206816217232 1 0
-24.13769 20.154818 -1.4647998 4 3206816217232 1 0
-21.340588 19.67185 -1.5210922 4 3206816219536 1 0
-35.946877 30.024288 5.7507706 10 3206816219536 1 0
-25.70429 23.701246 2.8542657 7 3206816221840 1 0
-27.983177 21.146881 -1.4289883 5 3206816221840 1 0
0 0 0 10 3206816224144 1 0
0 0 0 9 3206816224144 1 0
0 0 0 29 3206816226448 1 0
-3.0204957 2.7940733 -1.9186869 5 3206816247184 1 0
-24.394096 20.393015 -0.7398609 35 3206816226448 1 0
-28.031973 21.254301 -0.61404544 10 3206816247184 1 0
-23.870886 22.087921 -0.94648963 5 3206816249488 1 0
-5.6022806 4.697263 -2.046616 4 3206816249488 1 0
-8.304602 7.6865563 -2.2631936 3 3206816251792 1 0
-28.352243 23.779116 0 41 3206816251792 1 0
-27.066355 27.634426 -0.45032367 12 3206816254096 1 0
-11.951423 10.026658 -2.427049 2 3206816254096 1 0
-15.942125 14.764293 -2.7657793 6 3206816256400 1 0
-39.28883 29.825447 0.2866901 21 3206816256400 1 0
-31.981115 29.626936 -0.2533762 14 3206816258704 1 0
-19.686516 16.525782 -2.768673 11 3206816258704 1 0
-18.326103 18.727074 -2.4459162 2 3206816261008 1 0
-28.339712 28.968204 0.4717898 16 3206816263312 1 0
-21.797544 18.308687 -1.9905708 39 3206816263312 1 0
-28.655355 24.061749 0.8706928 16 3206816261008 1 0
-28.298857 21.50856 1.0344594 8 3206816265616 1 0
-18.996607 17.613646 -2.1148255 3 3206816265616 1 0
-27.90119 25.87752 0.6642386 13 3206816267920 1 0
-18.500488 18.927288 -1.5413817 3 3206816270224 1 0
-35.413815 29.771938 2.6943948 42 3206816270224 1 0
-31.917582 29.619879 1.7740233 28 3206816272528 1 0
-24.152817 20.310957 -1.4700112 5 3206816272528 1 0
-21.27472 19.74894 -1.5213016 13 3206816274832 1 0
-24.751104 18.817768 -1.9926611 3 3206816267920 1 0
-35.604874 29.95024 5.7127476 10 3206816274832 1 0
-25.65938 23.826092 2.8584967 7 3206816277136 1 0
-27.797884 21.159706 -1.4232893 5 3206816277136 1 0
-27.121975 27.779984 -1.3557756 7 3206816279440 1 0
0 0 0 9 3206816279440 1 0
0 0 0 29 3206816281744 1 0
0 0 0 1 3206816281744 1 0
-3.010724 2.8046 -1.9186869 5 3206816302480 1 0
0 0 0 72 3206816302480 1 0
-23.919424 22.288319 -0.9514932 5 3206816304784 1 0
-8.274851 7.712824 -2.262409 3 3206816307088 1 0
-28.293512 23.898588 0 56 3206816307088 1 0
-5.5858502 4.7167897 -2.046616 4 3206816304784 1 0
-26.96136 27.720137 -0.45018396 37 3206816309392 1 0
-11.925408 10.075968 -2.4288938 2 3206816309392 1 0
-15.884687 14.814438 -2.764769 6 3206816311696 1 0
-28.060625 26.17764 -0.223038 10 3206816314000 1 0
0 0 0 7 3206816311696 1 0
-19.616562 16.58413 -2.7669594 11 3206816314000 1 0
-18.235641 18.765223 -2.4425702 2 3206816316304 1 0
-28.467371 24.073833 0.86752903 16 3206816316304 1 0
-28.00431 28.82597 0.4678784 16 3206816318608 1 0
-21.663433 18.325392 -1.9841532 35 3206816318608 1 0
-18.81262 17.565575 -2.1011562 3 3206816320912 1 0
-26.642576 20.396818 0.97651106 8 3206816320912 1 0
-31.703896 29.610947 0.75722504 64 3206816323216 1 0
-24.869085 19.044819 -2.0074992 3 3206816323216 1 0
-18.339743 18.89433 -1.5334748 3 3206816325520 1 0
-35.257866 29.85151 2.6904414 28 3206816325520 1 0
-31.673832 29.600124 1.7662075 28 3206816327824 1 0
-24.203735 20.498436 -1.4774562 5 3206816327824 1 0
-35.351677 29.948593 5.688861 10 3206816330128 1 0
0 0 0 8 3206816330128 1 0
-25.680887 24.01354 2.8702133 7 3206816332432 1 0
-26.594728 20.390879 -1.3653222 16 3206816332432 1 0
-46.069115 47.517506 -2.3111842 23 3206816334736 1 0
0 0 0 9 3206816334736 1 0
-27.688566 23.477459 -0.84473115 10 3206816337040 1 0
-3.000916 2.815092 -1.9186869 4 3206816357776 1 0
0 0 0 7 3206816357776 1 0
0 0 0 29 3206816337040 1 0
-27.541468 25.843569 -1.0991567 7 3206816360080 1 0
-5.57522 4.74125 -2.0487728 3 3206816360080 1 0
-8.253597 7.74703 -2.263978 3 3206816362384 1 0
-28.222105 24.007572 0 35 3206816362384 1 0
0 0 0 28 3206816364688 1 0
-11.905214 10.130341 -2.4319682 2 3206816364688 1 0
-15.815524 14.8534975 -2.7617385 6 3206816366992 1 0
-38.423676 29.593777 0.28187782 10 3206816366992 1 0
0 0 0 66 3206816369296 1 0
-19.552498 16.647346 -2.7661026 28 3206816369296 1 0
-19.149052 19.84328 -2.574179 5 3206816371600 1 0
-28.547564 24.313068 0.8725539 16 3206816371600 1 0
-27.811876 28.828556 0.4663418 10 3206816373904 1 0
-21.605408 18.406075 -1.9847112 10 3206816373904 1 0
-18.844133 17.718527 -2.1115708 3 3206816376208 1 0
-28.296825 21.82035 1.0399284 8 3206816376208 1 0
-31.45759 29.587172 0.7538043 40 3206816378512 1 0
-24.82458 19.148579 -2.00929 3 3206816378512 1 0
-18.398384 19.08761 -1.5439398 3 3206816380816 1 0
-34.97721 29.824125 2.676953 27 3206816380816 1 0
-31.445164 29.592728 1.7592058 27 3206816383120 1 0
-24.147234 20.595762 -1.4783869 5 3206816383120 1 0
-21.223583 19.979122 -1.5275819 4 3206816385424 1 0
-35.13819 29.979044 5.671312 31 3206816385424 1 0
-25.64625 24.1495 2.875746 7 3206816387728 1 0
-27.573568 21.294624 -1.4193815 11 3206816387728 1 0
-28.247126 29.33944 -1.4222243 7 3206816390032 1 0
0 0 0 9 3206816390032 1 0
0 0 0 29 3206816392336 1 0
-27.752415 23.698614 -0.8491977 10 3206816392336 1 0
-2.9910712 2.8255503 -1.9186869 5 3206816413072 1 0
-27.586565 21.375208 -0.6091588 5 3206816413072 1 0
-27.494493 25.98094 -1.1009022 7 3206816415376 1 0
-5.555676 4.758217 -2.0476944 4 3206816415376 1 0
-8.229242 7.7786074 -2.2647624 3 3206816417680 1 0
-28.064877 24.04389 0 41 3206816417680 1 0
-28.164703 29.366034 -0.47369894 9 3206816419984 1 0
-11.881563 10.182383 -2.434428 2 3206816419984 1 0
-15.7573805 14.903619 -2.7607284 6 3206816422288 1 0
-38.07277 29.537588 0.2800645 19 3206816422288 1 0
-27.867514 26.36567 -0.22296825 21 3206816424592 1 0
-19.412148 16.646305 -2.7545362 20 3206816424592 1 0
-19.120132 19.95397 -2.5797555 8 3206816426896 1 0
-27.994028 24.01286 0.8582238 26 3206816426896 1 0
-26.929363 28.112356 0.45321065 15 3206816429200 1 0
-21.509804 18.456491 -1.981921 7 3206816429200 1 0
-18.627714 17.640003 -2.0943215 3 3206816431504 1 0
-28.263416 21.954973 1.0415574 8 3206816431504 1 0
-31.221518 29.575083 0.7506629 55 3206816433808 1 0
-24.85089 19.310215 -2.016965 7 3206816433808 1 0
-17.791857 18.590487 -1.4985914 3 3206816436112 1 0
-34.72228 29.821089 2.6655579 27 3206816436112 1 0
-31.217468 29.589342 1.752367 27 3206816438416 1 0
-24.091724 20.697475 -1.4795036 5 3206816438416 1 0
-21.172255 20.07417 -1.5290473 4 3206816440720 1 0
-34.780785 29.889801 5.6308513 31 3206816440720 1 0
-25.579752 24.260494 2.878024 7 3206816443024 1 0
-27.440268 21.349169 -1.4164505 5 3206816443024 1 0
-28.08906 29.38582 -1.4195719 15 3206816445328 1 0
0 0 0 9 3206816445328 1 0
0 0 0 29 3206816447632 1 0
-27.688148 23.816616 -0.84984905 5 3206816447632 1 0
-2.9859471 2.8414922 -1.9220679 4 3206816468368 1 0
-27.571085 21.525398 -0.610555 5 3206816468368 1 0
-27.468967 26.1473 -1.1036949 7 3206816470672 1 0
-5.5324354 4.7734346 -2.045538 4 3206816470672 1 0
-8.203745 7.811183 -2.265547 4 3206816472976 1 0
-28.028744 24.190207 0 46 3206816472976 1 0
-27.95336 29.357767 -0.47192952 13 3206816475280 1 0
-11.853584 10.233094 -2.4362726 2 3206816475280 1 0
-15.686282 14.943936 -2.757698 6 3206816477584 1 0
-37.73277 29.492445 0.27834418 19 3206816477584 1 0
-27.740763 26.435257 -0.22271253 15 3206816479888 1 0
-19.27698 16.650944 -2.7438264 20 3206816479888 1 0
-17.741924 18.648771 -2.40279 4 3206816482192 1 0
-27.944244 24.14424 0.85934037 26 3206816482192 1 0
-27.25352 28.65446 0.46038157 15 3206816484496 1 0
0 0 0 29 3206816484496 1 0
-18.57365 17.714252 -2.0952978 3 3206816486800 1 0
-28.216812 22.079777 1.0427212 8 3206816486800 1 0
-30.995256 29.569296 0.7477309 47 3206816489104 1 0
-24.697615 19.331493 -2.0100574 7 3206816489104 1 0
-18.023403 18.965614 -1.5237075 3 3206816491408 1 0
-34.45401 29.802048 2.6529999 27 3206816491408 1 0
-30.969007 29.560606 1.7442255 27 3206816493712 1 0
-23.98579 20.753036 -1.4774562 5 3206816493712 1 0
-21.226286 20.266567 -1.5380491 4 3206816496016 1 0
-34.50212 29.860334 5.6025777 20 3206816496016 1 0
-25.570227 24.420856 2.886486 7 3206816498320 1 0
-25.44691 19.940678 -1.3171247 5 3206816498320 1 0
0 0 0 96 3206816500624 1 0
0 0 0 9 3206816500624 1 0
0 0 0 29 3206816502928 1 0
-24.87341 21.545074 -0.76572955 4 3206816502928 1 0
-2.9765081 2.8513784 -1.9220679 4 3206816523664 1 0
-27.575014 21.676027 -0.6122304 5 3206816523664 1 0
-27.42522 26.27994 -1.1054403 7 3206816525968 1 0
-5.525265 4.7993727 -2.0487728 4 3206816525968 1 0
-8.180514 7.8411775 -2.2663314 4 3206816528272 1 0
-27.990292 24.320156 0 41 3206816528272 1 0
-27.75352 29.343393 -0.47020662 13 3206816530576 1 0
-11.828311 10.280381 -2.4381173 2 3206816530576 1 0
-15.627613 14.988088 -2.756183 6 3206816532880 1 0
-37.401302 29.435446 0.27662385 19 3206816532880 1 0
-27.729918 26.602875 -0.22334021 15 3206816535184 1 0
-19.107012 16.616304 -2.7275476 8 3206816535184 1 0
-17.219614 18.221968 -2.3403316 2 3206816537488 1 0
-28.043995 24.395464 0.86492354 16 3206816537488 1 0
-27.239286 28.833284 0.4617785 36 3206816539792 1 0
-21.339235 18.568449 -1.9780146 70 3206816539792 1 0
-18.542528 17.804438 -2.0985525 3 3206816542096 1 0
-28.239504 22.251575 1.0463283 9 3206816542096 1 0
-30.76529 29.54927 0.74458945 55 3206816544400 1 0
-24.575672 19.37042 -2.0054526 3 3206816544400 1 0
-17.942581 19.009161 -1.5223122 3 3206816546704 1 0
-34.20828 29.792751 2.6418371 40 3206816546704 1 0
-30.744526 29.546526 1.7372239 27 3206816549008 1 0
-23.924212 20.842249 -1.4780146 5 3206816549008 1 0
-21.13703 20.319313 -1.5365837 4 3206816551312 1 0
-34.232677 29.831518 5.5752788 20 3206816551312 1 0
-24.759743 23.808805 2.804145 6 3206816553616 1 0
-25.187368 19.876324 -1.3071922 4 3206816553616 1 0
-18.436344 19.555054 -0.9385173 30 3206816555920 1 0
0 0 0 9 3206816555920 1 0
0 0 0 29 3206816558224 1 0
-24.630703 21.482946 -0.76051855 9 3206816558224 1 0
-2.9639277 2.859234 -1.9203774 4 3206816578960 1 0
-26.671385 21.11675 -0.59380066 10 3206816578960 1 0
-27.451477 26.489143 -1.1102111 7 3206816581264 1 0
-5.5056143 4.816054 -2.0476944 4 3206816581264 1 0
-8.1616745 7.8777385 -2.2686849 3 3206816583568 1 0
-27.839355 24.359358 0 35 3206816583568 1 0
-27.657042 29.44532 -0.47029975 13 3206816585872 1 0
-11.801501 10.32916 -2.4399621 2 3206816585872 1 0
-15.56422 15.031068 -2.7541625 6 3206816588176 1 0
-37.095432 29.403234 0.27511275 9 3206816588176 1 0
-27.597582 26.659597 -0.22301476 15 3206816590480 1 0
-19.013597 16.650764 -2.7224069 8 3206816590480 1 0
-16.97137 18.083738 -2.3150508 2 3206816592784 1 0
-27.980793 24.510431 0.8655749 16 3206816592784 1 0
-27.208363 28.999733 0.4629426 36 3206816595088 1 0
-21.290243 18.654888 -1.9794097 59 3206816595088 1 0
-18.481306 17.86798 -2.0985525 3 3206816597392 1 0
-28.200544 22.3782 1.0477247 9 3206816597392 1 0
-30.540276 29.534924 0.74158764 31 3206816599696 1 0
-24.284067 19.275797 -1.9870329 3 3206816599696 1 0
-17.590744 18.76448 -1.4978937 6 3206816602000 1 0
-33.968143 29.788387 2.6311395 26 3206816602000 1 0
-30.436775 29.45111 1.7255002 27 3206816604304 1 0
-23.868004 20.9369 -1.4789453 5 3206816604304 1 0
-21.102196 20.424469 -1.5390958 4 3206816606608 1 0
-33.97577 29.811691 5.54993 20 3206816606608 1 0
-24.799042 24.009224 2.8178144 7 3206816608912 1 0
-24.856884 19.752882 -1.2935145 4 3206816608912 1 0
-18.41642 19.667025 -0.94089043 33 3206816611216 1 0
0 0 0 9 3206816611216 1 0
0 0 0 29 3206816613520 1 0
-24.41669 21.442095 -0.7561451 13 3206816613520 1 0
-2.9544299 2.8690472 -1.9203774 4 3206816634256 1 0
-26.619978 21.220037 -0.5942195 15 3206816634256 1 0
-20.313824 19.732498 -0.824193 4 3206816636560 1 0
-5.4982505 4.841962 -2.0509293 4 3206816636560 1 0
-8.132578 7.9021454 -2.2679005 3 3206816638864 1 0
-27.72205 24.420218 0 30 3206816638864 1 0
-27.512215 29.487757 -0.46950817 13 3206816641168 1 0
-11.781785 10.38156 -2.4430366 2 3206816641168 1 0
-15.505316 15.074751 -2.7526472 6 3206816643472 1 0
-26.545578 21.186 0.19739583 14 3206816643472 1 0
-20.287653 19.73003 -0.16447715 31 3206816645776 1 0
-18.912924 16.674963 -2.7159812 8 3206816645776 1 0
-16.864351 18.091131 -2.3087306 2 3206816648080 1 0
-27.937275 24.638689 0.86678463 16 3206816648080 1 0
-27.165104 29.149702 0.4638739 21 3206816650384 1 0
-21.254242 18.750225 -1.981921 45 3206816650384 1 0
-18.492329 17.999758 -2.106689 3 3206816652688 1 0
0 0 0 13 3206816652688 1 0
-20.273426 19.739155 0.4939031 41 3206816654992 1 0
-24.277992 19.405159 -1.9918936 3 3206816654992 1 0
-17.42909 18.718775 -1.4895217 6 3206816657296 1 0
-33.696377 29.752676 2.617884 26 3206816657296 1 0
-20.28546 19.76237 1.1538072 12 3206816659600 1 0
-22.607822 19.96774 -1.4050539 4 3206816659600 1 0
-20.288755 19.771334 -1.4846663 8 3206816661904 1 0
-33.71642 29.787832 5.5240936 20 3206816661904 1 0
-20.329157 19.81647 2.3175857 9 3206816664208 1 0
-24.639584 19.71768 -1.2856988 4 3206816664208 1 0
-26.63613 28.64049 -1.3658267 22 3206816666512 1 0
0 0 0 9 3206816666512 1 0
0 0 0 29 3206816668816 1 0
-24.217285 21.414345 -0.7522369 9 3206816668816 1 0
-2.9418051 2.876808 -1.9186869 5 3206816689552 1 0
-26.46154 21.245226 -0.5923347 41 3206816689552 1 0
-20.241962 19.800491 -0.82407665 13 3206816691856 1 0
-5.4784336 4.858569 -2.049851 4 3206816691856 1 0
-8.1161585 7.9414577 -2.2710383 4 3206816694160 1 0
-27.714437 24.585854 0 20 3206816694160 1 0
-27.305819 29.47212 -0.46773872 13 3206816696464 1 0
-11.754343 10.430492 -2.4448814 2 3206816696464 1 0
-15.438424 15.114903 -2.7501218 6 3206816698768 1 0
0 0 0 8 3206816698768 1 0
0 0 0 9 3206816701072 1 0
-18.809994 16.701271 -2.7095554 8 3206816701072 1 0
-16.801098 18.149889 -2.3087306 2 3206816703376 1 0
-28.15607 25.00692 0.87627596 16 3206816703376 1 0
-27.169136 29.358835 0.4656899 10 3206816705680 1 0
0 0 0 3 3206816705680 1 0
-18.477787 18.11164 -2.1122217 6 3206816707984 1 0
-26.473248 21.305332 0.9889618 12 3206816707984 1 0
-30.071001 29.483706 0.7350954 38 3206816710288 1 0
-24.272295 19.53985 -1.9970102 3 3206816710288 1 0
-17.314846 18.726723 -1.4853357 6 3206816712592 1 0
-33.332695 29.639265 2.5976515 38 3206816712592 1 0
-29.95649 29.388529 1.7097058 27 3206816714896 1 0
-22.40662 19.92969 -1.3968643 4 3206816714896 1 0
-20.213915 19.836437 -1.4842477 13 3206816717200 1 0
-33.472828 29.78131 5.501182 20 3206816717200 1 0
-24.71242 24.257994 2.8269272 7 3206816719504 1 0
-24.43991 19.69823 -1.27886 4 3206816719504 1 0
-26.5821 28.783218 -1.3681998 14 3206816721808 1 0
0 0 0 9 3206816721808 1 0
0 0 0 29 3206816724112 1 0
-24.115509 21.474813 -0.75139946 4 3206816724112 1 0
-2.9343283 2.889603 -1.9203774 4 3206816745296 1 0
0 0 0 14 3206816745296 1 0
-26.362404 25.96814 -1.0769316 22 3206816747600 1 0
-5.4643135 4.8802285 -2.0509293 4 3206816747600 1 0
-8.082801 7.9642344 -2.2694693 3 3206816749904 1 0
-28.093796 25.098173 0 52 3206816749904 1 0
-27.191942 29.555483 -0.46755245 26 3206816752208 1 0
-11.726704 10.479361 -2.446726 2 3206816752208 1 0
-15.368615 15.151986 -2.7470915 6 3206816754512 1 0
0 0 0 1 3206816754512 1 0
-26.338068 25.974373 -0.21499431 25 3206816756816 1 0
-18.70711 16.727066 -2.7031295 8 3206816756816 1 0
-16.562449 18.017838 -2.2845652 2 3206816759120 1 0
-27.961308 25.009077 0.87292606 16 3206816759120 1 0
-27.158504 29.553627 0.4672731 16 3206816761424 1 0
-21.232853 18.996592 -1.9922448 47 3206816761424 1 0
-18.437151 18.198435 -2.1148255 6 3206816763728 1 0
-36.667473 29.721 1.373655 14 3206816763728 1 0
-26.33077 25.997412 0.6458787 18 3206816766032 1 0
-24.238049 19.652113 -1.9998243 3 3206816766032 1 0
-17.135942 18.66351 -1.4755683 6 3206816768336 1 0
-33.095165 29.635563 2.5871863 38 3206816768336 1 0
-26.330984 26.012753 1.5079606 14 3206816770640 1 0
-22.188103 19.874485 -1.3875581 4 3206816770640 1 0
-19.596186 19.364983 -1.4438443 4 3206816772944 1 0
-33.211952 29.757553 5.475346 19 3206816772944 1 0
-24.712654 24.42819 2.836691 7 3206816775248 1 0
-24.32446 19.745638 -1.2764175 4 3206816775248 1 0
-27.148838 29.603546 -1.4026805 23 3206816777552 1 0
0 0 0 9 3206816777552 1 0
0 0 0 29 3206816779856 1 0
-24.037424 21.55619 -0.75130635 4 3206816779856 1 0
-2.929372 2.9049332 -1.9237583 4 3206816800592 1 0
-36.865517 30.02395 -0.8298968 16 3206816800592 1 0
-27.390022 27.169418 -1.1227783 7 3206816802896 1 0
-5.447245 4.899273 -2.0509293 3 3206816802896 1 0
-8.06052 7.9979253 -2.2710383 4 3206816805200 1 0
-27.943567 25.139904 0 36 3206816805200 1 0
-26.910555 29.455328 -0.4644792 17 3206816807504 1 0
-11.698867 10.528162 -2.4485707 2 3206816807504 1 0
-15.312816 15.2027445 -2.7465863 6 3206816809808 1 0
-35.780426 29.174873 0.26832443 18 3206816809808 1 0
-27.280327 27.092112 -0.22345646 15 3206816812112 1 0
-18.616098 16.76299 -2.6984172 8 3206816812112 1 0
-16.660555 18.252031 -2.306872 2 3206816814416 1 0
-28.05806 25.272459 0.8786953 16 3206816814416 1 0
-27.039001 29.63052 0.4669937 21 3206816816720 1 0
-21.204952 19.105314 -1.9958723 72 3206816816720 1 0
0 0 0 100 3206816819024 1 0
-36.42103 29.732504 1.3683023 57 3206816819024 1 0
-29.614855 29.444775 0.7289521 61 3206816821328 1 0
-22.870708 18.67617 -1.8923757 7 3206816821328 1 0
-17.049168 18.699604 -1.4737079 6 3206816823632 1 0
-32.837307 29.611845 2.5750935 37 3206816823632 1 0
-29.55792 29.40527 1.6986334 54 3206816825936 1 0
-21.970245 19.818 -1.3782519 4 3206816825936 1 0
-19.361414 19.267027 -1.431493 4 3206816828240 1 0
-32.963444 29.742981 5.4514594 19 3206816828240 1 0
-24.658314 24.545242 2.840271 7 3206816830544 1 0
-24.298704 19.865843 -1.2786971 4 3206816830544 1 0
-26.830008 29.461681 -1.3915128 15 3206816832848 1 0
0 0 0 9 3206816832848 1 0
0 0 0 29 3206816835152 1 0
-24.000614 21.674809 -0.75251603 4 3206816835152 1 0
-2.919214 2.9151409 -1.9237583 4 3206816855888 1 0
-36.605877 30.025633 -0.82640636 16 3206816855888 1 0
-27.306332 27.276165 -1.1232437 7 3206816858192 1 0
-5.427255 4.9156713 -2.049851 3 3206816858192 1 0
-8.032553 8.026013 -2.2710383 4 3206816860496 1 0
-27.840822 25.223864 0 31 3206816860496 1 0
-26.162579 28.838127 -0.45330378 8 3206816862800 1 0
-11.682546 10.587514 -2.4528751 2 3206816862800 1 0
-15.245624 15.242077 -2.744061 6 3206816865104 1 0
-28.88087 23.717388 0.21720284 16 3206816865104 1 0
-27.205389 27.206972 -0.2236192 26 3206816867408 1 0
-18.51917 16.79314 -2.6928482 8 3206816867408 1 0
-16.497776 18.200895 -2.293116 2 3206816869712 1 0
-27.957823 25.359499 0.87832314 16 3206816869712 1 0
-26.81992 29.597277 0.46499142 15 3206816872016 1 0
0 0 0 1 3206816872016 1 0
-18.360374 18.377472 -2.1206837 6 3206816874320 1 0
-36.11936 29.696941 1.3608552 28 3206816874320 1 0
-29.381886 29.417805 0.72574085 60 3206816876624 1 0
-22.620394 18.603754 -1.8770258 10 3206816876624 1 0
-16.881947 18.646513 -1.4648708 6 3206816878928 1 0
-32.609585 29.613537 2.5653262 37 3206816878928 1 0
-29.319569 29.372494 1.6908176 35 3206816881232 1 0
-21.788546 19.792479 -1.3711791 4 3206816881232 1 0
-19.178356 19.218567 -1.42291 4 3206816883536 1 0
-32.709564 29.721697 5.426598 19 3206816883536 1 0
-24.682295 24.74124 2.852964 7 3206816885840 1 0
-25.367702 20.887983 -1.338781 5 3206816885840 1 0
0 0 0 96 3206816888144 1 0
0 0 0 9 3206816888144 1 0
0 0 0 29 3206816890448 1 0
-24.010603 21.836481 -0.7552146 4 3206816890448 1 0
-2.901352 2.9176013 -1.9186869 4 3206816911184 1 0
-36.34051 30.020777 -0.82277626 16 3206816911184 1 0
-27.227867 27.388329 -1.1239419 7 3206816913488 1 0
-5.4157553 4.939778 -2.0520077 2 3206816913488 1 0
-8.010017 8.0595665 -2.272607 4 3206816915792 1 0
-27.7201 25.291237 0 15 3206816915792 1 0
-26.814026 29.764318 -0.46638834 35 3206816918096 1 0
-11.651357 10.633558 -2.454105 2 3206816918096 1 0
-15.197919 15.300832 -2.7450712 6 3206816920400 1 0
0 0 0 8 3206816920400 1 0
-29.269154 29.475922 -0.2414269 12 3206816922704 1 0
-18.419325 16.820137 -2.6868508 8 3206816922704 1 0
-16.431479 18.255411 -2.2927442 2 3206816925008 1 0
-27.969519 25.548634 0.8814869 16 3206816925008 1 0
-26.775301 29.756126 0.46601585 16 3206816927312 1 0
-19.604065 17.912477 -1.8569174 3 3206816927312 1 0
-18.335423 18.481071 -2.12524 6 3206816929616 1 0
-35.898457 29.725939 1.3564334 28 3206816929616 1 0
-29.155098 29.395245 0.72266924 60 3206816931920 1 0
-22.438498 18.585838 -1.8673043 10 3206816931920 1 0
-16.816755 18.705328 -1.4648708 6 3206816934224 1 0
-32.36162 29.595135 2.553931 36 3206816934224 1 0
-29.17747 29.434921 1.688538 8 3206816936528 1 0
-21.651516 19.806383 -1.3668983 4 3206816936528 1 0
-19.094284 19.26837 -1.4216539 4 3206816938832 1 0
-32.465023 29.707045 5.403199 19 3206816938832 1 0
-24.64348 24.875395 2.8584967 7 3206816941136 1 0
-24.217876 20.083467 -1.2817909 4 3206816941136 1 0
-27.13382 30.216372 -1.4181759 31 3206816943440 1 0
0 0 0 9 3206816943440 1 0
0 0 0 29 3206816945744 1 0
-23.957827 21.941767 -0.755959 4 3206816945744 1 0
-2.893697 2.9302907 -1.9203774 4 3206816966480 1 0
0 0 0 58 3206816966480 1 0
-27.019737 27.36939 -1.1192874 23 3206816968784 1 0
-5.4013157 4.961258 -2.053086 2 3206816968784 1 0
-7.9901013 8.095853 -2.2749605 4 3206816971088 1 0
-30.544739 28.064379 0 12 3206816971088 1 0
-27.149975 30.3496 -0.47407147 49 3206816973392 1 0
-11.634538 10.692886 -2.4584093 3 3206816973392 1 0
-15.138844 15.348139 -2.744061 8 3206816975696 1 0
-28.539408 23.772512 0.21587773 16 3206816975696 1 0
-27.444485 27.832003 -0.22717609 16 3206816978000 1 0
-18.331226 16.85741 -2.682567 8 3206816978000 1 0
-16.375618 18.321566 -2.2938597 2 3206816980304 1 0
-28.174479 25.916838 0.8907922 16 3206816980304 1 0
-27.132315 30.36539 0.47407147 38 3206816982608 1 0
-19.394602 17.845707 -1.8429661 3 3206816982608 1 0
-18.377123 18.652882 -2.1376073 3 3206816984912 1 0
-28.646019 23.889559 1.0855423 9 3206816984912 1 0
-28.93444 29.377163 0.71973723 52 3206816987216 1 0
-22.192633 18.513184 -1.8522103 9 3206816987216 1 0
-16.724766 18.734127 -1.4625452 6 3206816989520 1 0
-32.11125 29.57266 2.542303 36 3206816989520 1 0
-28.8895 29.348604 1.6777912 26 3206816991824 1 0
-21.473513 19.781673 -1.3600117 4 3206816991824 1 0
-18.898027 19.203936 -1.4120241 4 3206816994128 1 0
-32.22099 29.69105 5.3798003 28 3206816994128 1 0
-24.657152 25.063578 2.8702133 7 3206816996432 1 0
-24.202839 20.213997 -1.2847217 4 3206816996432 1 0
-27.115976 30.409363 -1.4227827 55 3206816998736 1 0
0 0 0 9 3206816998736 1 0
0 0 0 29 3206817001040 1 0
-23.892847 22.036106 -0.7563312 4 3206817001040 1 0
-2.8834507 2.940374 -1.9203774 5 3206817021776 1 0
-28.119879 23.561945 -0.6403637 17 3206817021776 1 0
-27.022003 27.563469 -1.12336 15 3206817024080 1 0
-5.3867927 4.9826975 -2.0541642 4 3206817024080 1 0
-7.961793 8.123694 -2.2749605 4 3206817026384 1 0
-30.317404 28.0513 0 12 3206817026384 1 0
-27.120903 30.530905 -0.47542185 27 3206817028688 1 0
-11.63195 10.76565 -2.4657884 10 3206817028688 1 0
-15.093506 15.409394 -2.7455761 10 3206817030992 1 0
-28.428673 23.848852 0.2156685 16 3206817030992 1 0
-27.100897 27.676134 -0.22513029 10 3206817033296 1 0
-18.240173 16.891571 -2.6778545 7 3206817033296 1 0
-16.404093 18.48287 -2.306872 2 3206817035600 1 0
-31.965061 29.610334 1.0139008 20 3206817035600 1 0
-27.108446 30.552662 0.47551498 39 3206817037904 1 0
-19.28536 17.869905 -1.8385016 3 3206817037904 1 0
-17.840721 18.235313 -2.0826051 3 3206817040208 1 0
-28.596132 24.017694 1.0868224 13 3206817040208 1 0
-28.711472 29.35504 0.7167354 52 3206817042512 1 0
-22.030071 18.50837 -1.8440238 9 3206817042512 1 0
-16.648672 18.780441 -1.461615 6 3206817044816 1 0
-31.870216 29.556948 2.531373 36 3206817044816 1 0
-28.666746 29.326372 1.6707896 35 3206817047120 1 0
-21.395542 19.848358 -1.3594533 13 3206817047120 1 0
-18.719204 19.15551 -1.4036504 4 3206817049424 1 0
-31.97746 29.673714 5.3564014 28 3206817049424 1 0
-24.619661 25.200825 2.8760715 7 3206817051728 1 0
-24.086252 20.259768 -1.2822794 4 3206817051728 1 0
-27.110367 30.617561 -1.4280874 55 3206817054032 1 0
0 0 0 9 3206817054032 1 0
0 0 0 29 3206817056336 1 0
-23.856802 22.157473 -0.7576339 4 3206817056336 1 0
-2.8756986 2.9530182 -1.9220679 4 3206817077072 1 0
-28.508163 24.05717 -0.6511144 24 3206817077072 1 0
-34.812836 35.75978 -1.4524322 10 3206817079376 1 0
-5.372149 5.004135 -2.0552425 4 3206817079376 1 0
-7.9332685 8.151552 -2.2749605 4 3206817081680 1 0
-30.087202 28.034687 0 12 3206817081680 1 0
-27.135202 30.76396 -0.4775638 22 3206817083984 1 0
-11.579609 10.792966 -2.4627137 37 3206817083984 1 0
-15.044709 15.468113 -2.7465863 10 3206817086288 1 0
-28.362886 23.964254 0.21580797 22 3206817086288 1 0
-27.014267 27.783018 -0.22522327 21 3206817088592 1 0
-18.142673 16.920538 -2.6722856 7 3206817088592 1 0
-16.283371 18.477983 -2.2990644 4 3206817090896 1 0
-31.82512 29.69039 1.0127841 27 3206817090896 1 0
-27.097898 30.759521 0.47723785 39 3206817093200 1 0
-17.717558 18.23846 -2.0757704 3 3206817095504 1 0
-19.114014 17.837364 -1.8281777 3 3206817093200 1 0
-28.574821 24.173254 1.089266 9 3206817095504 1 0
-28.48709 29.333584 0.7137336 44 3206817097808 1 0
-21.884888 18.51955 -1.8373722 9 3206817097808 1 0
-16.502497 18.749722 -1.4546384 6 3206817100112 1 0
-31.630453 29.544939 2.5206754 35 3206817100112 1 0
-28.522879 29.388391 1.66851 35 3206817102416 1 0
-21.263224 19.86734 -1.3555447 8 3206817102416 1 0
-18.63664 19.208029 -1.4026036 4 3206817104720 1 0
-31.73476 29.660522 5.33349 28 3206817104720 1 0
-24.617977 25.380505 2.886486 7 3206817107024 1 0
-24.25436 20.550097 -1.2951429 4 3206817107024 1 0
-27.087296 30.813835 -1.4326942 63 3206817109328 1 0
0 0 0 9 3206817109328 1 0
-23.858654 22.3197 -0.7602394 4 3206817111632 1 0
0 0 0 29 3206817111632 1 0
-2.8623364 2.9609318 -1.9203774 4 3206817132368 1 0
-28.270494 24.034563 -0.6476937 35 3206817132368 1 0
-28.319143 29.302721 -1.1859629 8 3206817134672 1 0
-5.348227 5.018442 -2.053086 4 3206817134672 1 0
-7.9117527 8.188807 -2.277314 4 3206817136976 1 0
-29.856737 28.023453 0 11 3206817136976 1 0
-27.105293 30.955315 -0.4790073 58 3206817139280 1 0
-11.528919 10.82401 -2.4602542 44 3206817139280 1 0
-14.997087 15.530842 -2.7481017 10 3206817141584 1 0
-28.303677 24.089737 0.2160172 33 3206817141584 1 0
-28.345007 29.361942 -0.23719582 11 3206817143888 1 0
-18.04119 16.947483 -2.6662881 7 3206817143888 1 0
-31.572975 29.66715 1.0081314 41 3206817146192 1 0
-16.201418 18.51814 -2.2968338 4 3206817146192 1 0
-27.072382 30.952227 0.4787279 28 3206817148496 1 0
-19.01544 17.872566 -1.8248293 3 3206817148496 1 0
-17.550314 18.195055 -2.0637286 6 3206817150800 1 0
-28.497984 24.282288 1.089615 13 3206817150800 1 0
-28.288849 29.336199 0.7113601 22 3206817153104 1 0
-21.755499 18.542404 -1.8319998 26 3206817153104 1 0
-31.488455 29.620518 2.5176523 35 3206817155408 1 0
-28.336489 29.401857 1.6636251 26 3206817157712 1 0
-21.283665 20.026632 -1.3613145 4 3206817157712 1 0
-16.420633 18.789648 -1.453243 6 3206817155408 1 0
