# .PCD v.7 - Point Cloud Data file format
VERSION .7
FIELDS x y z rgb timestamp_ns device_id active
SIZE 4 4 4 4 8 1 1
TYPE F F F F F U U
COUNT 1 1 1 1 1 1 1
WIDTH 945
HEIGHT 1
VIEWPOINT 0 0 0 1 0 0 0
POINTS 945               
DATA ascii
-9.658261 21.539183 1.9270362 23 3204622629432 1 0
-10.327156 18.067556 -0.8478512 9 3204622629432 1 0
-5.522938 14.134008 -0.52991396 6 3204622631736 1 0
-9.07552 17.855345 5.366872 22 3204622631736 1 0
-9.700821 21.650963 4.3256593 9 3204622634040 1 0
-9.317982 18.338972 -0.47866237 35 3204622634040 1 0
-1.6848991 3.773705 -1.9271393 3 3204622654776 1 0
-10.43979 18.332626 -0.36824578 24 3204622654776 1 0
-12.16297 27.252314 -0.868527 73 3204622657080 1 0
-4.7398505 10.624247 -2.3267355 2 3204622659384 1 0
-9.614455 18.997671 0 40 3204622659384 1 0
-3.3404977 6.5982704 -2.0703387 5 3204622657080 1 0
-10.744844 27.65175 -0.34536767 37 3204622661688 1 0
-7.2546673 14.340027 -2.5002232 12 3204622661688 1 0
-6.506068 14.5945835 -2.0339286 22 3204622663992 1 0
-10.515561 18.490692 0.12363103 26 3204622663992 1 0
-8.760743 19.660019 -0.12509564 34 3204622666296 1 0
-7.4444394 14.725775 -1.7773826 26 3204622666296 1 0
-5.476804 14.112737 -1.4131216 7 3204622668600 1 0
-9.613428 19.023102 0.49597016 20 3204622668600 1 0
-8.566225 22.083141 0.27575397 19 3204622670904 1 0
-8.810782 17.441124 -1.3663898 18 3204622670904 1 0
-6.400215 14.3796215 -1.2849078 7 3204622673208 1 0
-8.959465 20.137476 0.38472086 27 3204622675512 1 0
-9.034209 15.912784 -1.1727254 1 3204622675512 1 0
-5.4729786 14.127243 -0.8823178 6 3204622677816 1 0
-9.923327 19.664743 1.2827793 28 3204622677816 1 0
-10.664419 18.777859 0.6284719 32 3204622673208 1 0
-9.44274 21.240328 0.94701415 31 3204622680120 1 0
-8.785575 17.416395 -0.90865976 54 3204622680120 1 0
-6.3897233 14.37856 -0.82460535 4 3204622682424 1 0
-9.77992 19.394583 2.6669886 37 3204622682424 1 0
0 0 0 17 3204622684728 1 0
-10.258112 18.093063 -0.84736276 3 3204622684728 1 0
-5.462032 14.123374 -0.52879715 6 3204622687032 1 0
-9.644343 21.727854 4.334269 37 3204622689336 1 0
-9.056603 17.973175 5.3927536 20 3204622687032 1 0
0 0 0 3 3204622689336 1 0
-1.6702497 3.776248 -1.9254488 4 3204622710072 1 0
-10.401303 18.414227 -0.3691533 42 3204622710072 1 0
-12.087169 27.338486 -0.86992335 34 3204622712376 1 0
-3.3139896 6.6030054 -2.0681822 4 3204622712376 1 0
-4.6948085 10.622789 -2.3228133 2 3204622714680 1 0
-8.916686 17.772625 0 22 3204622714680 1 0
-10.64682 27.685354 -0.3453211 37 3204622716984 1 0
-7.190392 14.336999 -2.4953039 11 3204622716984 1 0
-6.4679074 14.646244 -2.037969 18 3204622719288 1 0
-10.470605 18.562124 0.1238635 16 3204622719288 1 0
-8.695293 19.697798 -0.12514213 25 3204622721592 1 0
-7.3644814 14.694783 -1.7705284 26 3204622721592 1 0
-5.414656 14.098307 -1.4097756 6 3204622723896 1 0
-8.9093075 17.783724 0.46284345 7 3204622723896 1 0
-8.533526 22.228662 0.27719748 38 3204622726200 1 0
-7.381177 14.738799 -1.152656 7 3204622726200 1 0
-10.638055 18.884644 0.6307991 22 3204622728504 1 0
-6.3274646 14.350804 -1.2803514 8 3204622728504 1 0
-8.890731 20.172287 0.38479066 20 3204622730808 1 0
-8.972733 15.933786 -1.171958 1 3204622730808 1 0
-5.406478 14.101519 -0.8795271 6 3204622733112 1 0
-9.788522 19.567125 1.2741748 28 3204622733112 1 0
-9.389481 21.32071 0.94913095 46 3204622735416 1 0
-8.72294 17.443382 -0.9084737 58 3204622735416 1 0
-6.3185716 14.35325 -0.82188386 6 3204622737720 1 0
-9.683757 19.371782 2.659189 27 3204622737720 1 0
-8.650184 19.657486 1.7532417 8 3204622740024 1 0
-12.575138 22.36136 -1.0452001 9 3204622740024 1 0
-5.4026966 14.1162195 -0.52782 6 3204622742328 1 0
-8.98863 17.99431 5.389648 18 3204622742328 1 0
-9.30551 21.163408 4.2151685 20 3204622744632 1 0
-1.657058 3.7820551 -1.9254488 3 3204622765368 1 0
-8.877089 17.777483 -0.46237817 30 3204622744632 1 0
-10.313505 18.408552 -0.36831558 30 3204622765368 1 0
0 0 0 9 3204622767672 1 0
-3.287489 6.607636 -2.0660255 6 3204622767672 1 0
-4.6639915 10.653484 -2.325951 2 3204622769976 1 0
-10.571455 27.778423 -0.34601957 28 3204622772280 1 0
-7.131505 14.344316 -2.4922295 9 3204622772280 1 0
-9.453094 19.007025 0 58 3204622769976 1 0
-6.39925 14.628742 -2.0324132 16 3204622774584 1 0
-10.335438 18.472895 0.12302659 33 3204622774584 1 0
-8.392511 19.192957 -0.12174797 10 3204622776888 1 0
-7.2866006 14.666976 -1.7641026 25 3204622776888 1 0
-5.349847 14.07617 -1.4056861 6 3204622779192 1 0
-9.50529 19.139894 0.49727288 37 3204622779192 1 0
-8.409007 22.134928 0.27566084 30 3204622781496 1 0
0 0 0 3 3204622781496 1 0
-6.25978 14.332616 -1.2767713 8 3204622783800 1 0
-10.536966 18.858833 0.6287046 19 3204622783800 1 0
-8.516226 19.506788 0.37152684 14 3204622786104 1 0
-9.012439 16.135778 -1.1844937 1 3204622786104 1 0
-5.3402233 14.075501 -0.87673646 6 3204622788408 1 0
-9.77693 19.715654 1.2816166 18 3204622788408 1 0
-9.297422 21.313059 0.94733983 21 3204622790712 1 0
-8.683293 17.516684 -0.9107072 64 3204622790712 1 0
-6.2524643 14.338603 -0.8197904 6 3204622793016 1 0
-9.626655 19.426811 2.662114 27 3204622793016 1 0
-9.460852 21.704924 1.9328945 10 3204622795320 1 0
-10.034206 17.989716 -0.8392213 5 3204622795320 1 0
-5.3250713 14.060224 -0.52502805 6 3204622797624 1 0
-8.960054 18.094826 5.410353 14 3204622797624 1 0
-9.259863 21.260702 4.2280827 12 3204622799928 1 0
-9.244287 18.675663 -0.4848969 28 3204622799928 1 0
-1.643846 3.7878163 -1.9254488 3 3204622820664 1 0
-9.88786 17.7942 -0.355331 28 3204622820664 1 0
-12.740959 29.369928 -0.9317116 5 3204622822968 1 0
-3.2678115 6.6259804 -2.0681822 5 3204622822968 1 0
-4.6236544 10.662503 -2.324382 2 3204622825272 1 0
-9.149678 18.559156 0 22 3204622825272 1 0
-10.4857025 27.8451 -0.34639207 28 3204622827576 1 0
-7.0744014 14.35494 -2.4897697 8 3204622827576 1 0
-6.324484 14.596377 -2.0248373 21 3204622829880 1 0
-10.28836 18.540337 0.123235814 31 3204622829880 1 0
0 0 0 94 3204622832184 1 0
-7.2125177 14.64594 -1.7585335 25 3204622832184 1 0
-5.289464 14.064937 -1.4027119 7 3204622834488 1 0
-9.390735 19.076088 0.49476045 30 3204622834488 1 0
-8.335913 22.175377 0.27580056 30 3204622836792 1 0
-7.2499123 14.732686 -1.1481916 1 3204622836792 1 0
-10.3838625 18.738125 0.62346834 16 3204622839096 1 0
-9.375117 21.68019 0.41229564 73 3204622841400 1 0
-8.9696 16.191582 -1.1862844 1 3204622841400 1 0
-6.189134 14.306811 -1.2725403 8 3204622839096 1 0
-5.27562 14.052934 -0.8741783 6 3204622843704 1 0
-9.378635 19.079514 1.2381285 36 3204622843704 1 0
-9.303817 21.532494 0.95564413 16 3204622846008 1 0
-8.645004 17.593508 -0.91312677 48 3204622846008 1 0
-6.186537 14.323669 -0.817697 6 3204622848312 1 0
-9.592041 19.528004 2.671376 22 3204622848312 1 0
-9.3234005 21.59507 1.9202015 23 3204622850616 1 0
-9.915243 17.923212 -0.83449924 3 3204622850616 1 0
-5.2633348 14.045036 -0.52377164 6 3204622852920 1 0
0 0 0 9 3204622852920 1 0
-9.177799 21.274828 4.2244954 33 3204622855224 1 0
-9.210747 18.772438 -0.48657185 37 3204622855224 1 0
-1.630614 3.7935314 -1.9254488 4 3204622875960 1 0
-9.796731 17.776068 -0.35428384 15 3204622875960 1 0
-6.38942 14.870585 -0.47103393 2 3204622878264 1 0
-3.2446625 6.6373467 -2.0681822 5 3204622878264 1 0
-4.5848594 10.6749735 -2.3235977 1 3204622880568 1 0
-8.933805 18.28191 0 22 3204622880568 1 0
-12.431497 33.364887 -0.4145157 3 3204622882872 1 0
-7.0259852 14.383099 -2.4903846 8 3204622882872 1 0
-6.2547164 14.574609 -2.0187764 18 3204622885176 1 0
-10.254437 18.632206 0.12360778 33 3204622885176 1 0
-8.412854 19.611326 -0.12402624 40 3204622887480 1 0
-7.136926 14.620992 -1.752536 23 3204622887480 1 0
-5.22228 14.03479 -1.3978788 7 3204622889784 1 0
-9.308307 19.076406 0.49392298 31 3204622889784 1 0
-8.271004 22.23808 0.27621964 11 3204622892088 1 0
-7.1861963 14.732799 -1.1462383 1 3204622892088 1 0
-6.1250253 14.295348 -1.2696112 10 3204622894392 1 0
-10.289504 18.721697 0.6217229 31 3204622894392 1 0
-9.168694 21.40764 0.40650144 36 3204622896696 1 0
-8.911103 16.219294 -1.1860286 1 3204622896696 1 0
-5.2154107 14.041316 -0.87231785 7 3204622899000 1 0
-9.357453 19.205471 1.2441751 48 3204622899000 1 0
0 0 0 14 3204622901304 1 0
-10.033957 20.601551 -1.0674239 24 3204622901304 1 0
-6.1160765 14.297434 -0.8149755 6 3204622903608 1 0
-9.567265 19.650606 2.683563 28 3204622903608 1 0
-9.2558 21.645811 1.9218289 27 3204622905912 1 0
0 0 0 54 3204622905912 1 0
-5.204548 14.037086 -0.5227945 6 3204622908216 1 0
-8.801395 18.090925 5.390683 18 3204622908216 1 0
-9.083381 21.259693 4.2151685 28 3204622910520 1 0
-10.177032 20.926228 -0.54147285 30 3204622910520 1 0
-1.6173623 3.7992003 -1.9254488 4 3204622931256 1 0
-9.682831 17.715403 -0.352399 22 3204622931256 1 0
-6.3891373 15.014207 -0.47487387 6 3204622933560 1 0
-4.5521746 10.701741 -2.325951 1 3204622935864 1 0
-8.8437805 18.258984 0 31 3204622935864 1 0
-19.159979 51.977295 -0.644916 8 3204622938168 1 0
-6.961957 14.379077 -2.4854655 8 3204622938168 1 0
-6.172761 14.523316 -2.0086749 11 3204622940472 1 0
-3.2214742 6.648632 -2.0681822 6 3204622933560 1 0
-10.507453 19.25071 0.12746689 27 3204622940472 1 0
-8.344346 19.640574 -0.12402624 53 3204622942776 1 0
-7.0615973 14.595695 -1.7465386 23 3204622942776 1 0
-5.1636267 14.026772 -1.3952763 7 3204622945080 1 0
-9.229474 19.083582 0.49327162 31 3204622945080 1 0
-10.481991 28.486658 0.35337672 15 3204622947384 1 0
-7.138199 14.764977 -1.1467965 1 3204622947384 1 0
-6.053285 14.265262 -1.2650548 10 3204622949688 1 0
-10.160943 18.64165 0.61788297 19 3204622949688 1 0
-9.114213 21.48738 0.40740898 49 3204622951992 1 0
-8.94611 16.418552 -1.1983085 1 3204622951992 1 0
-5.155347 14.02945 -0.8704574 6 3204622954296 1 0
-9.307722 19.273975 1.2465006 36 3204622954296 1 0
-10.856344 25.615297 1.1334535 17 3204622956600 1 0
-8.412534 17.426737 -0.9014009 14 3204622956600 1 0
-6.0474334 14.274559 -0.8124634 6 3204622958904 1 0
-9.529672 19.748243 2.6923375 31 3204622958904 1 0
-9.139765 21.582539 1.9133669 26 3204622961208 1 0
-12.563514 23.089437 -1.0709271 60 3204622961208 1 0
-5.147258 14.032649 -0.52195686 6 3204622963512 1 0
-8.7684 18.184181 5.409318 6 3204622963512 1 0
-8.992248 21.251406 4.207276 23 3204622965816 1 0
-9.201013 19.088444 -0.49308553 36 3204622965816 1 0
-1.6083157 3.8148441 -1.9305202 3 3204622986552 1 0
-9.681922 17.861607 -0.35463288 22 3204622986552 1 0
-6.3491106 15.065893 -0.47580478 10 3204622988856 1 0
-3.196579 6.6563644 -2.0671039 6 3204622988856 1 0
-4.5087004 10.703107 -2.3228133 1 3204622991160 1 0
-18.31932 50.236416 -0.62251854 7 3204622993464 1 0
-8.991181 18.729677 0 24 3204622991160 1 0
-6.9083023 14.396164 -2.4842355 8 3204622993464 1 0
-6.1127915 14.522831 -2.0056446 11 3204622995768 1 0
-10.400206 19.2134 0.1269787 22 3204622995768 1 0
-6.9916906 14.58081 -1.7418264 22 3204622998072 1 0
-8.283493 19.688015 -0.124142475 21 3204622998072 1 0
-5.1010046 14.007287 -1.3915586 9 3204623000376 1 0
-9.147246 19.08323 0.49243414 26 3204623000376 1 0
-11.1664095 30.676682 0.38005808 17 3204623002680 1 0
-7.0452347 14.703441 -1.1400998 1 3204623002680 1 0
-5.9849195 14.242199 -1.2611493 8 3204623004984 1 0
-10.025462 18.546862 0.61357754 24 3204623004984 1 0
-8.128423 19.350933 0.3663609 28 3204623007288 1 0
-8.919107 16.50587 -1.2024018 2 3204623007288 1 0
-5.0940657 14.013584 -0.8683644 6 3204623009592 1 0
-9.393819 19.62692 1.2671981 21 3204623009592 1 0
-10.746757 25.605127 1.1313367 12 3204623011896 1 0
-9.957142 20.81167 -1.0746828 8 3204623011896 1 0
-5.9836607 14.26243 -0.8105793 6 3204623014200 1 0
-9.477809 19.817205 2.6972122 23 3204623014200 1 0
-12.4638605 23.097979 -1.0692989 40 3204623016504 1 0
-5.095516 14.043015 -0.5216777 6 3204623018808 1 0
-9.047412 21.57387 1.9097869 26 3204623016504 1 0
-8.00515 16.750532 4.974502 12 3204623018808 1 0
-9.06705 21.638344 4.277589 9 3204623021112 1 0
-9.5239 19.935923 -0.5141154 42 3204623021112 1 0
-9.600578 17.860067 -0.3539348 15 3204623042296 1 0
-6.3211203 15.147002 -0.47766656 10 3204623044600 1 0
-3.1733243 6.667482 -2.0671039 5 3204623044600 1 0
-4.4788623 10.73688 -2.3267355 2 3204623046904 1 0
-1.5921963 3.8137443 -1.9271393 3 3204623042296 1 0
-8.655948 18.193857 0 24 3204623046904 1 0
-11.125985 30.84448 -0.3817344 6 3204623049208 1 0
-6.858008 14.420191 -2.4842355 8 3204623049208 1 0
-6.0529003 14.522105 -2.002614 9 3204623051512 1 0
-10.183622 18.971169 0.12514213 32 3204623051512 1 0
-9.13003 21.91372 -0.13797483 47 3204623053816 1 0
-6.9168534 14.554838 -1.735829 20 3204623053816 1 0
-9.011942 18.97056 0.48871204 26 3204623056120 1 0
-10.198854 28.325823 0.35048974 46 3204623058424 1 0
-6.9510756 14.637832 -1.1331241 1 3204623058424 1 0
-5.922915 14.233558 -1.2585456 10 3204623060728 1 0
-5.0399313 13.991285 -1.3882126 7 3204623056120 1 0
-10.070222 18.786133 0.6203265 25 3204623060728 1 0
-8.03625 19.320105 0.36524397 28 3204623063032 1 0
0 0 0 95 3204623063032 1 0
-5.0316067 13.993703 -0.86603886 6 3204623065336 1 0
-9.215723 19.428684 1.2523146 36 3204623065336 1 0
-10.677253 25.690464 1.1334535 25 3204623067640 1 0
-8.254719 17.409224 -0.8974923 4 3204623067640 1 0
-5.918514 14.246342 -0.80848587 6 3204623069944 1 0
-9.063788 21.826233 1.9293144 23 3204623072248 1 0
-10.046244 21.195517 2.8800163 24 3204623069944 1 0
-12.379386 23.134296 -1.0689732 20 3204623072248 1 0
-5.0154066 13.974177 -0.51846695 6 3204623074552 1 0
-7.98963 16.869162 5.001419 14 3204623074552 1 0
-11.253656 27.121857 5.3538017 9 3204623076856 1 0
-10.077122 21.284653 -0.5479865 17 3204623076856 1 0
-1.5774891 3.8159285 -1.9254488 4 3204623097592 1 0
-9.521245 17.861708 -0.3533065 15 3204623097592 1 0
-6.2745376 15.183664 -0.478132 6 3204623099896 1 0
-3.1484852 6.6749887 -2.0660255 5 3204623099896 1 0
-4.428191 10.719693 -2.3196752 2 3204623102200 1 0
-9.239475 19.594923 0 36 3204623102200 1 0
0 0 0 32 3204623104504 1 0
-6.8065753 14.440169 -2.4836206 7 3204623104504 1 0
-5.912178 14.322728 -1.9723097 2 3204623106808 1 0
-10.159798 19.083687 0.12565358 34 3204623106808 1 0
-9.137465 22.144464 -0.1392302 57 3204623109112 1 0
-6.843339 14.528025 -1.7298316 21 3204623109112 1 0
-4.9775777 13.96709 -1.3841231 7 3204623111416 1 0
-8.95925 19.026445 0.4893634 29 3204623111416 1 0
-10.059854 28.239653 0.34899968 18 3204623113720 1 0
-6.886135 14.628811 -1.130613 1 3204623113720 1 0
-5.859661 14.216603 -1.2552911 8 3204623116024 1 0
-9.993635 18.795294 0.619512 22 3204623116024 1 0
-12.354387 23.242563 -1.686944 82 3204623118328 1 0
-4.974058 13.980359 -0.8641784 6 3204623120632 1 0
-9.092902 19.33654 1.2444077 30 3204623120632 1 0
-7.998718 19.413557 0.36650053 26 3204623118328 1 0
-10.61445 25.781319 1.135896 4 3204623122936 1 0
-5.854516 14.225257 -0.8061831 6 3204623125240 1 0
-8.155892 17.349836 -0.89302534 22 3204623122936 1 0
-9.349453 19.895632 2.6991622 21 3204623125240 1 0
-9.026566 21.940838 1.9367999 27 3204623127544 1 0
-4.9587417 13.960451 -0.51735014 6 3204623129848 1 0
-9.716792 18.303518 -0.844269 33 3204623127544 1 0
-7.904576 16.83238 4.9827843 5 3204623129848 1 0
-12.333393 30.00105 5.91415 16 3204623132152 1 0
0 0 0 1 3204623132152 1 0
-1.5641189 3.817511 -1.9237583 3 3204623152888 1 0
-9.468824 17.898602 -0.35344613 28 3204623152888 1 0
-6.200713 15.140537 -0.47615385 6 3204623155192 1 0
-3.1240892 6.6779375 -2.063869 4 3204623155192 1 0
-4.3940244 10.733743 -2.3196752 2 3204623157496 1 0
-8.802546 18.823484 0 35 3204623157496 1 0
-10.692711 30.272923 -0.3737719 19 3204623159800 1 0
-6.7635775 14.469086 -2.4848504 7 3204623159800 1 0
-5.847875 14.297671 -1.9662488 4 3204623162104 1 0
-9.02759 22.081488 -0.13864902 42 3204623164408 1 0
-10.0757065 19.073952 0.1253746 34 3204623162104 1 0
-6.772515 14.499746 -1.723834 23 3204623164408 1 0
-4.9185967 13.9457445 -1.3804053 9 3204623166712 1 0
-8.880021 19.019428 0.48843288 26 3204623166712 1 0
-9.990705 28.340538 0.34983784 19 3204623169016 1 0
-6.7619667 14.488704 -1.1180568 1 3204623169016 1 0
-5.7989216 14.202738 -1.252362 8 3204623171320 1 0
-9.778292 18.538338 0.60997033 24 3204623171320 1 0
-8.822466 21.617445 0.4075486 13 3204623173624 1 0
-9.264338 17.57045 -1.2730108 40 3204623173624 1 0
-4.9111485 13.951792 -0.8613877 4 3204623175928 1 0
-8.980645 19.26564 1.2378961 24 3204623175928 1 0
0 0 0 4 3204623178232 1 0
-12.719873 31.194386 1.3724867 6 3204623178232 1 0
-5.787976 14.20071 -0.80367094 4 3204623180536 1 0
-9.281686 19.927336 2.6991622 26 3204623180536 1 0
-8.958881 21.990088 1.9384272 20 3204623182840 1 0
-12.325893 23.411552 -1.0779288 30 3204623182840 1 0
-7.751951 16.656359 4.922738 10 3204623185144 1 0
-4.89999 13.9472885 -0.5162334 6 3204623185144 1 0
-12.247053 30.087389 5.92276 16 3204623187448 1 0
-12.703088 27.305601 -0.70077884 8 3204623187448 1 0
-1.5501165 3.823218 -1.9237583 3 3204623208184 1 0
-9.611169 18.329891 -0.36126482 38 3204623208184 1 0
-6.113752 15.0853 -0.47371027 6 3204623210488 1 0
-3.1044993 6.6998053 -2.0671039 6 3204623210488 1 0
-4.359228 10.760618 -2.3220286 2 3204623212792 1 0
-8.738813 18.866383 0 28 3204623212792 1 0
-10.558615 30.243708 -0.37293375 29 3204623215096 1 0
-6.707495 14.486458 -2.4836206 7 3204623215096 1 0
-5.780961 14.28206 -1.9611981 4 3204623217400 1 0
-10.006285 19.11046 0.1253746 32 3204623217400 1 0
-6.9085817 17.075024 -0.10705545 22 3204623219704 1 0
-6.7014837 14.484524 -1.7191218 23 3204623219704 1 0
-4.8575706 13.93338 -1.377431 9 3204623222008 1 0
-8.789261 19.00428 0.4872232 19 3204623222008 1 0
-9.942171 28.531319 0.35174698 11 3204623224312 1 0
-7.0494714 15.2483 -1.1746991 1 3204623224312 1 0
-5.72525 14.168117 -1.2474802 10 3204623226616 1 0
-10.365331 19.82424 0.65104616 28 3204623226616 1 0
-6.897712 17.076727 0.32147333 17 3204623228920 1 0
-9.151103 17.508167 -1.2661035 50 3204623228920 1 0
-4.8531218 13.946716 -0.8599924 6 3204623231224 1 0
-8.951555 19.384787 1.2434773 15 3204623231224 1 0
-12.619921 31.26944 1.3737893 6 3204623233528 1 0
-7.9879336 17.304655 -0.88781387 4 3204623233528 1 0
-5.719197 14.176875 -0.80115885 6 3204623235832 1 0
-9.087235 19.693655 2.6630888 22 3204623235832 1 0
-8.829612 21.896223 1.9273616 23 3204623238136 1 0
-9.139132 17.51007 -0.8047015 27 3204623238136 1 0
-4.843702 13.94578 -0.51553535 6 3204623240440 1 0
-8.338425 20.695501 4.0680857 8 3204623242744 1 0
-12.612601 27.36513 -0.7011511 4 3204623242744 1 0
-7.6763716 16.64879 4.9123855 5 3204623240440 1 0
-9.530523 18.331392 -0.36063653 34 3204623263480 1 0
-1.5448639 3.8487916 -1.9339012 5 3204623263480 1 0
-6.0178804 14.998938 -0.47033575 6 3204623265784 1 0
-3.0810938 6.710601 -2.0671039 6 3204623265784 1 0
-4.32164 10.775769 -2.3220286 2 3204623268088 1 0
-8.664561 18.878595 0 20 3204623268088 1 0
-10.45298 30.28038 -0.37293375 32 3204623270392 1 0
-6.6486464 14.491821 -2.4805462 7 3204623270392 1 0
-5.7266445 14.291101 -1.9596828 20 3204623272696 1 0
-9.900812 19.070723 0.1248864 22 3204623272696 1 0
-8.890976 22.197184 -0.13897447 31 3204623275000 1 0
-6.6343093 14.471677 -1.7148379 26 3204623275000 1 0
-4.798521 13.92013 -1.3744569 9 3204623277304 1 0
-8.704545 18.994854 0.48619962 17 3204623277304 1 0
0 0 0 64 3204623279608 1 0
-9.880303 28.675514 0.35309735 42 3204623279608 1 0
-5.660951 14.151 -1.2442255 10 3204623281912 1 0
-9.74952 18.806053 0.6164866 22 3204623281912 1 0
-8.673424 21.690596 0.40775803 52 3204623284216 1 0
-9.053198 17.46912 -1.2609868 47 3204623284216 1 0
-4.791417 13.925812 -0.85766685 6 3204623286520 1 0
-10.311031 22.535099 1.443243 22 3204623286520 1 0
-11.18652 27.998997 1.228383 14 3204623288824 1 0
-6.8372445 14.94877 -0.7657162 19 3204623288824 1 0
-5.656342 14.163366 -0.79927474 6 3204623291128 1 0
-9.011833 19.710812 2.661139 20 3204623291128 1 0
-8.787122 22.012072 1.9348471 23 3204623293432 1 0
-9.063259 17.513468 -0.8033989 42 3204623293432 1 0
-4.784605 13.932356 -0.5144186 6 3204623295736 1 0
-7.7000914 16.854713 4.9651847 17 3204623295736 1 0
-8.285086 20.771997 4.077413 8 3204623298040 1 0
-15.55032 34.051167 -0.871065 5 3204623298040 1 0
-1.5260651 3.8406847 -1.9271393 3 3204623318776 1 0
-9.499461 18.428537 -0.3618931 26 3204623318776 1 0
-5.9330187 14.938102 -0.4677758 6 3204623321080 1 0
-4.283999 10.79079 -2.3220286 2 3204623323384 1 0
-3.0592456 6.7248216 -2.0681822 5 3204623321080 1 0
-8.868506 19.50224 0 28 3204623323384 1 0
-10.373057 30.39239 -0.37386504 32 3204623325688 1 0
-6.5963845 14.511343 -2.479931 7 3204623325688 1 0
-5.688429 14.340511 -1.9637234 23 3204623327992 1 0
-9.812215 19.06249 0.12460743 30 3204623327992 1 0
-10.986575 27.70888 -0.17324153 11 3204623330296 1 0
-6.560727 14.444053 -1.7088405 46 3204623330296 1 0
-4.738338 13.902867 -1.3711109 7 3204623332600 1 0
-8.628268 19.003277 0.4856413 24 3204623332600 1 0
-9.820129 28.827198 0.35454082 11 3204623334904 1 0
-6.5816875 14.5014 -1.1135924 25 3204623334904 1 0
-5.59831 14.137314 -1.2412964 10 3204623337208 1 0
-9.603392 18.683504 0.6113667 24 3204623337208 1 0
-8.805202 22.245071 0.41760117 55 3204623339512 1 0
-4.7312036 13.908428 -0.85557383 6 3204623341816 1 0
-8.959326 17.436707 -1.2563819 51 3204623339512 1 0
-10.463135 23.080128 1.4758009 11 3204623341816 1 0
0 0 0 58 3204623344120 1 0
-6.773477 14.947069 -0.7644133 14 3204623344120 1 0
-5.5951195 14.153306 -0.7976 4 3204623346424 1 0
-9.088776 20.064013 2.7045245 21 3204623346424 1 0
-8.958282 17.459656 -0.799491 40 3204623348728 1 0
-4.729517 13.930045 -0.5137206 6 3204623351032 1 0
-7.633244 16.86389 4.960008 10 3204623351032 1 0
-8.208192 20.78981 4.0752606 11 3204623353336 1 0
-8.740999 22.120472 1.9416817 27 3204623348728 1 0
-12.413009 27.434298 -0.7006858 4 3204623353336 1 0
-1.5126493 3.8459883 -1.9271393 4 3204623374072 1 0
-9.405954 18.404604 -0.36077616 28 3204623374072 1 0
-5.8443747 14.865651 -0.46486673 6 3204623376376 1 0
-3.0326364 6.7284136 -2.0660255 5 3204623376376 1 0
-4.2421594 10.794664 -2.3196752 2 3204623378680 1 0
-8.785872 19.500128 0 28 3204623378680 1 0
-10.505427 31.13309 -0.38252598 10 3204623380984 1 0
-6.542761 14.52693 -2.4787014 7 3204623380984 1 0
-5.6416545 14.367503 -1.9647336 9 3204623383288 1 0
-9.640708 18.889702 0.12325907 35 3204623383288 1 0
-10.864489 27.679644 -0.17282307 34 3204623385592 1 0
-6.4944725 14.430363 -1.7045566 32 3204623385592 1 0
-8.616855 19.153252 0.48871204 33 3204623387896 1 0
-4.6789403 13.88515 -1.367765 9 3204623387896 1 0
-9.700485 28.800158 0.3537958 42 3204623390200 1 0
-6.4973984 14.447531 -1.1077328 12 3204623390200 1 0
-9.519233 18.677174 0.6100867 20 3204623392504 1 0
-5.5381103 14.126753 -1.2386928 10 3204623392504 1 0
-8.731874 22.282549 0.4177408 44 3204623394808 1 0
-8.863306 17.396156 -1.2512653 50 3204623394808 1 0
-4.669634 13.882884 -0.8530157 6 3204623397112 1 0
-10.133828 22.558441 1.4402199 22 3204623397112 1 0
-10.927451 27.90806 1.2210556 18 3204623399416 1 0
-6.475297 14.419686 -0.7363085 6 3204623399416 1 0
-8.974912 19.993412 2.690875 28 3204623401720 1 0
-5.532359 14.135069 -0.79550654 6 3204623401720 1 0
-8.683256 22.194582 1.9455873 23 3204623404024 1 0
-8.880812 17.454357 -0.7978627 30 3204623404024 1 0
-4.660653 13.881568 -0.5113474 6 3204623406328 1 0
-7.601352 16.946066 4.9765725 21 3204623406328 1 0
-8.147872 20.843103 4.0802827 27 3204623408632 1 0
-12.298897 27.42868 -0.6994761 4 3204623408632 1 0
-1.4998872 3.8509834 -1.9271393 3 3204623429368 1 0
-9.460597 18.664 -0.36524397 18 3204623429368 1 0
-5.7600174 14.795612 -0.46207404 5 3204623431672 1 0
-3.0102096 6.738477 -2.0660255 6 3204623431672 1 0
-4.2074475 10.81245 -2.3204598 2 3204623433976 1 0
-8.732008 19.554976 0 32 3204623433976 1 0
-12.08211 36.206722 -0.44436342 12 3204623436280 1 0
-6.4890842 14.538002 -2.4768567 9 3204623436280 1 0
-5.736925 14.75629 -2.015241 11 3204623438584 1 0
-8.971808 17.726555 0.1154711 21 3204623438584 1 0
-10.760483 27.690205 -0.17266034 46 3204623440888 1 0
-6.430954 14.4196 -1.7007011 14 3204623440888 1 0
-4.619067 13.863209 -1.3640472 7 3204623443192 1 0
-8.240622 18.484856 0.470939 11 3204623443192 1 0
-9.680345 29.068424 0.35668278 27 3204623445496 1 0
-6.413872 14.393114 -1.1018733 6 3204623445496 1 0
-5.473722 14.104795 -1.2351127 10 3204623447800 1 0
-8.951927 17.71412 0.57762164 13 3204623447800 1 0
-10.814428 27.879457 0.5219666 12 3204623450104 1 0
-8.77989 17.380285 -1.2479395 50 3204623450104 1 0
-4.6114697 13.868651 -0.8511553 6 3204623452408 1 0
-10.091401 22.673645 1.4453361 45 3204623452408 1 0
-10.847705 27.990597 1.2230096 28 3204623454712 1 0
-6.4040194 14.3946495 -0.73388886 4 3204623454712 1 0
-5.464227 14.105871 -0.79278505 6 3204623457016 1 0
-8.901841 20.017365 2.6899002 26 3204623457016 1 0
-8.726325 22.537176 1.9729258 14 3204623459320 1 0
-8.850175 17.546043 -0.8006308 27 3204623459320 1 0
-4.6004333 13.86374 -0.51009107 5 3204623461624 1 0
-7.450664 16.767927 4.916527 10 3204623461624 1 0
-8.088353 20.908472 4.0874577 13 3204623463928 1 0
-12.195387 27.457357 -0.6991039 4 3204623463928 1 0
-1.4831561 3.849689 -1.9237583 3 3204623484664 1 0
-8.912827 17.744322 -0.3466048 19 3204623484664 1 0
-5.6613145 14.700916 -0.45846683 5 3204623486968 1 0
-2.9855406 6.749443 -2.0660255 6 3204623486968 1 0
-4.1721745 10.838719 -2.3228133 2 3204623489272 1 0
-8.600711 19.451365 0 32 3204623489272 1 0
-10.113081 30.677885 -0.37605354 52 3204623491576 1 0
-6.4296827 14.547088 -2.474397 8 3204623491576 1 0
-5.706022 14.8363085 -2.023322 18 3204623493880 1 0
-9.40583 18.753023 0.12193395 20 3204623493880 1 0
-10.678588 27.777607 -0.17296255 42 3204623496184 1 0
-6.3625183 14.406462 -1.6964172 24 3204623496184 1 0
-4.5563784 13.842016 -1.3603294 7 3204623498488 1 0
-8.63229 19.553532 0.49736595 82 3204623498488 1 0
-9.57397 29.099422 0.35663623 15 3204623500792 1 0
-6.3424773 14.372395 -1.0985249 9 3204623500792 1 0
-5.407092 14.083508 -1.2315327 10 3204623503096 1 0
-9.459139 18.88672 0.61474115 22 3204623503096 1 0
-10.714 27.918205 0.5219666 45 3204623505400 1 0
-7.376975 14.734691 -1.0560669 17 3204623505400 1 0
-4.552893 13.858572 -0.84952736 4 3204623507704 1 0
-10.072696 22.852259 1.4544058 18 3204623507704 1 0
-10.767316 28.081553 1.2252891 14 3204623510008 1 0
-6.331427 14.369982 -0.7314693 4 3204623510008 1 0
-5.397998 14.084302 -0.7904823 6 3204623512312 1 0
-8.820562 20.027285 2.6869752 13 3204623512312 1 0
-8.647223 22.571915 1.9732512 10 3204623514616 1 0
-8.81785 17.638304 -0.8033989 27 3204623514616 1 0
-4.5435295 13.857253 -0.50925344 5 3204623516920 1 0
-7.3192763 16.631697 4.868904 10 3204623516920 1 0
-12.100888 27.507874 -0.69929 4 3204623519224 1 0
-11.740288 30.672468 5.98805 11 3204623519224 1 0
-1.4722921 3.8616176 -1.9271393 3 3204623539960 1 0
-9.255493 18.588015 -0.36245158 50 3204623539960 1 0
-5.5587053 14.586085 -0.45427778 5 3204623542264 1 0
-2.9604166 6.756295 -2.0649474 4 3204623542264 1 0
-4.1259375 10.831224 -2.3181064 2 3204623544568 1 0
-8.46215 19.320055 0 36 3204623544568 1 0
-9.924162 30.462002 -0.3729803 32 3204623546872 1 0
-6.378865 14.569443 -2.474397 8 3204623546872 1 0
-5.4424834 14.299866 -1.947561 2 3204623549176 1 0
-9.315381 18.7356 0.12160848 17 3204623549176 1 0
-10.58725 27.829668 -0.17305554 42 3204623551480 1 0
-6.289876 14.377573 -1.6904198 19 3204623551480 1 0
-4.5006404 13.835113 -1.3580987 7 3204623553784 1 0
-8.5591755 19.572554 0.4970868 26 3204623553784 1 0
-9.462441 29.102236 0.3562637 42 3204623556088 1 0
-6.274689 14.354228 -1.0954556 7 3204623556088 1 0
-5.343739 14.065027 -1.228278 10 3204623558392 1 0
-9.448273 19.030642 0.6183484 18 3204623558392 1 0
-10.713034 28.209677 0.5267136 42 3204623560696 1 0
-7.318398 14.746049 -1.0550436 8 3204623560696 1 0
-4.493392 13.840198 -0.84743434 6 3204623563000 1 0
-9.956115 22.80311 1.449057 26 3204623563000 1 0
-10.921602 28.784105 1.2542727 30 3204623565304 1 0
-6.263647 14.351712 -0.7294219 4 3204623565304 1 0
-5.334636 14.06571 -0.78838885 6 3204623567608 1 0
-8.928406 20.465517 2.7415729 22 3204623567608 1 0
-8.566967 22.598232 1.9729258 7 3204623569912 1 0
-10.222105 20.626936 -0.9378957 25 3204623569912 1 0
-4.4865055 13.846408 -0.5082763 5 3204623572216 1 0
-7.265808 16.667768 4.8720098 12 3204623572216 1 0
-10.382858 27.412306 5.344475 9 3204623574520 1 0
-15.464859 35.49049 -0.90084183 11 3204623574520 1 0
-1.4536849 3.8531659 -1.9203774 3 3204623595256 1 0
-9.220645 18.681177 -0.36363834 30 3204623595256 1 0
-5.4527354 14.459496 -0.44973966 5 3204623597560 1 0
-4.083954 10.83455 -2.315753 2 3204623599864 1 0
-8.40421 19.371492 0 38 3204623599864 1 0
-2.9414155 6.7771883 -2.0681822 4 3204623597560 1 0
-6.3263965 14.587995 -2.473782 7 3204623602168 1 0
-5.346385 14.196235 -1.9308937 11 3204623604472 1 0
-9.251694 18.77159 0.12163173 19 3204623604472 1 0
-9.702554 30.13857 -0.36860326 25 3204623602168 1 0
-11.575121 30.748932 -0.19095623 21 3204623606776 1 0
-4.443788 13.824198 -1.3554963 7 3204623609080 1 0
-6.227 14.370248 -1.6869928 23 3204623606776 1 0
-8.479676 19.576624 0.4964354 28 3204623609080 1 0
-9.517403 29.622513 0.36222395 20 3204623611384 1 0
-6.207105 14.335764 -1.0923864 7 3204623611384 1 0
-5.2805815 14.046278 -1.2250235 8 3204623613688 1 0
-9.381785 19.063507 0.6183484 40 3204623613688 1 0
-11.278521 30.01397 0.5596638 28 3204623615992 1 0
0 0 0 4 3204623615992 1 0
-4.4352946 13.825378 -0.8455739 6 3204623618296 1 0
-9.885966 22.859715 1.4504523 22 3204623618296 1 0
-10.867418 28.945528 1.259646 10 3204623620600 1 0
-6.1992426 14.34048 -0.7277468 4 3204623620600 1 0
-5.275681 14.058066 -0.7869234 6 3204623622904 1 0
-8.781322 20.321623 2.7181737 23 3204623622904 1 0
0 0 0 84 3204623625208 1 0
-10.118322 20.597923 -0.93496484 37 3204623625208 1 0
-4.4357076 13.85437 -0.5079971 5 3204623627512 1 0
-11.681923 31.17007 6.0691247 17 3204623629816 1 0
-7.46795 17.296051 5.0480065 12 3204623627512 1 0
-12.713551 29.45683 -0.7465607 4 3204623629816 1 0
-9.16944 18.74199 -0.3641968 28 3204623650552 1 0
-1.4427617 3.8650093 -1.9237583 3 3204623650552 1 0
-2.9146981 6.780337 -2.0660255 5 3204623652856 1 0
-5.3435245 14.321107 -0.44485244 5 3204623652856 1 0
-4.04748 10.852415 -2.3165374 2 3204623655160 1 0
-8.432871 19.62489 0 28 3204623655160 1 0
-6.2723165 14.602725 -2.4725523 6 3204623657464 1 0
-9.665186 30.385702 -0.37121087 3 3204623657464 1 0
-5.3092675 14.248275 -1.9354393 13 3204623659768 1 0
-8.91397 18.2467 0.11802834 14 3204623659768 1 0
-11.12846 29.878294 -0.18530706 12 3204623662072 1 0
-4.382244 13.797871 -1.3514068 9 3204623664376 1 0
-6.1595473 14.351696 -1.6822804 33 3204623662072 1 0
-9.418753 21.954428 0.555896 20 3204623664376 1 0
-9.565214 30.132088 0.3680445 12 3204623666680 1 0
-6.1412992 14.320671 -1.0895962 9 3204623666680 1 0
-5.2217894 14.038468 -1.2227453 10 3204623668984 1 0
-9.266102 18.99552 0.61509025 28 3204623668984 1 0
-10.561828 28.407486 0.5290173 38 3204623671288 1 0
-7.1907797 14.74655 -1.0514619 1 3204623671288 1 0
-4.376149 13.806518 -0.84348094 6 3204623673592 1 0
-9.873718 23.051924 1.4604522 31 3204623673592 1 0
-6.1239843 14.303262 -0.72476876 4 3204623675896 1 0
-11.524798 31.025154 1.348388 17 3204623675896 1 0
-5.216844 14.050183 -0.785458 6 3204623678200 1 0
0 0 0 25 3204623680504 1 0
-8.804059 20.571148 2.7474225 27 3204623678200 1 0
-10.046361 20.633116 -0.93496484 32 3204623680504 1 0
-4.35959 13.782106 -0.5047863 5 3204623682808 1 0
-7.4546247 17.43214 5.0801 12 3204623682808 1 0
-22.489489 52.611332 -1.331396 11 3204623685112 1 0
-11.557999 31.170073 6.0612326 29 3204623685112 1 0
-1.4317733 3.8768234 -1.9271393 3 3204623705296 1 0
-9.585598 19.767096 -0.38346428 40 3204623705296 1 0
-5.257501 14.242149 -0.44182703 5 3204623707600 1 0
-2.887995 6.7833815 -2.063869 6 3204623707600 1 0
-4.0136466 10.877517 -2.3188908 2 3204623709904 1 0
-9.351117 21.972961 0 31 3204623709904 1 0
0 0 0 13 3204623712208 1 0
-6.2166634 14.61362 -2.4707077 6 3204623712208 1 0
-5.27597 14.311398 -1.9415002 15 3204623714512 1 0
-8.965274 18.515312 0.119562685 14 3204623714512 1 0
-8.1487875 22.114002 -0.13697518 52 3204623716816 1 0
-6.0938554 14.336509 -1.6779965 23 3204623716816 1 0
-4.3292847 13.797883 -1.3499197 10 3204623719120 1 0
-9.141895 21.516071 0.54398525 45 3204623719120 1 0
-9.238557 29.459248 0.35943007 16 3204623721424 1 0
-6.0694356 14.290603 -1.0856898 9 3204623721424 1 0
-5.157609 14.015454 -1.2191653 10 3204623723728 1 0
-9.290239 19.21493 0.6211411 28 3204623723728 1 0
-10.405996 28.290287 0.5261552 25 3204623726032 1 0
-7.1271014 14.746402 -1.0496712 1 3204623726032 1 0
-4.3195763 13.795033 -0.841853 10 3204623728336 1 0
-10.034903 23.656054 1.4964983 36 3204623728336 1 0
-10.63199 28.930658 1.2557381 15 3204623730640 1 0
-6.055301 14.280408 -0.7225353 4 3204623730640 1 0
-5.1498623 14.019564 -0.78273654 6 3204623732944 1 0
-8.609798 20.312979 2.7089117 10 3204623732944 1 0
-10.028126 20.779642 -0.9400125 10 3204623735248 1 0
-8.588186 23.390285 2.0341117 10 3204623735248 1 0
-4.304301 13.774346 -0.50394875 15 3204623737552 1 0
-7.82768 18.482698 5.3782597 16 3204623737552 1 0
-11.473518 31.276726 6.074147 52 3204623739856 1 0
-22.466278 53.068813 -1.3409804 11 3204623739856 1 0
-1.4169879 3.8783925 -1.9254488 4 3204623760592 1 0
-8.998527 18.72264 -0.3625912 32 3204623760592 1 0
-5.170929 14.158936 -0.43868527 5 3204623762896 1 0
-2.8673909 6.8004785 -2.0660255 5 3204623762896 1 0
-3.9705892 10.876607 -2.315753 2 3204623765200 1 0
-9.271893 21.997828 0 23 3204623765200 1 0
-8.052392 25.936935 -0.31617182 22 3204623767504 1 0
-6.161649 14.624035 -2.4688628 6 3204623767504 1 0
-5.2159376 14.299601 -1.9374596 13 3204623769808 1 0
-8.783971 18.300764 0.11798185 22 3204623769808 1 0
-11.128677 30.52191 -0.18881746 39 3204623772112 1 0
-6.0293865 14.3206 -1.6737127 22 3204623772112 1 0
-4.272865 13.782105 -1.3469454 9 3204623774416 1 0
-9.119806 21.66869 0.547056 30 3204623774416 1 0
-9.489111 30.621252 0.3732131 41 3204623776720 1 0
-6.005498 14.274309 -1.0828995 10 3204623776720 1 0
-5.0966454 13.995317 -1.2159107 8 3204623779024 1 0
-9.3325 19.46971 0.62835556 21 3204623779024 1 0
-10.397075 28.561852 0.53055316 12 3204623781328 1 0
-7.0085187 14.626268 -1.0394379 1 3204623781328 1 0
-9.957259 23.69317 1.4967309 12 3204623783632 1 0
-11.329293 31.148119 1.3503419 17 3204623785936 1 0
-5.9968715 14.274711 -0.7212324 4 3204623785936 1 0
-5.08833 13.99527 -0.7804338 6 3204623788240 1 0
-8.646923 20.590334 2.7420602 44 3204623788240 1 0
-8.510915 23.418512 2.0341117 14 3204623790544 1 0
-12.197024 25.48854 -1.1512018 15 3204623790544 1 0
-4.2734046 13.809406 -0.841853 6 3204623783632 1 0
-4.2707987 13.826615 -0.5053447 15 3204623792848 1 0
-9.873437 23.5282 6.836964 10 3204623792848 1 0
-11.414085 31.432468 6.0971065 23 3204623795152 1 0
0 0 0 24 3204623795152 1 0
-1.4047966 3.882825 -1.9254488 3 3204623815888 1 0
-8.91901 18.707495 -0.3617535 38 3204623815888 1 0
-5.108539 14.126305 -0.43717253 5 3204623818192 1 0
-2.844428 6.80594 -2.0649474 6 3204623818192 1 0
-3.9347496 10.885453 -2.3149686 2 3204623820496 1 0
-8.212194 19.657576 0 38 3204623820496 1 0
-7.9779525 25.989218 -0.31649777 10 3204623822800 1 0
-6.110468 14.632646 -2.4670181 6 3204623822800 1 0
-5.159373 14.286361 -1.933419 15 3204623825104 1 0
-8.690982 18.256544 0.1175169 14 3204623825104 1 0
-11.037304 30.576336 -0.18893369 52 3204623827408 1 0
-5.966479 14.299532 -1.6690004 25 3204623827408 1 0
-4.2446814 13.84914 -1.3521503 4 3204623829712 1 0
-8.905095 21.351091 0.53830904 27 3204623829712 1 0
-7.9640026 25.997679 0.31654432 9 3204623832016 1 0
-5.9438143 14.256883 -1.0801092 9 3204623832016 1 0
-9.203794 19.36279 0.6239338 25 3204623834320 1 0
-10.2452545 28.433931 0.52755135 42 3204623836624 1 0
-6.9349194 14.595043 -1.0356004 1 3204623836624 1 0
-4.2501807 13.895932 -0.8462716 7 3204623838928 1 0
-5.0347986 13.966842 -1.2120051 8 3204623834320 1 0
-10.682136 25.653769 1.6183578 13 3204623838928 1 0
0 0 0 23 3204623841232 1 0
-5.9328203 14.253854 -0.71918505 4 3204623841232 1 0
-5.031072 13.9819975 -0.778759 6 3204623843536 1 0
-8.419375 23.409214 2.0308573 32 3204623845840 1 0
-8.459639 20.33298 2.704037 7 3204623843536 1 0
-12.336487 26.00205 -1.1725326 8 3204623845840 1 0
-4.246695 13.91347 -0.5079971 13 3204623848144 1 0
0 0 0 13 3204623848144 1 0
-11.337691 31.55211 6.1128907 11 3204623850448 1 0
-10.568169 25.432173 -0.640853 56 3204623850448 1 0
-1.3912344 3.8877048 -1.9254488 4 3204623871184 1 0
-8.851946 18.734898 -0.36168367 20 3204623871184 1 0
-5.0468736 14.110242 -0.43612528 5 3204623873488 1 0
-2.8205543 6.815869 -2.0649474 5 3204623873488 1 0
-3.8937705 10.891848 -2.3133996 2 3204623875792 1 0
-8.127665 19.649397 0 28 3204623875792 1 0
-10.175173 33.569412 -0.40836918 10 3204623878096 1 0
-5.093961 14.263475 -1.9278632 15 3204623880400 1 0
-8.883813 18.83354 0.12102729 19 3204623880400 1 0
-6.061734 14.661455 -2.468248 7 3204623878096 1 0
-10.824738 30.325403 -0.18714362 17 3204623882704 1 0
-5.8942294 14.269242 -1.663003 28 3204623882704 1 0
-4.215865 13.932855 -1.3588423 4 3204623885008 1 0
-8.821015 21.364336 0.5378438 20 3204623885008 1 0
-7.8612933 25.995495 0.31617182 25 3204623887312 1 0
-5.8773365 14.241259 -1.077319 9 3204623887312 1 0
-4.972341 13.951113 -1.209076 10 3204623889616 1 0
-9.15263 19.435652 0.62521374 25 3204623889616 1 0
0 0 0 89 3204623891920 1 0
-6.8905177 14.638122 -1.0368797 1 3204623891920 1 0
-4.219245 13.976282 -0.85022503 4 3204623894224 1 0
-10.620739 25.76997 1.6232414 4 3204623894224 1 0
-10.237464 28.76735 1.2440145 19 3204623896528 1 0
-5.8655257 14.238473 -0.7173238 4 3204623896528 1 0
-8.425872 20.462969 2.7171988 39 3204623898832 1 0
-4.967744 13.966472 -0.77687496 6 3204623898832 1 0
-8.285103 23.304806 2.0191407 14 3204623901136 1 0
-12.337616 26.253448 -1.1818137 8 3204623901136 1 0
-4.224087 14.024756 -0.511487 8 3204623903440 1 0
-7.690792 18.694752 5.416565 20 3204623903440 1 0
-8.128345 22.887068 4.4282584 42 3204623905744 1 0
-10.482898 25.493383 -0.6414113 42 3204623905744 1 0
-1.3738798 3.8861823 -1.9220679 3 3204623926480 1 0
-8.761303 18.7289 -0.36091575 4 3204623926480 1 0
-2.7916427 6.8194375 -2.0627906 6 3204623928784 1 0
-3.8525548 10.906494 -2.3133996 2 3204623931088 1 0
-8.942558 21.853083 0 34 3204623931088 1 0
-4.9850745 14.106752 -0.4354271 5 3204623928784 1 0
-4.891648 16.359158 -0.19878313 22 3204623933392 1 0
-6.0081716 14.687757 -2.4688628 8 3204623933392 1 0
-5.0289316 14.248668 -1.9233176 17 3204623935696 1 0
-10.308524 22.06647 0.14155497 8 3204623935696 1 0
-10.682026 30.278427 -0.18660893 38 3204623938000 1 0
-5.8234177 14.246743 -1.6578623 30 3204623938000 1 0
-4.18756 14.024536 -1.3662778 6 3204623940304 1 0
-8.83038 21.611227 0.54324085 30 3204623940304 1 0
-4.873931 16.331055 0.19841062 13 3204623942608 1 0
-5.8074093 14.218206 -1.0739707 7 3204623942608 1 0
-4.912713 13.9426365 -1.2067978 8 3204623944912 1 0
-8.93033 19.142433 0.61474115 15 3204623944912 1 0
0 0 0 101 3204623947216 1 0
-7.1637235 15.360904 -1.0862548 2 3204623947216 1 0
-4.1947093 14.075359 -0.85534126 4 3204623949520 1 0
-12.630537 30.957909 1.9471921 6 3204623949520 1 0
-10.213097 29.021868 1.2534586 20 3204623951824 1 0
-5.795758 14.210933 -0.7149042 4 3204623951824 1 0
-4.9083576 13.953582 -0.7752002 6 3204623954128 1 0
-8.456311 20.742252 2.7503474 11 3204623954128 1 0
-8.196447 23.31078 2.017188 3 3204623956432 1 0
-12.3124695 26.437298 -1.1881641 12 3204623956432 1 0
-4.198717 14.115807 -0.514279 4 3204623958736 1 0
-7.52454 18.470568 5.3440957 22 3204623958736 1 0
-7.6643186 21.815649 4.2158856 14 3204623961040 1 0
-10.411156 25.56595 -0.64234185 42 3204623961040 1 0
-1.365257 3.9007444 -1.9271393 3 3204623981776 1 0
-12.767478 27.517754 -0.529506 8 3204623981776 1 0
-4.9298625 14.092259 -0.43449622 5 3204623984080 1 0
-3.8255632 10.940926 -2.3181064 2 3204623986384 1 0
-6.920356 17.066275 0 19 3204623986384 1 0
-4.836891 16.36709 -0.19869001 5 3204623988688 1 0
-5.9610367 14.706949 -2.4688628 8 3204623988688 1 0
-4.922706 14.092514 -1.9000843 6 3204623990992 1 0
-9.216694 19.89657 0.12744364 36 3204623990992 1 0
-2.770056 6.8282347 -2.0627906 6 3204623984080 1 0
-10.570359 30.275227 -0.18637645 46 3204623993296 1 0
-5.7621474 14.228736 -1.6535784 31 3204623993296 1 0
-4.160801 14.103104 -1.372598 7 3204623995600 1 0
-6.91106 17.073294 0.4286001 20 3204623995600 1 0
-9.160575 31.0674 0.37707797 8 3204623997904 1 0
-5.741082 14.189175 -1.0703434 7 3204623997904 1 0
-4.8520136 13.917441 -1.2032179 8 3204624000208 1 0
-8.88023 19.200974 0.61567205 13 3204624000208 1 0
0 0 0 54 3204624002512 1 0
-10.530694 30.220928 0.55861664 33 3204624002512 1 0
-4.168821 14.162157 -0.85975987 9 3204624004816 1 0
-12.106064 29.959795 1.8818438 18 3204624004816 1 0
-5.734202 14.197106 -0.71322906 4 3204624007120 1 0
-10.063654 28.90903 1.2471082 19 3204624007120 1 0
-4.847713 13.932479 -0.77310675 6 3204624009424 1 0
-9.813996 24.308815 3.2188132 7 3204624009424 1 0
-8.93764 25.699701 2.22125 12 3204624011728 1 0
-12.283816 26.61358 -1.1941888 8 3204624011728 1 0
-4.1736913 14.210742 -0.51721054 6 3204624014032 1 0
-7.456491 18.485645 5.3409896 14 3204624014032 1 0
-7.9669943 22.931236 4.426106 26 3204624016336 1 0
-6.883101 17.07165 -0.42832094 12 3204624016336 1 0
-1.350951 3.9057221 -1.9271393 3 3204624037072 1 0
-15.809372 34.403667 -0.6608877 6 3204624037072 1 0
-4.8690333 14.083781 -0.43368167 5 3204624039376 1 0
-2.7450106 6.8383417 -2.0627906 5 3204624039376 1 0
-3.777751 10.93263 -2.3133996 2 3204624041680 1 0
-8.807542 21.950953 0 44 3204624041680 1 0
-15.0538025 51.634678 -0.6261506 7 3204624043984 1 0
-5.8997364 14.710357 -2.4657884 8 3204624043984 1 0
-4.826998 13.982935 -1.8829118 4 3204624046288 1 0
-10.472371 30.351578 -0.18660893 46 3204624048592 1 0
-9.138703 19.919312 0.1273739 38 3204624046288 1 0
-5.693686 14.209152 -1.6488662 28 3204624048592 1 0
-4.132455 14.198564 -1.3804053 9 3204624050896 1 0
-8.644553 21.582876 0.5410076 19 3204624050896 1 0
-9.04888 31.108448 0.3771711 8 3204624053200 1 0
-5.6727242 14.169373 -1.0672741 9 3204624053200 1 0
-4.790582 13.904977 -1.2006142 10 3204624055504 1 0
-9.938061 28.860178 0.5327871 78 3204624057808 1 0
-8.844761 19.309729 0.61811566 12 3204624055504 1 0
-6.647173 14.517848 -1.0233207 21 3204624057808 1 0
-4.1447253 14.2732115 -0.86557376 15 3204624060112 1 0
-11.2134285 28.046217 1.7590542 10 3204624060112 1 0
-10.048638 29.210274 1.2585063 35 3204624062416 1 0
-5.6658173 14.177214 -0.7111817 4 3204624062416 1 0
-4.783627 13.912378 -0.7710133 6 3204624064720 1 0
-8.814879 25.64934 2.21409 8 3204624067024 1 0
-9.748399 24.403612 3.2266128 11 3204624064720 1 0
0 0 0 35 3204624067024 1 0
-7.4316535 18.620504 5.372048 16 3204624069328 1 0
-4.1449394 14.306577 -0.5201421 6 3204624069328 1 0
-7.4867682 21.8065 4.2036886 20 3204624071632 1 0
-1.3366266 3.9106474 -1.9271393 3 3204624092368 1 0
-15.719616 34.541466 -0.66242355 6 3204624092368 1 0
-4.804558 14.063662 -0.43251806 5 3204624094672 1 0
-2.7214 6.851917 -2.063869 5 3204624094672 1 0
-6.8175206 17.089334 -0.42813483 6 3204624071632 1 0
-3.7352798 10.938925 -2.3118305 2 3204624096976 1 0
-14.940752 51.95057 -0.629317 7 3204624099280 1 0
-8.761295 22.068466 0 47 3204624096976 1 0
-5.84756 14.735428 -2.4664032 9 3204624099280 1 0
-4.8055897 14.08677 -1.8945284 8 3204624101584 1 0
-8.415909 18.521254 0.11823757 21 3204624101584 1 0
-10.491253 30.767971 -0.18893369 48 3204624103888 1 0
-5.630359 14.200144 -1.645439 31 3204624103888 1 0
-4.1084847 14.309136 -1.3896997 11 3204624106192 1 0
-8.850698 22.331535 0.55896676 47 3204624106192 1 0
-9.65571 33.647602 0.40753105 9 3204624108496 1 0
-5.609718 14.160105 -1.0650419 9 3204624108496 1 0
-8.745318 19.275967 0.61602116 18 3204624110800 1 0
-4.7275457 13.884426 -1.1973596 10 3204624110800 1 0
-9.83153 28.888193 0.53264743 26 3204624113104 1 0
-6.548705 14.43989 -1.0161574 9 3204624113104 1 0
-4.112119 14.35327 -0.8695272 13 3204624115408 1 0
-11.069996 27.978638 1.75231 15 3204624115408 1 0
-9.970867 29.325575 1.2619257 51 3204624117712 1 0
-5.5987883 14.156564 -0.70913434 4 3204624117712 1 0
-4.7248216 13.90293 -0.7695479 6 3204624120016 1 0
-8.185377 20.705572 2.733773 35 3204624120016 1 0
-10.454294 30.776768 2.653458 18 3204624122320 1 0
-6.5186143 14.395799 -0.64382637 4 3204624122320 1 0
-4.118106 14.405815 -0.52321327 4 3204624124624 1 0
-7.4078364 18.754673 5.403106 8 3204624124624 1 0
-7.3800898 21.747278 4.1871867 14 3204624126928 1 0
0 0 0 1 3204624126928 1 0
-15.66306 34.738316 -0.6651461 6 3204624147664 1 0
-1.3206468 3.9084203 -1.9237583 4 3204624147664 1 0
-4.742848 14.042397 -0.43135443 7 3204624149968 1 0
-2.6975656 6.8613353 -2.063869 6 3204624149968 1 0
-3.696137 10.948072 -2.3110461 2 3204624152272 1 0
-8.513671 21.663094 0 32 3204624152272 1 0
-5.786616 14.729746 -2.4620988 8 3204624154576 1 0
-14.909041 52.521202 -0.63560313 7 3204624154576 1 0
-4.7813053 14.174619 -1.9041249 13 3204624156880 1 0
-8.334222 18.509912 0.11798185 21 3204624156880 1 0
-10.364304 30.739214 -0.18853848 56 3204624159184 1 0
-5.561446 14.167478 -1.6394416 24 3204624159184 1 0
-8.787791 22.395031 0.5598042 30 3204624161488 1 0
-4.074967 14.37668 -1.3949046 9 3204624161488 1 0
-9.542719 33.68398 0.4075776 9 3204624163792 1 0
-4.6704903 13.870073 -1.1947559 10 3204624166096 1 0
-5.5456715 14.138172 -1.0619725 7 3204624163792 1 0
-8.66219 19.265253 0.61474115 16 3204624166096 1 0
-9.78545 29.07268 0.53543985 35 3204624168400 1 0
-6.4625144 14.378069 -1.0102733 5 3204624168400 1 0
-4.0847335 14.439951 -0.8739458 13 3204624170704 1 0
-10.955945 27.96346 1.7490543 15 3204624170704 1 0
-9.908809 29.464691 1.2664849 15 3204624173008 1 0
-5.5384927 14.141648 -0.7074592 4 3204624173008 1 0
-8.135486 20.780663 2.7401104 5 3204624175312 1 0
-4.6646914 13.876872 -0.7672451 6 3204624175312 1 0
-10.380561 30.894257 2.6606183 6 3204624177616 1 0
-6.454684 14.380779 -0.6421981 4 3204624177616 1 0
-4.097884 14.515453 -0.5267032 14 3204624179920 1 0
-7.3545947 18.80051 5.409318 20 3204624179920 1 0
-7.30763 21.767582 4.186469 8 3204624182224 1 0
0 0 0 22 3204624182224 1 0
-1.3083616 3.91255 -1.9237583 3 3204624202960 1 0
-15.65506 35.013718 -0.6694743 6 3204624202960 1 0
-4.6820273 14.007998 -0.42984173 8 3204624205264 1 0
-2.6744988 6.8662257 -2.0627906 6 3204624205264 1 0
-3.6614056 10.959737 -2.3110461 2 3204624207568 1 0
-8.4449415 21.689978 0 40 3204624207568 1 0
-14.866951 53.01516 -0.6410046 7 3204624209872 1 0
-5.7310677 14.726003 -2.4584093 8 3204624209872 1 0
-4.7233634 14.152206 -1.8990741 13 3204624212176 1 0
-8.278213 18.543789 0.11802834 24 3204624212176 1 0
-10.251521 30.73063 -0.18828276 48 3204624214480 1 0
-5.502907 14.15192 -1.6355861 31 3204624214480 1 0
-4.0489254 14.462632 -1.4019684 4 3204624216784 1 0
-10.821858 27.842749 0.69510263 31 3204624216784 1 0
-5.482446 14.111452 -1.0586243 7 3204624219088 1 0
-4.6139383 13.851174 -1.1918268 10 3204624221392 1 0
-8.60589 19.30798 0.6152066 24 3204624221392 1 0
0 0 0 7 3204624219088 1 0
-6.392684 14.348093 -1.0066917 6 3204624223696 1 0
-9.728159 29.218384 0.5375341 30 3204624223696 1 0
-4.058733 14.53022 -0.8785969 12 3204624226000 1 0
-10.876969 28.032827 1.7511473 15 3204624226000 1 0
-9.709298 29.190062 1.2532958 15 3204624228304 1 0
-5.47299 14.111428 -0.70503956 4 3204624228304 1 0
-4.6110873 13.869522 -0.76598907 5 3204624230608 1 0
-9.653718 24.901659 3.2792604 11 3204624230608 1 0
-10.6660795 32.097706 2.7611847 13 3204624232912 1 0
-6.3905063 14.365682 -0.64056975 4 3204624232912 1 0
-4.0611095 14.57144 -0.5282388 14 3204624235216 1 0
-7.3642297 19.012358 5.4631524 12 3204624235216 1 0
-10.688666 27.607035 -0.6888681 48 3204624237520 1 0
-7.357199 22.161747 4.257499 9 3204624237520 1 0
-1.2946963 3.9170933 -1.9237583 3 3204624258256 1 0
-15.539223 35.08278 -0.66975355 6 3204624258256 1 0
-4.6129327 13.963547 -0.42797995 8 3204624260560 1 0
-2.6476939 6.8683505 -2.0606341 6 3204624260560 1 0
-3.6241968 10.976228 -2.3118305 2 3204624262864 1 0
-8.327154 21.611202 0 37 3204624262864 1 0
-10.656959 38.522377 -0.46531737 12 3204624265168 1 0
-5.6778874 14.742353 -2.4577944 8 3204624265168 1 0
-4.6610923 14.131062 -1.8940233 15 3204624267472 1 0
-8.565543 19.370306 0.12309633 20 3204624267472 1 0
-5.441533 14.141548 -1.632159 31 3204624269776 1 0
