# .PCD v.7 - Point Cloud Data file format
VERSION .7
FIELDS x y z rgb timestamp_ns device_id active
SIZE 4 4 4 4 8 1 1
TYPE F F F F F U U
COUNT 1 1 1 1 1 1 1
WIDTH 1016
HEIGHT 1
VIEWPOINT 0 0 0 1 0 0 0
POINTS 1016               
DATA ascii
23.642448 -17.185125 -1.3615006 4 3200865150008 1 0
22.22426 -17.88154 -1.4949243 4 3200865152312 1 0
44.952637 -32.683983 6.824196 43 3200865152312 1 0
32.601757 -26.238258 3.4163315 33 3200865154616 1 0
26.979883 -17.673641 -1.314031 5 3200865154616 1 0
27.8249 -24.734514 -1.300076 20 3200865156920 1 0
0 0 0 9 3200865156920 1 0
0 0 0 29 3200865159224 1 0
35.348053 -25.721945 -1.0172505 14 3200865159224 1 0
0 0 0 4 3200865179960 1 0
28.927927 -19.009325 -0.60420233 5 3200865179960 1 1
30.240232 -24.4175 -1.1311563 16 3200865182264 1 0
0 0 0 1 3200865182264 1 0
6.435195 -5.1978045 -1.6544454 2 3200865184568 1 0
36.68243 -26.777084 0 7 3200865184568 1 0
29.231253 -26.078436 -0.45605108 25 3200865186872 1 0
8.305629 -6.0648994 -1.5999953 4 3200865186872 1 0
9.927747 -8.024041 -1.6248195 7 3200865189176 1 0
0 0 0 1 3200865189176 1 0
31.714361 -25.64133 -0.23703308 5 3200865191480 1 0
11.463578 -8.376508 -1.5293459 16 3200865191480 1 0
0 0 0 56 3200865193784 1 0
40.5004 -29.603838 1.1673443 17 3200865193784 1 0
29.181746 -26.067827 0.45553887 15 3200865196088 1 0
17.361408 -12.694613 -1.5039495 3 3200865196088 1 0
14.785361 -11.96583 -1.5527596 5 3200865198392 1 0
42.951324 -28.303257 1.4969989 8 3200865198392 1 0
42.79389 -34.644535 0.9610691 12 3200865200696 1 0
19.017197 -12.535959 -1.4597669 4 3200865200696 1 0
18.768614 -16.78206 -1.4662662 3 3200865203000 1 0
36.064125 -26.39656 2.6027677 38 3200865203000 1 0
32.611187 -26.41823 1.7098687 36 3200865205304 1 0
23.589268 -17.271584 -1.3618729 4 3200865205304 1 0
22.099638 -17.90871 -1.4907373 4 3200865207608 1 0
32.372936 -26.242384 3.4020114 32 3200865209912 1 0
44.966393 -32.934536 6.8436947 44 3200865207608 1 0
26.994226 -17.819136 -1.3177761 5 3200865209912 1 0
27.74886 -24.843771 -1.3006344 20 3200865212216 1 0
0 0 0 9 3200865212216 1 0
0 0 0 29 3200865214520 1 0
0 0 0 4 3200865235256 1 0
28.94807 -19.182116 -0.606157 10 3200865235256 1 1
35.229996 -25.829336 -1.0165062 14 3200865214520 1 0
30.128004 -24.517853 -1.1304581 16 3200865237560 1 0
0 0 0 1 3200865237560 1 0
6.4122996 -5.2198124 -1.653661 3 3200865239864 1 0
33.22625 -24.448797 0 18 3200865239864 1 0
9.919888 -8.9178095 -0.15529205 9 3200865242168 1 0
8.288913 -6.1010704 -1.6012251 3 3200865242168 1 0
9.900409 -8.064032 -1.6253246 5 3200865244472 1 0
38.323345 -25.426634 0.26730153 8 3200865244472 1 0
31.00045 -25.257833 -0.23240681 5 3200865246776 1 0
11.431942 -8.419632 -1.5293459 11 3200865246776 1 0
9.915191 -8.921412 -1.2450787 2 3200865249080 1 0
40.18942 -29.608545 1.1615751 25 3200865249080 1 0
29.134644 -26.22221 0.45633045 15 3200865251384 1 0
17.307411 -12.754685 -1.5033915 3 3200865251384 1 0
14.749974 -12.028357 -1.553736 5 3200865253688 1 0
31.028042 -25.310362 0.69893396 7 3200865255992 1 0
42.602524 -28.301476 1.4885044 8 3200865253688 1 0
18.977222 -12.610824 -1.4602785 4 3200865255992 1 0
18.700556 -16.845938 -1.465801 3 3200865258296 1 0
35.792828 -26.401608 2.5902097 38 3200865258296 1 0
32.612835 -26.618921 1.7150792 27 3200865260600 1 0
23.519123 -17.353525 -1.3615006 4 3200865260600 1 0
22.111206 -18.052746 -1.495971 4 3200865262904 1 0
32.11944 -26.23178 3.385413 31 3200865265208 1 0
26.952288 -17.93306 -1.3189158 5 3200865265208 1 0
44.960377 -33.184 6.861244 44 3200865262904 1 0
27.649437 -24.936472 -1.3002156 20 3200865267512 1 0
0 0 0 9 3200865267512 1 0
0 0 0 29 3200865269816 1 0
35.129787 -25.952002 -1.0163201 14 3200865269816 1 0
0 0 0 4 3200865290552 1 0
37.85488 -25.274715 -0.79450333 7 3200865290552 1 0
30.097898 -24.66849 -1.1325526 32 3200865292856 1 0
0 0 0 1 3200865292856 1 0
32.983246 -24.447916 0 6 3200865295160 1 0
6.3970733 -5.2446504 -1.6544454 2 3200865295160 1 0
9.906488 -8.968488 -0.15557143 11 3200865297464 1 0
8.2707405 -6.1323214 -1.60184 4 3200865297464 1 0
9.878335 -8.103575 -1.6263347 5 3200865299768 1 0
30.87499 -25.335443 -0.23212783 5 3200865302072 1 0
0 0 0 1 3200865299768 1 0
11.405677 -8.461855 -1.5297742 10 3200865302072 1 0
9.869231 -8.942597 -1.2432199 3 3200865304376 1 0
40.066555 -29.734354 1.1610168 25 3200865304376 1 0
29.096277 -26.372099 0.4571686 15 3200865306680 1 0
17.278805 -12.826915 -1.5047866 3 3200865306680 1 0
14.723302 -12.0924225 -1.5553633 5 3200865308984 1 0
42.204433 -28.249851 1.4780319 24 3200865308984 1 0
30.034061 -24.674646 0.67847973 20 3200865311288 1 0
19.019327 -12.734734 -1.4669302 4 3200865311288 1 0
35.524162 -26.3954 2.577419 37 3200865313592 1 0
18.65347 -16.921844 -1.4667312 3 3200865313592 1 0
32.606167 -26.803663 1.7196383 27 3200865315896 1 0
23.561024 -17.51179 -1.3674567 4 3200865315896 1 0
22.066568 -18.145042 -1.4972271 4 3200865318200 1 0
44.962154 -33.428383 6.8792806 67 3200865318200 1 0
32.02768 -26.343737 3.385413 31 3200865320504 1 0
26.882885 -18.022581 -1.3185903 5 3200865320504 1 0
27.57406 -25.043585 -1.3007741 20 3200865322808 1 0
0 0 0 9 3200865322808 1 0
0 0 0 29 3200865325112 1 0
35.03257 -26.069696 -1.0161339 14 3200865325112 1 0
0 0 0 4 3200865346296 1 0
37.590553 -25.288383 -0.79080343 7 3200865346296 1 0
29.971521 -24.740313 -1.13104 24 3200865348600 1 0
0 0 0 1 3200865348600 1 0
6.378727 -5.2669487 -1.6544454 2 3200865350904 1 0
32.698986 -24.414528 0 5 3200865350904 1 0
8.24295 -6.1564236 -1.6006103 3 3200865353208 1 0
9.919458 -9.043434 -0.1562699 11 3200865353208 1 0
9.84693 -8.13548 -1.6258297 6 3200865355512 1 0
0 0 0 1 3200865355512 1 0
30.61987 -25.305464 -0.23087245 5 3200865357816 1 0
11.385627 -8.508759 -1.5310594 9 3200865357816 1 0
0 0 0 37 3200865360120 1 0
39.786358 -29.742344 1.1558989 16 3200865360120 1 0
29.060173 -26.524736 0.45805335 10 3200865362424 1 0
17.233925 -12.887151 -1.5047866 3 3200865362424 1 0
14.69329 -12.153907 -1.5566651 5 3200865364728 1 0
42.211643 -28.46854 1.4817555 24 3200865364728 1 0
29.809088 -24.664604 0.6753383 27 3200865367032 1 0
18.978067 -12.803278 -1.467186 4 3200865367032 1 0
35.265568 -26.394815 2.5653262 37 3200865369336 1 0
18.585442 -16.978773 -1.4660336 3 3200865369336 1 0
29.677074 -24.56992 1.5696727 16 3200865371640 1 0
23.496555 -17.59153 -1.3672706 4 3200865371640 1 0
22.00002 -18.21941 -1.4970177 4 3200865373944 1 0
44.959595 -33.670803 6.89683 68 3200865373944 1 0
29.596085 -24.517382 3.137414 8 3200865376248 1 0
26.829746 -18.123022 -1.3190787 5 3200865376248 1 0
27.483524 -25.136986 -1.3006344 20 3200865378552 1 0
0 0 0 9 3200865378552 1 0
0 0 0 29 3200865380856 1 0
33.370274 -25.01415 -0.97044516 6 3200865380856 1 0
0 0 0 4 3200865401592 1 0
37.356384 -25.320711 -0.7877318 7 3200865401592 1 0
29.952982 -24.90058 -1.1335999 24 3200865403896 1 0
0 0 0 1 3200865403896 1 0
6.363473 -5.2915053 -1.6552299 4 3200865406200 1 0
32.4896 -24.433807 0 17 3200865406200 1 0
9.929477 -9.115441 -0.1569218 10 3200865408504 1 0
8.231156 -6.191929 -1.6024549 3 3200865408504 1 0
9.821997 -8.171769 -1.6263347 7 3200865410808 1 0
0 0 0 1 3200865410808 1 0
0 0 0 76 3200865413112 1 0
11.385076 -8.569149 -1.5349149 9 3200865413112 1 0
9.766288 -8.9727 -1.2380149 35 3200865415416 1 0
38.509243 -28.99246 1.1216556 16 3200865415416 1 0
9.886417 -9.085456 0.15631646 2 3200865417720 1 0
17.196527 -12.95028 -1.5053447 3 3200865417720 1 0
14.667512 -12.216174 -1.5582924 5 3200865420024 1 0
42.181488 -28.655748 1.4840827 16 3200865420024 1 0
29.799799 -24.826054 0.67701375 20 3200865422328 1 0
18.938246 -12.869211 -1.4674418 4 3200865422328 1 0
0 0 0 13 3200865424632 1 0
35.00487 -26.382853 2.5527682 36 3200865424632 1 0
29.717876 -24.770988 1.576186 16 3200865426936 1 0
23.447405 -17.676908 -1.367829 4 3200865426936 1 0
21.964025 -18.312729 -1.4986924 4 3200865429240 1 0
44.952297 -33.898594 6.9129167 46 3200865429240 1 0
40.07485 -33.421703 4.259918 19 3200865431544 1 0
26.77968 -18.218248 -1.3195672 5 3200865431544 1 0
0 0 0 92 3200865433848 1 0
0 0 0 9 3200865433848 1 0
0 0 0 29 3200865436152 1 0
33.27547 -25.113585 -0.9700729 6 3200865436152 1 0
0 0 0 4 3200865456888 1 0
37.43192 -25.543898 -0.7910129 7 3200865456888 1 0
29.855844 -24.979597 -1.1329018 24 3200865459192 1 0
0 0 0 1 3200865459192 1 0
6.343655 -5.309138 -1.6544454 3 3200865461496 1 0
9.841636 -9.092737 -0.15599051 20 3200865463800 1 0
32.281208 -24.437712 0 5 3200865461496 1 0
8.214542 -6.2205014 -1.6030699 4 3200865463800 1 0
9.795799 -8.2031555 -1.6263347 7 3200865466104 1 0
37.260292 -25.45856 0.26228005 17 3200865466104 1 0
29.828907 -24.986574 -0.22615318 26 3200865468408 1 0
11.382832 -8.624914 -1.538342 10 3200865468408 1 0
9.702176 -8.97174 -1.2335536 31 3200865470712 1 0
38.488728 -29.172207 1.1237957 16 3200865470712 1 0
17.151255 -13.003576 -1.5050657 3 3200865473016 1 0
14.6368 -12.27158 -1.5592687 5 3200865475320 1 0
9.830472 -9.09303 0.15589738 18 3200865473016 1 0
42.170403 -28.84946 1.4869918 8 3200865475320 1 0
29.660173 -24.87461 0.6756874 20 3200865477624 1 0
18.909208 -12.940135 -1.4684651 4 3200865477624 1 0
0 0 0 102 3200865479928 1 0
34.75255 -26.372246 2.5406752 36 3200865479928 1 0
29.580824 -24.822725 1.573255 16 3200865482232 1 0
23.404827 -17.766304 -1.3687595 4 3200865482232 1 0
21.927652 -18.406008 -1.5003672 4 3200865484536 1 0
44.959793 -34.13871 6.931441 46 3200865484536 1 0
29.50916 -24.77722 3.1455505 8 3200865486840 1 0
26.748526 -18.327673 -1.3210326 5 3200865486840 1 0
0 0 0 112 3200865489144 1 0
0 0 0 9 3200865489144 1 0
0 0 0 29 3200865491448 1 0
33.32144 -25.324448 -0.9738881 13 3200865491448 1 0
0 0 0 4 3200865512184 1 0
37.283203 -25.63362 -0.7897563 7 3200865512184 1 0
29.71325 -25.037502 -1.1308073 24 3200865514488 1 0
0 0 0 1 3200865514488 1 0
6.3160095 -5.323757 -1.6520921 3 3200865516792 1 0
32.14764 -24.514332 0 17 3200865516792 1 0
9.85356 -9.1681185 -0.15668897 10 3200865519096 1 0
8.192642 -6.2493167 -1.6030699 3 3200865519096 1 0
9.769898 -8.240142 -1.6268398 7 3200865521400 1 0
37.242935 -25.63945 0.26279148 8 3200865521400 1 0
29.651934 -25.016827 -0.225479 16 3200865523704 1 0
11.37447 -8.681899 -1.5413407 10 3200865523704 1 0
9.641261 -8.978831 -1.2298359 10 3200865526008 1 0
38.468025 -29.371151 1.1262151 24 3200865526008 1 0
9.801133 -9.130514 0.15594395 5 3200865528312 1 0
17.111437 -13.069081 -1.5056237 3 3200865528312 1 0
14.593158 -12.323445 -1.5592687 5 3200865530616 1 0
42.69981 -29.434633 1.5093333 8 3200865530616 1 0
29.565418 -24.974766 0.6755477 20 3200865532920 1 0
18.866358 -13.009562 -1.4687209 4 3200865532920 1 0
9.8102455 -9.147402 -0.7811559 105 3200865535224 1 0
34.46801 -26.3504 2.526722 35 3200865535224 1 0
29.492002 -24.928188 1.573255 24 3200865537528 1 0
23.376156 -17.876461 -1.3708069 4 3200865537528 1 0
21.852507 -18.476608 -1.4997392 4 3200865539832 1 0
44.944572 -34.38137 6.948015 47 3200865539832 1 0
29.350126 -24.823643 3.138065 8 3200865542136 1 0
26.685934 -18.425724 -1.3211955 5 3200865542136 1 0
9.809442 -9.157861 -0.46863043 100 3200865544440 1 0
0 0 0 9 3200865544440 1 0
0 0 0 29 3200865546744 1 0
34.52866 -26.438564 -1.0119466 7 3200865546744 1 0
0 0 0 4 3200865567480 1 0
37.271183 -25.827044 -0.7915015 7 3200865567480 1 0
29.740341 -25.246939 -1.1353453 24 3200865569784 1 0
6.302512 -5.3518567 -1.653661 3 3200865572088 1 0
0 0 0 1 3200865569784 1 0
0 0 0 11 3200865572088 1 0
9.94558 -9.321571 -0.15869124 11 3200865574392 1 0
8.172954 -6.2815323 -1.6036848 3 3200865574392 1 0
9.736848 -8.273042 -1.6263347 9 3200865576696 1 0
38.723648 -26.866886 0.27392712 9 3200865576696 1 0
31.737112 -26.973806 -0.24207783 6 3200865579000 1 0
11.361805 -8.737664 -1.5439111 22 3200865579000 1 0
0 0 0 56 3200865581304 1 0
38.431133 -29.563913 1.1282623 16 3200865581304 1 0
28.878366 -27.098047 0.46103346 15 3200865583608 1 0
17.067251 -13.133275 -1.5059028 3 3200865583608 1 0
0 0 0 226 3200865585912 1 0
30.334272 -25.811926 0.69523406 7 3200865588216 1 0
42.350365 -29.419657 1.5007225 8 3200865585912 1 0
18.832518 -13.086503 -1.4697442 4 3200865588216 1 0
0 0 0 24 3200865590520 1 0
34.208614 -26.34735 2.514629 35 3200865590520 1 0
30.6775 -26.119371 1.6414803 16 3200865592824 1 0
23.32774 -17.972347 -1.3717375 4 3200865592824 1 0
21.880533 -18.634966 -1.5062288 4 3200865595128 1 0
44.937626 -34.631626 6.9660516 47 3200865595128 1 0
39.03935 -33.258392 4.1866903 18 3200865597432 1 0
26.64622 -18.539152 -1.3224981 5 3200865597432 1 0
0 0 0 21 3200865599736 1 0
0 0 0 9 3200865599736 1 0
0 0 0 29 3200865602040 1 0
0 0 0 4 3200865622776 1 0
34.469254 -26.58805 -1.0129702 14 3200865602040 1 0
39.256607 -27.406166 -0.83569103 8 3200865622776 1 0
0 0 0 1 3200865625080 1 0
29.521353 -25.238874 -1.1303418 16 3200865625080 1 0
6.286773 -5.3763733 -1.6544454 3 3200865627384 1 0
31.819918 -24.62577 0 16 3200865627384 1 0
28.904135 -27.280771 -0.46270978 42 3200865629688 1 0
8.147852 -6.307604 -1.6030699 3 3200865629688 1 0
38.341125 -26.800234 0.2718813 9 3200865631992 1 0
9.7350445 -8.330198 -1.6308804 11 3200865631992 1 0
0 0 0 76 3200865634296 1 0
11.328092 -8.774836 -1.5434827 21 3200865634296 1 0
9.574264 -9.044439 -1.2294642 3 3200865636600 1 0
37.287716 -28.892061 1.097648 15 3200865636600 1 0
28.865002 -27.275604 0.46233726 26 3200865638904 1 0
17.027613 -13.1976595 -1.5064608 4 3200865638904 1 0
0 0 0 222 3200865641208 1 0
42.132763 -29.487068 1.4966497 24 3200865641208 1 0
0 0 0 6 3200865643512 1 0
18.789991 -13.15445 -1.47 4 3200865643512 1 0
0 0 0 12 3200865645816 1 0
33.95868 -26.344217 2.5030012 34 3200865645816 1 0
30.492085 -26.145649 1.6364326 17 3200865648120 1 0
23.24908 -18.041418 -1.3708069 4 3200865648120 1 0
21.818382 -18.71383 -1.5064381 4 3200865650424 1 0
44.929367 -34.875916 6.9836006 48 3200865650424 1 0
38.662804 -33.17121 4.158701 18 3200865652728 1 0
26.65007 -18.680227 -1.3259175 5 3200865652728 1 0
0 0 0 10 3200865655032 1 0
0 0 0 9 3200865655032 1 0
0 0 0 29 3200865657336 1 0
34.347813 -26.686129 -1.0121326 14 3200865657336 1 0
0 0 0 4 3200865678072 1 0
37.78676 -26.576689 -0.806371 7 3200865678072 1 0
29.330236 -25.252857 -1.1263855 24 3200865680376 1 0
0 0 0 1 3200865680376 1 0
6.2710185 -5.400754 -1.6552299 5 3200865682680 1 0
31.743587 -24.743608 0 5 3200865682680 1 0
8.12904 -6.3382597 -1.6036848 4 3200865684984 1 0
9.700139 -8.358665 -1.6298702 20 3200865687288 1 0
28.858614 -27.427713 -0.46350136 68 3200865684984 1 0
38.00938 -26.764679 0.27018425 9 3200865687288 1 0
29.419086 -25.357681 -0.22573473 43 3200865689592 1 0
11.313392 -8.826145 -1.5456246 20 3200865689592 1 0
9.537259 -9.071898 -1.2287205 6 3200865691896 1 0
28.826065 -27.427116 0.46322197 21 3200865694200 1 0
16.982115 -13.256152 -1.5064608 4 3200865694200 1 0
37.30455 -29.111446 1.1010909 23 3200865691896 1 0
10.278667 -8.867092 -1.1081841 155 3200865696504 1 0
42.10646 -29.684502 1.4993261 24 3200865696504 1 0
29.24969 -25.23986 0.674361 67 3200865698808 1 0
18.29081 -17.417597 -1.4709172 3 3200865701112 1 0
18.744825 -13.218733 -1.47 4 3200865698808 1 0
33.70166 -26.329834 2.4906757 34 3200865701112 1 0
32.61109 -28.156174 1.7552979 27 3200865703416 1 0
23.193708 -18.125528 -1.3711791 4 3200865703416 1 0
21.772705 -18.803644 -1.5076942 4 3200865705720 1 0
44.923016 -35.11665 7.00115 48 3200865705720 1 0
38.3659 -33.143345 4.138848 18 3200865708024 1 0
26.6028 -18.782152 -1.3267317 5 3200865708024 1 0
21.006367 -20.02566 -1.0134814 4 3200865710328 1 1
0 0 0 9 3200865710328 1 0
30.301254 -26.191124 7.302465 8 3200865712632 1 0
34.269974 -26.811981 -1.0125049 14 3200865712632 1 0
0 0 0 4 3200865733368 1 0
37.652725 -26.669485 -0.80539364 7 3200865733368 1 0
29.128319 -25.24806 -1.1218474 23 3200865735672 1 0
0 0 0 1 3200865735672 1 0
6.2589226 -5.4267497 -1.6567988 4 3200865737976 1 0
31.701904 -24.881304 0 5 3200865737976 1 0
28.83337 -27.587486 -0.46457234 55 3200865740280 1 0
8.110947 -6.3677993 -1.6042997 3 3200865740280 1 0
9.669126 -8.388468 -1.6293652 41 3200865742584 1 0
29.406414 -25.519085 -0.22629267 69 3200865744888 1 0
37.776073 -26.78987 0.26916134 9 3200865742584 1 0
11.302503 -8.878764 -1.5481949 18 3200865744888 1 0
9.4348135 -9.035026 -1.2194262 14 3200865747192 1 0
37.237976 -29.261324 1.1020215 23 3200865747192 1 0
28.771103 -27.559986 0.4638273 15 3200865749496 1 0
16.95307 -13.325585 -1.5078559 4 3200865749496 1 0
10.278788 -8.927868 -1.1114388 213 3200865751800 1 0
42.094078 -29.888912 1.5024679 24 3200865751800 1 0
29.36645 -25.51437 0.6790382 27 3200865754104 1 0
18.706526 -13.286667 -1.4705118 4 3200865754104 1 0
18.269152 -17.515408 -1.4739405 6 3200865756408 1 0
33.44277 -26.310562 2.4781177 33 3200865756408 1 0
32.584656 -28.327072 1.759043 46 3200865758712 1 0
23.219936 -18.273382 -1.3763907 4 3200865758712 1 0
21.723654 -18.890741 -1.5087409 4 3200865761016 1 0
44.915546 -35.357746 7.018699 49 3200865761016 1 0
38.008987 -33.062065 4.112486 17 3200865763320 1 0
26.53533 -18.870459 -1.3265688 5 3200865763320 1 0
0 0 0 64 3200865765624 1 0
0 0 0 9 3200865765624 1 0
30.140127 -26.232754 7.285246 24 3200865767928 1 0
34.16851 -26.921782 -1.0122257 7 3200865767928 1 0
0 0 0 4 3200865788664 1 0
39.187183 -27.962267 -0.8402985 8 3200865788664 1 0
28.916512 -25.24178 -1.1170765 23 3200865790968 1 0
0 0 0 1 3200865790968 1 0
6.2340326 -5.4434047 -1.6552299 4 3200865793272 1 0
31.727825 -25.081112 0 5 3200865793272 1 0
20.588488 -19.836983 -0.33284184 30 3200865795576 1 1
9.624845 -8.409115 -1.6268398 31 3200865797880 1 0
8.09487 -6.4009757 -1.6055295 4 3200865795576 1 0
37.838554 -27.03318 0.27027723 9 3200865797880 1 0
29.37438 -25.671589 -0.22673437 64 3200865800184 1 0
11.290154 -8.932969 -1.5507653 14 3200865800184 1 0
9.337281 -9.004318 -1.2108753 19 3200865802488 1 0
28.735178 -27.718563 0.46480516 15 3200865804792 1 0
16.915838 -13.392112 -1.508693 4 3200865804792 1 0
10.2865715 -8.997815 -1.1156696 95 3200865807096 1 0
42.064285 -30.089169 1.5051442 24 3200865807096 1 0
29.325367 -25.65886 0.68015516 34 3200865809400 1 0
37.182644 -29.428356 1.1034173 7 3200865802488 1 0
18.679512 -13.365822 -1.4720467 4 3200865809400 1 0
33.197365 -26.305618 2.4667225 33 3200865811704 1 0
32.590824 -28.532784 1.764742 27 3200865814008 1 0
18.216518 -17.587393 -1.4746381 6 3200865811704 1 0
23.18419 -18.376661 -1.3780657 4 3200865814008 1 0
21.666595 -18.974352 -1.509369 4 3200865816312 1 0
44.906956 -35.60558 7.036736 49 3200865816312 1 0
30.213318 -26.46684 3.2789884 28 3200865818616 1 0
26.488792 -18.976934 -1.3275459 5 3200865818616 1 0
20.640446 -19.95082 -1.0024531 8 3200865820920 1 1
0 0 0 9 3200865820920 1 0
29.998066 -26.293709 7.2730484 16 3200865823224 1 0
31.687435 -25.146683 -0.9413197 12 3200865823224 1 0
0 0 0 4 3200865843960 1 0
36.90057 -26.525517 -0.7932468 7 3200865843960 1 0
28.705105 -25.23433 -1.1123056 23 3200865846264 1 0
0 0 0 1 3200865846264 1 0
6.217939 -5.4677224 -1.6560144 4 3200865848568 1 0
31.680763 -25.2241 0 5 3200865848568 1 0
20.510506 -19.900373 -0.33270216 55 3200865850872 1 1
8.066294 -6.4242687 -1.6042997 4 3200865850872 1 0
9.60437 -8.450524 -1.628355 27 3200865853176 1 0
41.646267 -29.973667 0.2982209 11 3200865853176 1 0
29.338638 -25.821537 -0.22715284 59 3200865855480 1 0
11.280675 -8.989675 -1.553764 14 3200865855480 1 0
9.285793 -9.017434 -1.2082729 15 3200865857784 1 0
0 0 0 15 3200865857784 1 0
28.692757 -27.871649 0.4656899 26 3200865860088 1 0
16.865868 -13.44859 -1.508414 4 3200865860088 1 0
0 0 0 19 3200865862392 1 0
42.07902 -30.322304 1.5094496 8 3200865862392 1 0
18.626266 -13.426275 -1.4715351 4 3200865864696 1 0
29.289633 -25.80866 0.68141174 41 3200865864696 1 0
18.155016 -17.650873 -1.4746381 6 3200865867000 1 0
32.96177 -26.306755 2.456025 22 3200865867000 1 0
32.580963 -28.725668 1.7696269 28 3200865869304 1 0
23.160498 -18.489885 -1.3804854 4 3200865869304 1 0
21.606222 -19.055151 -1.5097877 4 3200865871608 1 0
44.90339 -35.858738 7.0557475 50 3200865871608 1 0
29.995182 -26.461372 3.265319 19 3200865873912 1 0
26.441833 -19.083317 -1.3285228 5 3200865873912 1 0
20.610783 -20.061785 -1.0044075 4 3200865876216 1 1
0 0 0 9 3200865876216 1 0
30.015259 -26.494614 7.2995954 16 3200865878520 1 0
0 0 0 4 3200865878520 1 0
36.749447 -26.611938 -0.7919902 7 3200865899256 1 0
28.511883 -25.241821 -1.108233 23 3200865901560 1 0
0 0 0 4 3200865899256 1 0
0 0 0 1 3200865901560 1 0
6.198735 -5.489484 -1.6560144 3 3200865903864 1 0
31.716974 -25.435091 0 5 3200865903864 1 0
20.43476 -19.966702 -0.33260903 35 3200865906168 1 1
8.052928 -6.459981 -1.6061444 5 3200865906168 1 0
9.577537 -8.486908 -1.6288601 20 3200865908472 1 0
40.73418 -29.535416 0.29243225 10 3200865908472 1 0
29.29827 -25.96996 -0.22754805 53 3200865910776 1 0
9.236781 -9.033488 -1.2060423 13 3200865913080 1 0
11.270608 -9.046832 -1.5567627 18 3200865910776 1 0
38.12247 -30.610195 1.1376606 40 3200865913080 1 0
28.656769 -28.034626 0.4667143 26 3200865915384 1 0
16.818132 -13.508237 -1.508414 4 3200865915384 1 0
56.181545 -40.788326 2.020512 25 3200865917688 1 0
0 0 0 220 3200865917688 1 0
29.248522 -25.957785 0.68259853 41 3200865919992 1 0
18.11483 -17.737804 -1.4764986 6 3200865922296 1 0
32.709095 -26.296438 2.4441645 21 3200865922296 1 0
18.575172 -13.490082 -1.4712793 4 3200865919992 1 0
23.081875 -18.562449 -1.3797408 4 3200865924600 1 0
21.540894 -19.134987 -1.509997 4 3200865926904 1 0
9.867775 -8.762945 0.53766173 2 3200865924600 1 0
44.892353 -36.11373 7.0742717 50 3200865926904 1 0
29.977604 -26.637592 3.2737808 19 3200865929208 1 0
26.382944 -19.185045 -1.3290113 5 3200865929208 1 0
20.609943 -20.205662 -1.0078975 8 3200865931512 1 1
0 0 0 9 3200865931512 1 0
29.999092 -26.673088 7.318967 16 3200865933816 1 0
31.601782 -25.445965 -0.9441113 12 3200865933816 1 0
0 0 0 4 3200865954552 1 0
36.53536 -26.661581 -0.78947705 7 3200865954552 1 0
0 0 0 1 3200865956856 1 0
28.311752 -25.250347 -1.104044 23 3200865956856 1 0
31.775991 -25.674349 0 5 3200865959160 1 0
20.352888 -20.033049 -0.33246934 52 3200865961464 1 1
6.1844273 -5.517389 -1.6575834 4 3200865959160 1 0
8.029197 -6.4894533 -1.6061444 6 3200865961464 1 0
9.525645 -8.503457 -1.6253246 22 3200865963768 1 0
41.381393 -30.23672 0.2978722 11 3200865963768 1 0
29.244658 -26.114466 -0.22787352 37 3200865966072 1 0
11.225005 -9.078077 -1.5550492 18 3200865966072 1 0
37.944736 -30.696898 1.1357065 8 3200865968376 1 0
9.178075 -9.042127 -1.2026962 11 3200865968376 1 0
28.607952 -28.192812 0.46759903 16 3200865970680 1 0
16.78402 -13.582338 -1.5098091 4 3200865970680 1 0
10.308564 -9.213683 -1.128688 182 3200865972984 1 0
56.35436 -41.230053 2.0321484 26 3200865972984 1 0
29.206852 -26.112793 0.6838551 41 3200865975288 1 0
18.528826 -13.56043 -1.4715351 4 3200865975288 1 0
18.046854 -17.801275 -1.476266 6 3200865977592 1 0
32.46045 -26.29299 2.4327693 21 3200865977592 1 0
0 0 0 9 3200865979896 1 0
21.491451 -19.232456 -1.5114625 4 3200865982200 1 0
23.022997 -18.65447 -1.3802992 4 3200865979896 1 0
44.876892 -36.373024 7.092796 51 3200865982200 1 0
30.043146 -26.893534 3.291681 19 3200865984504 1 0
26.318897 -19.286339 -1.329337 5 3200865984504 1 0
0 0 0 9 3200865986808 1 0
30.009583 -26.880005 7.345514 24 3200865989112 1 0
30.225737 -24.521116 -0.9056806 5 3200865989112 1 0
0 0 0 4 3200866009296 1 0
33.165924 -24.371708 -0.71841085 6 3200866009296 1 0
20.672274 -20.415897 -1.0145981 12 3200865986808 1 1
28.117785 -25.24526 -1.0997386 22 3200866011600 1 0
0 0 0 1 3200866011600 1 0
6.171933 -5.5431085 -1.6591523 4 3200866013904 1 0
0 0 0 11 3200866013904 1 0
9.253869 -9.169062 -0.15166003 87 3200866016208 1 0
8.010698 -6.518538 -1.6067593 5 3200866016208 1 0
40.21448 -29.589128 0.29017723 21 3200866018512 1 0
9.53281 -8.566826 -1.6313854 14 3200866018512 1 0
10.87719 -8.856608 -1.5109252 65 3200866020816 1 0
9.938435 -8.934091 -0.07767042 12 3200866020816 1 0
9.139557 -9.064099 -1.2015809 8 3200866023120 1 0
44.443893 -36.199146 1.3338155 11 3200866023120 1 0
16.735792 -13.635402 -1.5095301 4 3200866025424 1 0
0 0 0 49 3200866025424 1 0
0 0 0 19 3200866027728 1 0
56.32999 -41.49971 2.036221 26 3200866027728 1 0
29.167662 -26.252312 0.68497205 42 3200866030032 1 0
18.470901 -13.612327 -1.4705118 4 3200866030032 1 0
9.268722 -9.203435 -0.7606909 5 3200866032336 1 0
32.209064 -26.266731 2.4204438 21 3200866032336 1 0
9.889513 -8.90651 0.54222095 7 3200866034640 1 0
22.967203 -18.735765 -1.3806715 4 3200866034640 1 0
21.507687 -19.375807 -1.5171148 4 3200866036944 1 0
44.879066 -36.622044 7.1122947 51 3200866036944 1 0
29.998222 -27.033045 3.296563 19 3200866039248 1 0
26.270876 -19.385374 -1.3301511 5 3200866039248 1 0
9.292985 -9.238809 -0.4576022 4 3200866041552 1 0
0 0 0 9 3200866041552 1 0
30.040102 -27.087416 7.3749304 24 3200866043856 1 0
0 0 0 4 3200866064592 1 0
30.153547 -24.628803 -0.9059597 11 3200866043856 1 0
33.06352 -24.483583 -0.7181316 6 3200866064592 1 0
27.92165 -25.253868 -1.0956659 22 3200866066896 1 0
0 0 0 1 3200866066896 1 0
6.140103 -5.554988 -1.6560144 4 3200866069200 1 0
0 0 0 236 3200866071504 1 0
7.9870386 -6.5475063 -1.6067593 6 3200866071504 1 0
30.903727 -25.326698 0 44 3200866069200 1 0
40.10749 -29.73399 0.29017723 10 3200866073808 1 0
9.504789 -8.603818 -1.6318905 12 3200866073808 1 0
9.93889 -8.999269 -0.07792614 13 3200866076112 1 0
10.697705 -8.774564 -1.4903625 16 3200866076112 1 0
30.89373 -25.347063 0.92987424 6 3200866078416 1 0
9.112703 -9.102371 -1.2023245 6 3200866078416 1 0
0 0 0 239 3200866080720 1 0
16.773464 -13.76583 -1.5173428 4 3200866080720 1 0
0 0 0 19 3200866083024 1 0
56.43921 -41.889988 2.04553 27 3200866083024 1 0
29.119143 -26.395525 0.6860192 49 3200866085328 1 0
18.448318 -13.696559 -1.4725584 4 3200866085328 1 0
9.199562 -9.199294 -0.7576677 20 3200866087632 1 0
32.026924 -26.306433 2.4136996 31 3200866087632 1 0
9.899679 -8.978711 0.5445006 11 3200866089936 1 0
22.981659 -18.882105 -1.3855107 4 3200866089936 1 0
21.451756 -19.4615 -1.5179521 4 3200866092240 1 0
44.879784 -36.88435 7.132769 78 3200866092240 1 0
30.028069 -27.249683 3.3102322 20 3200866094544 1 0
26.273901 -19.52903 -1.3337333 5 3200866094544 1 0
9.184669 -9.194559 -0.45383304 22 3200866096848 1 0
0 0 0 9 3200866096848 1 0
29.99608 -27.235773 7.3871274 16 3200866099152 1 0
30.37731 -24.98663 -0.91526496 17 3200866099152 1 0
0 0 0 4 3200866119888 1 0
32.940468 -24.562012 -0.7172241 6 3200866119888 1 0
9.966062 -9.074249 -0.39225677 3 3200866122192 1 0
0 0 0 1 3200866122192 1 0
6.121567 -5.5754075 -1.6560144 3 3200866124496 1 0
30.67419 -25.309837 0 5 3200866124496 1 0
9.155974 -9.199223 -0.15110126 227 3200866126800 1 0
7.9681873 -6.576646 -1.6073742 7 3200866126800 1 0
9.478888 -8.638238 -1.6323956 12 3200866129104 1 0
32.792805 -24.481607 0.23784676 6 3200866129104 1 0
9.950049 -9.070264 -0.07825161 13 3200866131408 1 0
10.609966 -8.762262 -1.4822232 14 3200866131408 1 0
9.062411 -9.113168 -1.199722 10 3200866133712 1 0
29.91741 -24.714674 0.90298206 11 3200866133712 1 0
9.15344 -9.207384 0.15114783 215 3200866136016 1 0
16.647045 -13.756143 -1.5100881 4 3200866136016 1 0
14.166038 -12.924795 -1.5654525 3 3200866138320 1 0
40.899704 -30.570917 1.4860609 24 3200866138320 1 0
29.076984 -26.536978 0.6871362 21 3200866140624 1 0
18.392305 -13.751694 -1.4717909 4 3200866140624 1 0
9.157078 -9.219085 -0.7567375 21 3200866142928 1 0
31.989904 -26.45808 2.417653 31 3200866142928 1 0
22.9174 -18.960045 -1.3855107 4 3200866145232 1 0
9.913399 -9.052706 0.546943 28 3200866145232 1 0
21.385397 -19.534397 -1.5179521 4 3200866147536 1 0
44.86716 -37.130535 7.1508055 52 3200866147536 1 0
30.058569 -27.464888 3.3239014 20 3200866149840 1 0
26.21034 -19.620922 -1.3338962 5 3200866149840 1 0
9.144742 -9.217384 -0.45341426 24 3200866152144 1 0
0 0 0 9 3200866152144 1 0
29.963606 -27.394117 7.402194 24 3200866154448 1 0
30.211477 -25.024208 -0.9128456 29 3200866154448 1 0
0 0 0 4 3200866175184 1 0
32.42282 -24.352592 -0.7077998 6 3200866175184 1 0
9.922538 -9.098173 -0.3917913 12 3200866177488 1 0
0 0 0 1 3200866177488 1 0
6.0991774 -5.594091 -1.6552299 3 3200866179792 1 0
30.056513 -24.977037 0 16 3200866179792 1 0
9.123807 -9.231127 -0.15110126 113 3200866182096 1 0
7.9451823 -6.60442 -1.6073742 6 3200866182096 1 0
9.439906 -8.663224 -1.6308804 12 3200866184400 1 0
32.71674 -24.603138 0.2379165 6 3200866184400 1 0
9.906542 -9.094121 -0.07815862 15 3200866186704 1 0
10.533451 -8.761097 -1.4757973 7 3200866186704 1 0
9.024949 -9.139078 -1.1989784 15 3200866189008 1 0
0 0 0 10 3200866189008 1 0
9.112815 -9.230741 0.15100813 113 3200866191312 1 0
16.690937 -13.890743 -1.518459 4 3200866191312 1 0
9.887521 -9.084613 -1.0961422 12 3200866193616 1 0
44.603386 -33.582592 1.6248809 18 3200866193616 1 0
9.879295 -9.079706 0.2342113 14 3200866195920 1 0
18.353756 -13.823015 -1.4725584 4 3200866195920 1 0
9.144471 -9.270894 -0.7583654 15 3200866198224 1 0
29.675953 -24.719221 2.2492824 17 3200866198224 1 0
9.867029 -9.073728 0.54612887 30 3200866200528 1 0
22.860287 -19.0476 -1.386069 4 3200866200528 1 0
0 0 0 92 3200866202832 1 0
44.86232 -37.391144 7.170792 53 3200866202832 1 0
30.006521 -27.610136 3.3287833 30 3200866205136 1 0
26.179983 -19.74117 -1.3358501 5 3200866205136 1 0
9.129345 -9.2663355 -0.45425186 11 3200866207440 1 0
0 0 0 9 3200866207440 1 0
29.940176 -27.565176 7.420131 8 3200866209744 1 0
30.062527 -25.078281 -0.9109846 17 3200866209744 1 0
0 0 0 4 3200866230480 1 0
32.178146 -24.34497 -0.7043093 6 3200866230480 1 0
9.858406 -9.102918 -0.39051133 15 3200866232784 1 0
0 0 0 1 3200866232784 1 0
6.085376 -5.6206694 -1.6567988 14 3200866235088 1 0
0 0 0 85 3200866235088 1 0
0 0 0 100 3200866237392 1 0
7.928141 -6.637188 -1.6086041 6 3200866237392 1 0
9.406694 -8.69343 -1.6303753 13 3200866239696 1 0
32.29587 -24.463594 0.2354755 6 3200866239696 1 0
9.857114 -9.112354 -0.07801913 22 3200866242000 1 0
10.472318 -8.772275 -1.4715134 6 3200866242000 1 0
9.026455 -9.204648 -1.2034398 10 3200866244304 1 0
0 0 0 3 3200866244304 1 0
0 0 0 29 3200866246608 1 0
16.642347 -13.94892 -1.518459 4 3200866246608 1 0
9.846971 -9.110949 -1.0951658 15 3200866248912 1 0
44.594204 -33.82023 1.6288372 18 3200866248912 1 0
9.835801 -9.10327 0.23393206 13 3200866251216 1 0
18.321295 -13.899061 -1.4738375 4 3200866251216 1 0
0 0 0 12 3200866253520 1 0
9.835296 -9.108115 0.54612887 23 3200866255824 1 0
29.543596 -24.784163 2.245794 8 3200866253520 1 0
22.815084 -19.14526 -1.387372 4 3200866255824 1 0
0 0 0 116 3200866258128 1 0
44.85012 -37.64706 7.1898036 80 3200866258128 1 0
29.88949 -27.695742 3.3265052 20 3200866260432 1 0
25.001219 -25.554186 -1.2484248 18 3200866262736 1 0
26.13001 -19.84694 -1.336827 5 3200866260432 1 0
0 0 0 9 3200866262736 1 0
30.115028 -27.921011 7.4875736 16 3200866265040 1 0
29.870705 -25.095608 -0.90782076 58 3200866265040 1 0
0 0 0 4 3200866285776 1 0
32.15977 -24.50805 -0.7057753 6 3200866285776 1 0
9.8265705 -9.137275 -0.39051133 4 3200866288080 1 0
0 0 0 1 3200866288080 1 0
6.0628467 -5.6392055 -1.6560144 39 3200866290384 1 0
29.667315 -25.005808 0 21 3200866290384 1 0
28.42253 -29.161264 -0.47407147 54 3200866292688 1 0
7.901903 -6.6622744 -1.6079891 5 3200866292688 1 0
9.379196 -8.728915 -1.6308804 11 3200866294992 1 0
32.13078 -24.515522 0.2348943 6 3200866294992 1 0
9.951136 -9.263902 -0.07901878 11 3200866297296 1 0
10.414275 -8.785697 -1.4676579 5 3200866297296 1 0
8.999826 -9.241807 -1.2041833 17 3200866299600 1 0
29.553053 -24.938921 0.89981824 17 3200866299600 1 0
0 0 0 8 3200866301904 1 0
16.593555 -14.006928 -1.518459 4 3200866301904 1 0
0 0 0 9 3200866304208 1 0
44.593437 -34.06549 1.6331426 18 3200866304208 1 0
28.970116 -27.000893 0.6912549 35 3200866306512 1 0
18.351961 -14.023522 -1.4802333 4 3200866306512 1 0
17.735842 -18.233921 -1.4813823 3 3200866308816 1 0
29.508759 -24.93095 2.2497475 26 3200866308816 1 0
9.96128 -9.289585 0.5549216 5 3200866311120 1 0
22.75422 -19.22994 -1.3877442 4 3200866311120 1 0
30.152882 -25.490183 4.8479624 22 3200866313424 1 0
9.826009 -9.166108 -0.70423263 100 3200866313424 1 0
30.107435 -28.093655 3.3616545 31 3200866315728 1 0
26.063747 -19.940458 -1.3369899 5 3200866315728 1 0
25.023293 -25.75599 -1.2540088 12 3200866318032 1 0
0 0 0 9 3200866318032 1 0
0 0 0 29 3200866320336 1 0
29.663864 -25.098986 -0.90419173 23 3200866320336 1 0
0 0 0 4 3200866341072 1 0
31.880503 -24.471613 -0.7015169 6 3200866341072 1 0
26.949602 -25.23554 -1.0744879 44 3200866343376 1 0
0 0 0 1 3200866343376 1 0
6.043043 -5.6604223 -1.6560144 41 3200866345680 1 0
29.58863 -25.117409 0 5 3200866345680 1 0
28.389467 -29.33277 -0.47523558 54 3200866347984 1 0
7.884479 -6.695105 -1.609219 6 3200866347984 1 0
9.342625 -8.756447 -1.6298702 15 3200866350288 1 0
31.923779 -24.535837 0.23401089 6 3200866350288 1 0
9.985515 -9.361865 -0.07955348 3 3200866352592 1 0
10.352916 -8.796622 -1.463374 40 3200866352592 1 0
29.492151 -25.066523 0.90065575 11 3200866354896 1 0
8.9975605 -9.305051 -1.2082729 5 3200866354896 1 0
28.352083 -29.329975 0.47490963 33 3200866357200 1 0
16.543844 -14.065607 -1.518459 4 3200866357200 1 0
14.012507 -13.149419 -1.568707 3 3200866359504 1 0
44.595844 -34.31863 1.6376806 27 3200866359504 1 0
28.908905 -27.13659 0.69209266 28 3200866361808 1 0
18.308302 -14.093565 -1.480745 4 3200866361808 1 0
17.706818 -18.334345 -1.4844055 3 3200866364112 1 0
30.246916 -25.739868 2.3130028 36 3200866364112 1 0
9.965918 -9.360665 0.5570384 6 3200866366416 1 0
22.694538 -19.318836 -1.3883026 4 3200866366416 1 0
0 0 0 17 3200866368720 1 0
29.967781 -25.518112 4.8328505 15 3200866368720 1 0
34.529724 -32.452515 3.8683925 15 3200866371024 1 0
26.011084 -20.048412 -1.3379669 5 3200866371024 1 0
25.871433 -26.821083 -1.3013325 20 3200866373328 1 0
0 0 0 9 3200866373328 1 0
0 0 0 29 3200866375632 1 0
29.661581 -25.28083 -0.9068903 23 3200866375632 1 0
0 0 0 4 3200866396368 1 0
31.768452 -24.571167 -0.7010283 6 3200866396368 1 0
21.130562 -19.931591 -0.84537095 4 3200866398672 1 1
0 0 0 1 3200866398672 1 0
6.025357 -5.6849623 -1.6567988 39 3200866400976 1 0
31.7015 -27.109148 0 6 3200866400976 1 0
28.380688 -29.535715 -0.47686532 54 3200866403280 1 0
9.311234 -8.789818 -1.6298702 14 3200866405584 1 0
7.8573236 -6.7208743 -1.6086041 7 3200866403280 1 0
31.835787 -24.6499 0.23401089 6 3200866405584 1 0
28.925827 -27.313179 -0.23122117 60 3200866407888 1 0
9.022543 -9.397123 -1.2160802 2 3200866410192 1 0
10.294375 -8.810109 -1.4595186 35 3200866407888 1 0
29.52185 -25.27202 0.9042848 5 3200866410192 1 0
28.35414 -29.53903 0.4766791 28 3200866412496 1 0
16.506462 -14.134011 -1.519575 4 3200866412496 1 0
13.9694195 -13.20099 -1.5690325 3 3200866414800 1 0
38.948696 -30.189936 1.4341633 7 3200866414800 1 0
28.884354 -27.302643 0.6937681 28 3200866417104 1 0
18.265614 -14.1618805 -1.4812566 4 3200866417104 1 0
17.662863 -18.415445 -1.4860333 3 3200866419408 1 0
30.039755 -25.742638 2.3039331 27 3200866419408 1 0
9.974449 -9.433192 0.559318 2 3200866421712 1 0
0 0 0 8 3200866424016 1 0
44.842236 -38.448025 7.2526884 55 3200866424016 1 0
34.257618 -32.415646 3.8501668 15 3200866426320 1 0
26.02207 -20.19752 -1.3420377 5 3200866426320 1 0
22.619133 -19.388655 -1.3877442 4 3200866421712 1 0
25.772877 -26.899193 -1.3009137 20 3200866428624 1 0
0 0 0 9 3200866428624 1 0
29.580065 -25.382301 -0.9069833 99 3200866430928 1 0
9.733088 -9.214587 2.4437213 1 3200866430928 1 0
0 0 0 4 3200866451664 1 0
31.725817 -24.697874 -0.7017962 6 3200866451664 1 0
0 0 0 18 3200866453968 1 0
0 0 0 1 3200866453968 1 0
6.012907 -5.709527 -1.6583678 45 3200866456272 1 0
0 0 0 62 3200866456272 1 0
28.376966 -29.722048 -0.47840196 36 3200866458576 1 0
7.835729 -6.7460384 -1.6086041 6 3200866458576 1 0
9.282805 -8.819837 -1.6298702 13 3200866460880 1 0
31.838055 -24.8165 0.23461533 6 3200866460880 1 0
28.891975 -27.45942 -0.23166288 60 3200866463184 1 0
10.2385645 -8.820166 -1.4556631 32 3200866463184 1 0
9.057717 -9.495764 -1.2250028 2 3200866465488 1 0
0 0 0 82 3200866465488 1 0
28.356045 -29.736483 0.47835538 28 3200866467792 1 0
16.462833 -14.190917 -1.5198541 4 3200866467792 1 0
13.934232 -13.255485 -1.5700089 3 3200866470096 1 0
38.637184 -30.154112 1.426367 7 3200866470096 1 0
28.836517 -27.440258 0.6948152 21 3200866472400 1 0
18.215094 -14.220314 -1.4810008 4 3200866472400 1 0
17.603645 -18.477575 -1.4862659 3 3200866474704 1 0
30.019611 -25.900808 2.3090494 27 3200866474704 1 0
29.894053 -28.463991 1.6816992 26 3200866477008 1 0
22.586714 -19.49375 -1.3897916 4 3200866477008 1 0
20.993599 -19.995428 -1.5194175 4 3200866479312 1 0
44.852367 -38.722355 7.2756 84 3200866479312 1 0
33.98475 -32.378796 3.8319411 14 3200866481616 1 0
25.965332 -20.296377 -1.3426889 5 3200866481616 1 0
25.685514 -26.993666 -1.3011929 20 3200866483920 1 0
0 0 0 9 3200866483920 1 0
9.703913 -9.251009 2.444439 1 3200866486224 1 0
29.270962 -25.29389 -0.9001905 40 3200866486224 1 0
0 0 0 4 3200866506960 1 0
31.735779 -24.892975 -0.7040301 6 3200866506960 1 0
20.846733 -19.934338 -0.8394365 13 3200866509264 1 1
0 0 0 1 3200866509264 1 0
5.9948583 -5.7341514 -1.6591523 47 3200866511568 1 0
29.384798 -25.47786 0 64 3200866511568 1 0
28.378548 -29.941359 -0.4802645 46 3200866513872 1 0
7.8140845 -6.777132 -1.609219 7 3200866513872 1 0
9.253541 -8.856275 -1.6303753 13 3200866516176 1 0
31.766483 -24.946924 0.23475482 6 3200866516176 1 0
28.83548 -27.605574 -0.2320116 60 3200866518480 1 0
0 0 0 8 3200866518480 1 0
11.912357 -12.579361 -1.6172268 3 3200866520784 1 0
29.041918 -25.21018 0.8948865 100 3200866520784 1 0
28.352875 -29.94915 0.48012483 28 3200866523088 1 0
16.417461 -14.255558 -1.5204121 4 3200866523088 1 0
13.900722 -13.31945 -1.5716362 3 3200866525392 1 0
38.53131 -30.295752 1.4264834 15 3200866525392 1 0
28.803963 -27.607534 0.69642085 42 3200866527696 1 0
18.160648 -14.283324 -1.480745 4 3200866527696 1 0
17.545383 -18.5494 -1.4869636 3 3200866530000 1 0
30.004736 -26.07659 2.315096 27 3200866530000 1 0
29.693737 -28.476929 1.676163 35 3200866532304 1 0
22.51668 -19.574602 -1.3897916 4 3200866532304 1 0
20.947866 -20.0953 -1.5213016 4 3200866534608 1 0
30.090635 -26.166613 4.8962226 15 3200866534608 1 0
33.713585 -32.35088 3.8143666 14 3200866536912 1 0
25.905256 -20.398851 -1.3433403 5 3200866536912 1 0
25.575436 -27.070492 -1.3004948 20 3200866539216 1 0
0 0 0 11 3200866541520 1 0
0 0 0 9 3200866539216 1 0
29.08732 -25.316433 -0.89730585 28 3200866541520 1 0
0 0 0 4 3200866562256 1 0
31.676937 -25.025915 -0.7046584 6 3200866562256 1 0
20.670603 -19.90422 -0.83513105 18 3200866564560 1 1
0 0 0 1 3200866564560 1 0
5.969239 -5.749513 -1.6575834 35 3200866566864 1 0
28.36498 -30.13573 -0.48180115 55 3200866569168 1 0
29.359331 -25.635098 0 75 3200866566864 1 0
7.790529 -6.804197 -1.609219 6 3200866569168 1 0
9.225686 -8.891007 -1.6308804 16 3200866571472 1 0
31.799154 -25.151028 0.23563823 6 3200866571472 1 0
28.803305 -27.766088 -0.23252304 56 3200866573776 1 0
10.130914 -8.8532095 -1.4492372 3 3200866573776 1 0
11.852554 -12.6029415 -1.6149961 3 3200866576080 1 0
0 0 0 5 3200866576080 1 0
16.374336 -14.317199 -1.5209701 4 3200866578384 1 0
13.85779 -13.369854 -1.5719616 3 3200866580688 1 0
38.555614 -30.529596 1.4312543 22 3200866580688 1 0
28.76391 -27.7588 0.69774723 57 3200866582992 1 0
18.127264 -14.357837 -1.4820241 4 3200866582992 1 0
17.498285 -18.626722 -1.488359 3 3200866585296 1 0
28.345581 -30.148489 0.48175457 40 3200866578384 1 0
30.002579 -26.255255 2.32184 27 3200866585296 1 0
22.458807 -19.65918 -1.39035 4 3200866587600 1 0
29.467058 -28.45311 1.6688356 35 3200866587600 1 0
20.954056 -20.23863 -1.5267445 4 3200866589904 1 0
30.153744 -26.402256 4.921084 23 3200866589904 1 0
33.434357 -32.301754 3.7951646 14 3200866592208 1 0
25.845224 -20.494162 -1.3438288 5 3200866592208 1 0
25.505434 -27.180328 -1.3016117 20 3200866594512 1 0
0 0 0 9 3200866594512 1 0
0 0 0 112 3200866596816 1 0
28.88425 -25.311863 -0.8936768 28 3200866596816 1 0
0 0 0 4 3200866617552 1 0
31.731493 -25.240368 -0.70773 13 3200866617552 1 0
20.65329 -20.019966 -0.8371092 4 3200866619856 1 1
0 0 0 1 3200866619856 1 0
5.9473243 -5.7665462 -1.6567988 10 3200866622160 1 0
29.268152 -25.727034 0 48 3200866622160 1 0
28.423328 -30.399078 -0.48450187 41 3200866624464 1 0
7.773859 -6.8352137 -1.6104487 7 3200866624464 1 0
9.187608 -8.913262 -1.6293652 19 3200866626768 1 0
31.749994 -25.283749 0.23589395 6 3200866626768 1 0
28.76274 -27.91159 -0.2329415 16 3200866629072 1 0
10.062682 -8.852607 -1.4436682 3 3200866629072 1 0
0 0 0 28 3200866631376 1 0
29.25802 -25.746807 0.9068903 23 3200866631376 1 0
28.390142 -30.397245 0.4842225 40 3200866633680 1 0
16.335754 -14.379329 -1.5218072 4 3200866633680 1 0
13.8190975 -13.421289 -1.5726125 3 3200866635984 1 0
38.260326 -30.50275 1.4240398 30 3200866635984 1 0
28.731941 -27.912556 0.6992132 50 3200866638288 1 0
18.088915 -14.425336 -1.4827915 4 3200866638288 1 0
17.439146 -18.687567 -1.4885916 3 3200866640592 1 0
29.26364 -28.444813 1.6626482 35 3200866642896 1 0
30.050184 -26.473389 2.332305 28 3200866640592 1 0
22.46244 -19.794306 -1.3946308 9 3200866642896 1 0
20.895418 -20.316359 -1.5273726 4 3200866645200 1 0
29.946892 -26.397093 4.901585 23 3200866645200 1 0
33.109848 -32.201202 3.7704296 14 3200866647504 1 0
25.798985 -20.59721 -1.3449686 5 3200866647504 1 0
25.415161 -27.264757 -1.3016117 13 3200866649808 1 0
0 0 0 9 3200866649808 1 0
9.422411 -9.168896 2.3970854 117 3200866652112 1 0
28.677206 -25.299042 -0.88986164 46 3200866652112 1 0
0 0 0 4 3200866673296 1 0
31.772963 -25.46405 -0.7107318 13 3200866673296 1 0
20.456621 -19.975563 -0.83210564 4 3200866675600 1 1
0 0 0 1 3200866675600 1 0
5.9457064 -5.8075767 -1.6622902 3 3200866677904 1 0
29.263123 -25.914114 0 59 3200866677904 1 0
28.411728 -30.61214 -0.48622477 41 3200866680208 1 0
7.7663565 -6.8795543 -1.6141382 14 3200866680208 1 0
9.154616 -8.947144 -1.6293652 14 3200866682512 1 0
31.715649 -25.448433 0.23633566 6 3200866682512 1 0
20.541973 -20.082268 -0.16696465 18 3200866684816 1 1
10.003058 -8.866053 -1.4398128 18 3200866684816 1 0
0 0 0 252 3200866687120 1 0
28.383038 -30.616932 0.4860385 41 3200866689424 1 0
29.219181 -25.905548 0.90865827 17 3200866687120 1 0
16.27922 -14.437287 -1.5215282 4 3200866689424 1 0
9.400668 -9.198318 -1.0736856 14 3200866691728 1 0
38.056095 -30.572378 1.4206653 7 3200866691728 1 0
28.679058 -28.069904 0.7004698 58 3200866694032 1 0
18.050531 -14.505221 -1.4840708 4 3200866694032 1 0
17.377312 -18.76141 -1.4892892 3 3200866696336 1 0
29.965952 -26.598782 2.3334677 18 3200866696336 1 0
29.048397 -28.447947 1.6564606 35 3200866698640 1 0
22.40309 -19.891558 -1.3955615 4 3200866698640 1 0
20.807621 -20.383444 -1.5265352 4 3200866700944 1 0
29.906996 -26.56201 4.9113345 15 3200866700944 1 0
32.831932 -32.171993 3.7525294 14 3200866703248 1 0
25.74316 -20.711597 -1.3461083 5 3200866703248 1 0
25.312275 -27.360302 -1.3016117 20 3200866705552 1 0
0 0 0 9 3200866705552 1 0
9.317492 -9.135518 2.3791485 118 3200866707856 1 0
28.482887 -25.319422 -0.88679093 39 3200866707856 1 0
0 0 0 4 3200866728592 1 0
31.721228 -25.604946 -0.7115695 6 3200866728592 1 0
20.36396 -20.024422 -0.83117473 4 3200866730896 1 1
0 0 0 1 3200866730896 1 0
5.9058237 -5.809042 -1.6567988 3 3200866733200 1 0
29.196371 -26.037403 0 75 3200866733200 1 0
28.399572 -30.814068 -0.4878545 42 3200866735504 1 0
7.7540927 -6.917146 -1.6165979 53 3200866735504 1 0
0 0 0 1 3200866737808 1 0
20.466047 -20.148237 -0.16691816 50 3200866740112 1 1
9.966116 -8.895619 -1.4389559 47 3200866740112 1 0
9.1205015 -8.976261 -1.6288601 16 3200866737808 1 0
8.670826 -9.416249 -1.194889 162 3200866742416 1 0
29.170338 -26.04467 0.909961 29 3200866742416 1 0
28.370804 -30.818813 0.48766825 41 3200866744720 1 0
16.246582 -14.509973 -1.5232024 4 3200866744720 1 0
44.572918 -36.064392 1.668633 9 3200866747024 1 0
9.2577505 -9.121948 -1.0609927 13 3200866747024 1 0
28.632172 -28.220375 0.7017264 50 3200866749328 1 0
17.993584 -14.563119 -1.4835591 4 3200866749328 1 0
9.881227 -8.8327675 0.7718536 3 3200866751632 1 0
28.843628 -28.445335 1.6504359 25 3200866753936 1 0
22.354368 -19.988281 -1.3968643 4 3200866753936 1 0
17.382002 -18.89837 -1.4953356 6 3200866751632 1 0
20.75625 -20.47559 -1.5280006 4 3200866756240 1 0
29.90583 -26.748293 4.9264464 23 3200866756240 1 0
9.344761 -9.221086 1.0717329 1 3200866758544 1 0
25.680023 -20.808882 -1.3465968 5 3200866758544 1 0
25.21932 -27.451437 -1.3017513 20 3200866760848 1 0
0 0 0 9 3200866760848 1 0
9.195939 -9.0795145 2.3561895 129 3200866763152 1 0
28.281113 -25.317337 -0.8832549 39 3200866763152 1 0
0 0 0 4 3200866783888 1 0
31.14134 -25.316906 -0.7005396 6 3200866783888 1 0
9.279015 -9.188229 -0.38003874 4 3200866786192 1 0
0 0 0 1 3200866786192 1 0
5.8938704 -5.8379025 -1.6591523 4 3200866788496 1 0
29.191608 -26.216667 0 55 3200866788496 1 0
28.391752 -31.022184 -0.48957738 52 3200866790800 1 0
7.7004976 -6.917757 -1.6104487 78 3200866790800 1 0
9.075022 -8.994077 -1.6263347 15 3200866793104 1 0
0 0 0 12 3200866793104 1 0
9.24051 -9.160753 -0.07562462 14 3200866795408 1 0
9.896553 -8.895791 -1.4333869 43 3200866795408 1 0
0 0 0 100 3200866797712 1 0
29.13872 -26.19981 0.911822 23 3200866797712 1 0
28.362904 -31.026888 0.48939115 42 3200866800016 1 0
16.198801 -14.569263 -1.5234814 4 3200866800016 1 0
9.211702 -9.140168 -1.0593654 14 3200866802320 1 0
50.478374 -41.134937 1.8950738 55 3200866802320 1 0
9.2282505 -9.159252 0.22695109 52 3200866804624 1 0
17.948828 -14.630883 -1.4840708 4 3200866804624 1 0
17.321314 -18.964827 -1.4958007 6 3200866806928 1 0
9.877045 -8.891251 0.77394664 10 3200866806928 1 0
9.219343 -9.155736 0.5293575 11 3200866809232 1 0
22.28149 -20.063519 -1.3966782 9 3200866809232 1 0
0 0 0 51 3200866811536 1 0
29.90078 -26.932234 4.9410706 23 3200866811536 1 0
0 0 0 59 3200866813840 1 0
25.687737 -20.964096 -1.3508304 5 3200866813840 1 0
25.117954 -27.533394 -1.3014721 20 3200866816144 1 0
0 0 0 9 3200866816144 1 0
9.102797 -9.050519 2.340405 129 3200866818448 1 0
28.091581 -25.324863 -0.88009113 39 3200866818448 1 0
0 0 0 4 3200866839184 1 0
30.480305 -24.956726 -0.6876248 13 3200866839184 1 0
9.204416 -9.178215 -0.3782933 16 3200866841488 1 0
0 0 0 1 3200866841488 1 0
5.8706794 -5.8556705 -1.6583678 7 3200866843792 1 0
9.94126 -8.991026 0 10 3200866843792 1 0
7.6616483 -6.9313364 -1.6073742 103 3200866846096 1 0
28.431244 -31.2839 -0.49213845 38 3200866846096 1 0
9.037953 -9.020094 -1.6253246 16 3200866848400 1 0
0 0 0 1 3200866848400 1 0
9.197153 -9.181649 -0.07553163 100 3200866850704 1 0
0 0 0 5 3200866853008 1 0
9.84775 -8.9142685 -1.4308165 20 3200866850704 1 0
9.903696 -8.967533 0.31088862 10 3200866853008 1 0
28.404974 -31.29155 0.49199873 18 3200866855312 1 0
16.14489 -14.62304 -1.5232024 4 3200866855312 1 0
9.199483 -9.191993 -1.0616436 23 3200866857616 1 0
50.328297 -41.305817 1.8948411 36 3200866857616 1 0
9.179251 -9.174445 0.22653224 106 3200866859920 1 0
17.894562 -14.690914 -1.483815 4 3200866859920 1 0
17.249643 -19.019258 -1.4953356 6 3200866862224 1 0
9.893285 -8.968585 0.7776675 9 3200866862224 1 0
0 0 0 251 3200866864528 1 0
22.2202 -20.149225 -1.3972366 9 3200866864528 1 0
9.189485 -9.192693 -0.6812048 21 3200866866832 1 0
29.897747 -27.119131 4.9561825 16 3200866866832 1 0
9.170251 -9.176121 1.05904 12 3200866869136 1 0
25.617489 -21.056173 -1.3509933 5 3200866869136 1 0
25.019009 -27.617943 -1.3013325 20 3200866871440 1 0
0 0 0 9 3200866871440 1 0
9.001628 -9.012632 2.322468 116 3200866873744 1 0
27.896423 -25.326 -0.87674123 39 3200866873744 1 0
0 0 0 4 3200866894480 1 0
30.386833 -25.05788 -0.6874852 13 3200866894480 1 0
9.163925 -9.201722 -0.37794423 22 3200866896784 1 0
5.8475213 -5.873263 -1.6575834 28 3200866899088 1 0
9.936563 -9.049769 0 14 3200866899088 1 0
28.424385 -31.495167 -0.49390787 34 3200866901392 1 0
0 0 0 1 3200866896784 1 0
7.6404805 -6.9605336 -1.6079891 101 3200866901392 1 0
8.981486 -9.0260105 -1.6207789 20 3200866903696 1 0
30.611523 -25.271603 0.23070973 6 3200866903696 1 0
0 0 0 217 3200866906000 1 0
0 0 0 8 3200866906000 1 0
11.636694 -12.904595 -1.6220598 3 3200866908304 1 0
9.896366 -9.023172 0.31163302 11 3200866908304 1 0
28.393583 -31.496017 0.49367505 18 3200866910608 1 0
