# .PCD v.7 - Point Cloud Data file format
VERSION .7
FIELDS x y z rgb timestamp_ns device_id active
SIZE 4 4 4 4 8 1 1
TYPE F F F F F U U
COUNT 1 1 1 1 1 1 1
WIDTH 926
HEIGHT 1
VIEWPOINT 0 0 0 1 0 0 0
POINTS 926               
DATA ascii
-0.7503944 17.634136 -1.0278978 45 3202827935704 1 0
-3.209559 22.731636 1.336965 13 3202827935704 1 0
-1.9266076 21.054497 0.86136603 19 3202827938008 1 0
-2.1808438 15.462027 -0.72737455 65 3202827938008 1 0
-1.5082016 16.5085 -0.86877686 51 3202827940312 1 0
-2.881467 20.450903 2.5358572 20 3202827940312 1 0
-3.965181 20.763237 -0.86120325 20 3202827942616 1 0
-0.7409376 17.653688 -0.6170231 47 3202827944920 1 0
-2.446596 26.823051 2.1987934 20 3202827942616 1 0
-1.9689623 21.65619 3.9647694 10 3202827947224 1 0
-1.6219077 11.535604 3.1213577 14 3202827944920 1 0
-0.36590427 4.083777 -1.911925 3 3202827967960 1 0
-2.1736147 15.475871 -0.3636494 75 3202827947224 1 0
-3.8594832 20.386728 -0.36217234 20 3202827967960 1 0
-1.4830172 16.578754 -0.48441556 54 3202827970264 1 0
-0.99359834 7.149783 -2.020737 6 3202827970264 1 0
-0.9786626 10.958499 -2.200436 2 3202827972568 1 0
-2.785794 20.06756 0 31 3202827972568 1 0
-2.1255834 53.037827 -0.61795527 36 3202827974872 1 0
-1.9522737 14.078302 -2.2112157 15 3202827974872 1 0
-1.3294954 14.935959 -1.9086704 50 3202827977176 1 0
-3.7220476 19.723537 0.11665673 24 3202827977176 1 0
-1.826265 20.550665 -0.1199114 12 3202827979480 1 0
-2.0758417 15.0014515 -1.6313022 91 3202827979480 1 0
-0.6503976 16.407726 -1.5328336 20 3202827981784 1 0
-2.796913 20.23408 0.47531247 17 3202827981784 1 0
-2.0942533 53.027065 0.61781555 27 3202827984088 1 0
-2.141152 15.506648 -1.0946186 56 3202827984088 1 0
-1.3635691 15.420332 -1.2637529 17 3202827986392 1 0
-3.8095891 20.25208 0.59973043 16 3202827986392 1 0
-1.8710383 21.194332 0.3713872 51 3202827988696 1 0
-3.8668227 20.572807 -1.3415734 30 3202827988696 1 0
-0.69226384 17.724432 -1.0330142 46 3202827991000 1 0
-1.8527517 21.057112 0.86120325 19 3202827993304 1 0
-3.2320082 23.482462 1.3804529 10 3202827991000 1 0
0 0 0 191 3202827993304 1 0
-1.4572082 16.589268 -0.8727544 49 3202827995608 1 0
-2.7895353 20.311373 2.5173333 24 3202827995608 1 0
-2.352951 26.831427 2.1987934 12 3202827997912 1 0
-3.7763925 20.156275 -0.8354762 20 3202827997912 1 0
-0.6829988 17.752037 -0.6203734 47 3202828000216 1 0
-1.6157292 11.7900095 3.1886506 37 3202828000216 1 0
-1.8049583 20.651525 3.7796607 19 3202828002520 1 0
-2.1288009 15.550717 -0.3652313 77 3202828002520 1 0
-0.35102516 4.0778055 -1.9085441 3 3202828023256 1 0
-3.8058217 20.49445 -0.36384776 28 3202828023256 1 0
-1.4306148 16.647568 -0.48627737 50 3202828025560 1 0
-0.9686349 7.153208 -2.020737 7 3202828025560 1 0
-0.9397338 10.954033 -2.198867 2 3202828027864 1 0
-1.9473889 14.396891 0 8 3202828027864 1 0
-1.9397027 53.024937 -0.61772245 29 3202828030168 1 0
-1.2824214 14.999812 -1.9162465 55 3202828032472 1 0
-1.9010025 14.069365 -2.208756 15 3202828030168 1 0
-3.654633 19.744276 0.11670323 30 3202828032472 1 0
-1.8375164 21.529362 -0.12558383 19 3202828034776 1 0
-2.020276 14.984959 -1.628732 85 3202828034776 1 0
-0.59743565 16.529299 -1.5439869 16 3202828037080 1 0
-1.9416904 14.417904 0.3385252 5 3202828037080 1 0
-1.9105804 53.074024 0.6182812 100 3202828039384 1 0
-2.0928624 15.5575285 -1.0976878 19 3202828039384 1 0
-1.32896 15.651427 -1.282304 18 3202828041688 1 0
-3.7417748 20.280985 0.6001959 20 3202828041688 1 0
-1.7713728 20.897865 0.36608168 26 3202828043992 1 0
-3.7877498 20.546925 -1.339015 13 3202828043992 1 0
-0.6336539 17.818527 -1.0383629 46 3202828046296 1 0
-1.7873111 21.15903 0.8651111 13 3202828048600 1 0
-1.92274 14.356109 -0.6747013 114 3202828048600 1 0
-1.4043266 16.65396 -0.87589455 51 3202828050904 1 0
-1.932677 14.414369 0.84696925 12 3202828046296 1 0
-1.9305139 14.430104 1.7875795 7 3202828050904 1 0
-2.2582743 26.827559 2.197817 4 3202828053208 1 0
-3.7117891 20.20078 -0.8367789 28 3202828053208 1 0
-0.62354386 17.826225 -0.62288624 45 3202828055512 1 0
-1.6195521 12.132594 3.2797549 21 3202828055512 1 0
-1.7322022 20.649857 3.7782257 21 3202828057816 1 0
-1.9170018 14.376831 -0.33750165 22 3202828057816 1 0
-0.33649054 4.0753927 -1.9068536 4 3202828078552 1 0
-3.6661947 20.133814 -0.35721585 33 3202828078552 1 0
-1.3793923 16.736141 -0.48872098 51 3202828080856 1 0
-0.9436596 7.1565456 -2.020737 5 3202828080856 1 0
-0.90181303 10.961155 -2.1996515 2 3202828083160 1 0
-1.8929439 14.371875 0 30 3202828083160 1 0
-1.7540703 53.015396 -0.6175362 29 3202828085464 1 0
-1.850333 14.064158 -2.2069113 16 3202828085464 1 0
-1.2358902 15.075382 -1.9253379 53 3202828087768 1 0
-3.5856903 19.756912 0.11670323 22 3202828087768 1 0
-1.7626799 21.53963 -0.12560707 14 3202828090072 1 0
-1.8789274 14.313695 -1.5550492 16 3202828090072 1 0
-0.5428531 16.626818 -1.5529095 20 3202828092376 1 0
-1.8856319 14.380979 0.33750165 23 3202828092376 1 0
-1.7280345 53.164318 0.61925906 18 3202828094680 1 0
0 0 0 237 3202828094680 1 0
-1.2739947 15.651997 -1.2819786 17 3202828096984 1 0
-3.6581476 20.2231 0.5981014 20 3202828096984 1 0
-1.7019775 20.947771 0.36684957 22 3202828099288 1 0
-2.7497296 15.213787 -0.9908302 49 3202828099288 1 0
-0.57375544 17.892471 -1.0425489 37 3202828101592 1 0
-1.8787317 14.39331 0.8453414 56 3202828101592 1 0
-1.7173114 21.212946 0.8670651 30 3202828103896 1 0
-2.766306 21.217222 -0.99669665 215 3202828103896 1 0
-1.3532633 16.746353 -0.88050014 47 3202828106200 1 0
-1.8785936 14.424944 1.7861171 22 3202828106200 1 0
-4.2910857 53.19767 4.356905 42 3202828108504 1 0
-3.6816401 20.437817 -0.8460601 37 3202828108504 1 0
-0.56420827 17.92019 -0.62609696 45 3202828110808 1 0
-1.6299638 12.544312 3.3894942 19 3202828110808 1 0
-1.861144 14.339812 -0.33647805 22 3202828113112 1 0
-1.652229 20.557716 3.7602887 31 3202828113112 1 0
-0.3239726 4.080044 -1.9085441 3 3202828133296 1 0
-3.588138 20.062555 -0.35574985 30 3202828133296 1 0
-0.92155945 7.1633086 -2.0218153 6 3202828135600 1 0
-0.86612654 10.9522295 -2.197298 2 3202828137904 1 0
-1.8437974 14.350033 0 35 3202828137904 1 0
-1.3331968 16.824114 -0.49116457 53 3202828135600 1 0
-1.5844785 52.996727 -0.6172568 21 3202828140208 1 0
-1.80452 14.0621395 -2.2056816 17 3202828140208 1 0
-3.5294714 19.807665 0.1169357 21 3202828142512 1 0
-1.6871673 21.465433 -0.12514213 19 3202828144816 1 0
-1.1926311 15.142551 -1.933419 53 3202828142512 1 0
-1.8278596 14.280212 -1.5507653 27 3202828144816 1 0
-0.49209246 16.728006 -1.5622039 17 3202828147120 1 0
-1.553019 53.081688 0.61823463 100 3202828149424 1 0
-1.8228006 14.276962 -1.0064464 234 3202828149424 1 0
-1.2267205 15.70376 -1.2858841 23 3202828151728 1 0
-1.8361455 14.363193 0.33694333 25 3202828147120 1 0
-3.6271863 20.43175 0.6039195 15 3202828151728 1 0
-3.9248636 50.347557 0.8814861 19 3202828154032 1 0
-2.6985338 15.214843 -0.99031854 60 3202828154032 1 0
-1.8304027 14.391485 0.8448762 54 3202828156336 1 0
-0.5152838 17.906235 -1.0432466 28 3202828156336 1 0
-2.703793 21.285698 -0.99948853 118 3202828158640 1 0
-1.3032767 16.822435 -0.88426834 51 3202828160944 1 0
-1.82825 14.411401 1.7836797 21 3202828160944 1 0
-4.120946 53.30309 4.3643904 42 3202828163248 1 0
-3.5377445 20.020973 -0.82831174 21 3202828163248 1 0
-1.6630425 21.421719 0.87536937 5 3202828158640 1 0
-0.50673187 18.00989 -0.62916815 45 3202828165552 1 0
-1.6398896 12.95984 3.5002687 21 3202828165552 1 0
-1.5722762 20.421904 3.7344596 24 3202828167856 1 0
-1.8124539 14.342017 -0.336385 40 3202828167856 1 0
-3.517278 20.111643 -0.35637814 35 3202828188592 1 0
-0.30775788 4.074028 -1.9051632 3 3202828188592 1 0
-1.2736415 16.892881 -0.49302638 53 3202828190896 1 0
-0.8936749 7.162959 -2.020737 5 3202828190896 1 0
-0.82467973 10.959361 -2.1980827 2 3202828193200 1 0
0 0 0 197 3202828193200 1 0
-1.3827654 52.98237 -0.61702394 14 3202828195504 1 0
-1.7511259 14.068889 -2.2056816 20 3202828195504 1 0
-1.1398094 15.206306 -1.9409951 39 3202828197808 1 0
-3.45935 19.848454 0.117098436 26 3202828197808 1 0
-3.9827647 53.23833 -0.31028646 29 3202828200112 1 0
-0.42921582 16.725754 -1.5618321 23 3202828202416 1 0
-1.772583 14.275156 -1.5494801 31 3202828200112 1 0
-1.7827276 14.37395 0.33703637 21 3202828202416 1 0
-1.3524513 53.003155 0.6172568 36 3202828204720 1 0
-1.7704031 14.291595 -1.0070045 221 3202828204720 1 0
-1.1794771 15.859298 -1.2982515 20 3202828207024 1 0
-3.754981 50.589108 0.88546526 19 3202828209328 1 0
-3.5490339 20.433296 0.6035704 16 3202828207024 1 0
-2.6345785 15.181483 -0.9875044 60 3202828209328 1 0
-0.45313457 18.067696 -1.0525489 35 3202828211632 1 0
-1.7649944 14.299069 0.83906233 110 3202828211632 1 0
-3.929866 53.15471 2.1714892 50 3202828213936 1 0
-1.7649668 14.315971 -0.67190945 229 3202828213936 1 0
-1.2469015 16.898806 -0.8880365 51 3202828216240 1 0
-3.9327698 53.40525 4.3715506 42 3202828218544 1 0
-1.7773583 14.433767 1.7856296 19 3202828216240 1 0
-2.6269085 15.189737 -0.6280319 59 3202828218544 1 0
-1.6492864 13.425902 3.624502 16 3202828220848 1 0
-1.4985948 20.431389 3.7351773 24 3202828223152 1 0
-1.7595277 14.3405485 -0.3361989 22 3202828223152 1 0
-0.4433967 18.099533 -0.6322393 45 3202828220848 1 0
-0.2940559 4.082309 -1.9085441 3 3202828243888 1 0
-1.2204001 16.976986 -0.4953536 53 3202828246192 1 0
-3.4936447 20.395794 -0.361195 18 3202828243888 1 0
-0.867739 7.158387 -2.0185802 6 3202828246192 1 0
-0.7855774 10.950437 -2.1957293 2 3202828248496 1 0
-1.7375331 14.351199 0 170 3202828248496 1 0
-1.7015312 14.0709915 -2.2050664 17 3202828250800 1 0
-1.0926608 15.293308 -1.9516016 55 3202828253104 1 0
-1.1979947 52.99487 -0.6171171 21 3202828250800 1 0
-3.3792765 19.797321 0.11672647 26 3202828253104 1 0
-3.8006022 53.303776 -0.31058866 29 3202828255408 1 0
-1.7270292 14.3167925 -1.5533355 22 3202828255408 1 0
-0.37118253 16.743078 -1.5633192 21 3202828257712 1 0
0 0 0 149 3202828257712 1 0
-0.56794965 25.787998 0.3002934 8 3202828260016 1 0
-1.7252727 14.337305 -1.0097947 146 3202828260016 1 0
-1.1260833 15.891155 -1.3005297 28 3202828262320 1 0
-3.444834 20.252417 0.5978687 23 3202828262320 1 0
-2.5768874 15.163039 -0.9857136 60 3202828264624 1 0
-3.5507216 50.21094 0.87862396 19 3202828264624 1 0
-1.7255284 14.39237 0.84417856 124 3202828266928 1 0
-0.38342768 17.76176 -1.034642 24 3202828266928 1 0
-3.742613 53.144184 2.1705122 50 3202828269232 1 0
-1.7178344 14.345849 -0.67302614 215 3202828269232 1 0
-1.1937869 16.986734 -0.89243275 52 3202828271536 1 0
-2.4836602 20.766941 2.5680308 11 3202828271536 1 0
-3.7449322 53.39877 4.369923 42 3202828273840 1 0
-2.5705338 15.1791115 -0.62721777 71 3202828273840 1 0
-0.3821457 18.192896 -0.63545007 45 3202828276144 1 0
-2.6198804 21.960112 5.925921 10 3202828276144 1 0
-1.4234287 20.381536 3.7251325 27 3202828278448 1 0
-1.8987156 15.934935 -0.37341994 19 3202828278448 1 0
-0.27955636 4.079694 -1.9068536 3 3202828299184 1 0
-2.5731056 15.3433695 -0.27155945 12 3202828299184 1 0
-1.1665624 17.056915 -0.4975645 51 3202828301488 1 0
-0.84285045 7.1613603 -2.0185802 6 3202828301488 1 0
-0.74793416 10.957004 -2.1965137 2 3202828303792 1 0
-1.7009219 14.468362 0 117 3202828303792 1 0
-0.35240635 18.395378 -0.21419594 12 3202828306096 1 0
-1.6520962 14.068922 -2.2038367 14 3202828306096 1 0
-1.0444676 15.360311 -1.9596828 46 3202828308400 1 0
-3.306027 19.777243 0.11654049 21 3202828308400 1 0
-1.4617109 21.538092 -0.1254676 17 3202828310704 1 0
-1.7433391 14.879558 -1.6137383 42 3202828310704 1 0
-0.31726074 16.907505 -1.578562 20 3202828313008 1 0
-1.6914933 14.453419 0.33861828 146 3202828313008 1 0
-0.48033142 25.777779 0.3001537 8 3202828315312 1 0
0 0 0 35 3202828315312 1 0
-1.0746025 15.926686 -1.3031334 23 3202828317616 1 0
-3.3823912 20.299421 0.59891593 28 3202828317616 1 0
-3.3779747 50.162735 0.8775768 19 3202828319920 1 0
-0.33216542 18.210112 -1.0606883 41 3202828322224 1 0
-1.6949325 14.548785 0.8530157 116 3202828322224 1 0
-3.5642495 53.136414 2.169698 50 3202828324528 1 0
-2.484744 21.352606 -1.0013498 52 3202828324528 1 0
-2.5206842 15.140111 -0.98366696 60 3202828319920 1 0
-1.1417193 17.054369 -0.89578223 52 3202828326832 1 0
-2.3973622 20.625204 2.5495067 29 3202828326832 1 0
-3.5545254 53.200016 4.352674 42 3202828329136 1 0
-2.5132074 15.144145 -0.62542665 70 3202828329136 1 0
-0.32397175 18.285982 -0.6386608 45 3202828331440 1 0
-2.544567 21.941738 5.918674 17 3202828331440 1 0
-1.3564614 20.38216 3.724415 24 3202828333744 1 0
-1.8502398 15.972841 -0.37416434 82 3202828333744 1 0
-0.2672112 4.087787 -1.9102346 3 3202828354480 1 0
-2.5190487 15.31586 -0.27093115 16 3202828354480 1 0
-1.1175424 17.136328 -0.49977538 51 3202828356784 1 0
-0.8197538 7.160164 -2.017502 6 3202828356784 1 0
-0.71226597 10.947588 -2.1941602 2 3202828359088 1 0
-1.6707314 14.6128 0 105 3202828359088 1 0
-0.29321852 18.384417 -0.21405624 13 3202828361392 1 0
-1.6051747 14.05844 -2.2013772 15 3202828361392 1 0
-0.9994813 15.434877 -1.9687742 50 3202828363696 1 0
-3.2447388 19.803602 0.11663348 30 3202828363696 1 0
-3.4303598 53.100414 -0.30926356 29 3202828366000 1 0
-1.6958612 14.893049 -1.614595 78 3202828366000 1 0
-0.26563078 17.147387 -1.6008686 18 3202828368304 1 0
-1.6613549 14.609863 0.34215426 112 3202828368304 1 0
-0.39547032 25.78322 0.30020025 20 3202828370608 1 0
-1.7203647 15.1494 -1.0661579 20 3202828370608 1 0
-1.0299479 16.057476 -1.3135481 22 3202828372912 1 0
-3.3260067 20.37761 0.6008941 15 3202828372912 1 0
-3.3121614 51.762238 0.90536106 31 3202828375216 1 0
-0.2613572 17.564291 -1.0230142 30 3202828377520 1 0
-2.4637094 15.109042 -0.98110867 59 3202828375216 1 0
-1.6572616 14.653596 0.8588296 97 3202828377520 1 0
-3.3830206 53.124233 2.168721 50 3202828379824 1 0
-1.8125324 16.048456 -0.7523152 57 3202828379824 1 0
-1.0892416 17.145859 -0.90038776 52 3202828382128 1 0
-2.3191435 20.562231 2.5407321 13 3202828382128 1 0
-3.3720317 53.2079 4.3523483 63 3202828384432 1 0
-2.4555538 15.11716 -0.6239612 78 3202828384432 1 0
-0.26242062 18.390917 -0.64229035 45 3202828386736 1 0
-2.4719415 21.977257 5.925921 20 3202828386736 1 0
-1.2889708 20.437798 3.7337422 24 3202828389040 1 0
-1.8033023 16.054668 -0.37593234 71 3202828389040 1 0
-0.25133407 4.0742655 -1.9034727 3 3202828409776 1 0
-2.4521081 15.257861 -0.2697444 15 3202828409776 1 0
-1.0606259 17.23208 -0.5024517 53 3202828412080 1 0
-0.6726952 10.9540205 -2.1949446 2 3202828414384 1 0
-0.7936092 7.163109 -2.017502 5 3202828412080 1 0
0 0 0 58 3202828414384 1 0
-1.5538167 14.060233 -2.2007623 16 3202828416688 1 0
-0.94815934 15.509672 -1.9778655 55 3202828418992 1 0
-3.227049 20.150894 0.11860953 24 3202828418992 1 0
-3.2383587 53.09243 -0.3091473 79 3202828421296 1 0
-0.22781974 18.481344 -0.21517378 26 3202828416688 1 0
-1.63799 14.859515 -1.6103113 55 3202828421296 1 0
-0.20527339 17.231857 -1.608676 20 3202828423600 1 0
0 0 0 15 3202828423600 1 0
-0.28593364 24.284672 0.28273863 15 3202828425904 1 0
-1.6689875 15.179232 -1.0678321 18 3202828425904 1 0
-0.99079525 16.355509 -1.337632 17 3202828428208 1 0
-3.208934 20.108952 0.59263235 21 3202828428208 1 0
-3.0843196 51.03109 0.8923764 30 3202828430512 1 0
-2.4096658 15.113713 -0.98085284 53 3202828430512 1 0
-0.21096428 18.571333 -1.0816183 88 3202828432816 1 0
0 0 0 6 3202828432816 1 0
-1.763655 16.122234 -0.75547934 64 3202828435120 1 0
-3.1963089 53.127785 2.1683955 49 3202828435120 1 0
-1.0339322 17.225315 -0.9043653 52 3202828437424 1 0
-1.563489 14.310735 1.7675929 43 3202828437424 1 0
-3.1870549 53.2193 4.3523483 63 3202828439728 1 0
-2.4017358 15.117709 -0.62363553 66 3202828439728 1 0
-0.19962172 18.47166 -0.6450823 45 3202828442032 1 0
-2.4343588 22.33905 6.0211663 18 3202828442032 1 0
-1.2224942 20.508898 3.7459393 27 3202828444336 1 0
-1.7544408 16.12042 -0.37732813 77 3202828444336 1 0
-0.23803316 4.078696 -1.9051632 3 3202828465072 1 0
-2.3965256 15.2343025 -0.26918593 23 3202828465072 1 0
-1.0071754 17.303373 -0.5044299 46 3202828467376 1 0
-0.76892406 7.1580524 -2.0153453 5 3202828467376 1 0
-2.1821518 20.3433 0 31 3202828469680 1 0
-0.16644299 18.561996 -0.21610507 23 3202828471984 1 0
-1.4543716 13.578057 -2.1245134 12 3202828471984 1 0
-0.86081964 14.906692 -1.9005893 27 3202828474288 1 0
-0.63536596 10.944462 -2.1925914 2 3202828469680 1 0
-3.1615124 20.177475 0.11870252 22 3202828474288 1 0
-3.0581884 53.09911 -0.30912405 59 3202828476592 1 0
-1.5842453 14.833344 -1.6068841 78 3202828476592 1 0
-0.14693052 17.2683 -1.6120219 16 3202828478896 1 0
-2.1873724 20.510107 0.47996512 21 3202828478896 1 0
-0.21462582 25.685362 0.29903615 23 3202828481200 1 0
-1.6141384 15.157073 -1.0658789 20 3202828481200 1 0
-0.95466155 16.709074 -1.3662722 20 3202828483504 1 0
-3.14729 20.167253 0.5940287 25 3202828483504 1 0
-2.874268 50.442482 0.881905 29 3202828485808 1 0
0 0 0 76 3202828488112 1 0
-2.3673925 15.185037 -0.98494613 49 3202828485808 1 0
-2.300592 21.697405 1.2706864 18 3202828488112 1 0
-3.0095763 53.10266 2.16693 49 3202828490416 1 0
-1.7143327 16.191843 -0.7584573 66 3202828490416 1 0
-0.97830665 17.308582 -0.9085522 49 3202828492720 1 0
-1.5498403 14.659597 1.8100035 25 3202828492720 1 0
-3.009466 53.38936 4.365367 42 3202828495024 1 0
-2.3585424 15.189225 -0.6262408 63 3202828495024 1 0
-0.13536239 18.576183 -0.64871186 45 3202828497328 1 0
-2.3698924 22.481964 6.0574007 21 3202828497328 1 0
-1.1526455 20.560238 3.754549 11 3202828499632 1 0
-1.7049906 16.198105 -0.37900308 77 3202828499632 1 0
-0.22288445 4.0759206 -1.9034727 3 3202828520368 1 0
-2.3522065 15.318092 -0.2705123 30 3202828520368 1 0
-0.94879115 17.394768 -0.50698984 48 3202828522672 1 0
-0.7419926 7.153149 -2.0131888 5 3202828522672 1 0
-0.5957798 10.950617 -2.1933758 3 3202828524976 1 0
-2.1089916 20.359056 0 28 3202828524976 1 0
-0.09966765 18.64647 -0.21708292 28 3202828527280 1 0
-1.401528 13.5478525 -2.1189792 17 3202828527280 1 0
-0.8471511 15.650628 -1.9950379 30 3202828529584 1 0
-3.0760083 20.105715 0.118214324 29 3202828529584 1 0
-2.8760378 53.269516 -0.31005397 29 3202828531888 1 0
-1.5284979 14.815204 -1.6043137 81 3202828531888 1 0
-0.08585196 17.412088 -1.6254059 21 3202828534192 1 0
-2.1156144 20.533712 0.48033732 28 3202828534192 1 0
-0.122733735 25.60997 0.29815143 8 3202828536496 1 0
-1.5642018 15.202421 -1.0686692 16 3202828536496 1 0
-0.9303361 17.365246 -1.4196473 55 3202828538800 1 0
-3.1449862 20.63285 0.6074104 13 3202828538800 1 0
-2.7222211 50.94355 0.8904916 20 3202828541104 1 0
-2.324527 15.264342 -0.98955107 53 3202828541104 1 0
-0.07683248 17.550095 -1.022084 22 3202828543408 1 0
-2.2164743 21.629892 1.2662679 9 3202828543408 1 0
-2.8225741 53.09692 2.1662786 49 3202828545712 1 0
-1.6644816 16.265327 -0.7616214 64 3202828545712 1 0
-0.9223238 17.39566 -0.9129484 49 3202828548016 1 0
-2.0524328 20.083788 2.4788225 19 3202828548016 1 0
-2.8240712 53.40348 4.365692 42 3202828550320 1 0
-2.31652 15.268458 -0.6291717 67 3202828550320 1 0
-0.071410656 18.668484 -0.6519226 42 3202828552624 1 0
-2.265809 22.232498 5.9880376 25 3202828552624 1 0
-1.1828533 22.48571 4.1053944 22 3202828554928 1 0
-1.6568383 16.279476 -0.38077107 75 3202828554928 1 0
-0.20936698 4.0766373 -1.9034727 3 3202828575664 1 0
-2.3031785 15.337673 -0.27072173 41 3202828575664 1 0
-0.89493906 17.477694 -0.50931704 53 3202828577968 1 0
-0.7185484 7.1594133 -2.0142672 6 3202828577968 1 0
-0.5585444 10.940797 -2.1910224 3 3202828580272 1 0
-2.042071 20.377937 0 22 3202828580272 1 0
-0.037218083 18.746693 -0.21824703 28 3202828582576 1 0
-1.3528546 13.521022 -2.11406 52 3202828582576 1 0
-0.79433644 15.653398 -1.9950379 28 3202828584880 1 0
-3.005782 20.100157 0.11812133 29 3202828584880 1 0
-2.6952975 53.274963 -0.31003073 29 3202828587184 1 0
-1.4755197 14.792598 -1.601315 83 3202828587184 1 0
-0.026755631 17.519812 -1.6354438 18 3202828589488 1 0
-2.0595887 20.680067 0.48359415 22 3202828589488 1 0
-0.035067998 25.514248 0.29703388 35 3202828591792 1 0
-1.5035455 15.120324 -1.0625306 16 3202828591792 1 0
-0.8236155 16.428648 -1.3428392 19 3202828594096 1 0
-3.0617785 20.560474 0.60496676 20 3202828594096 1 0
0 0 0 24 3202828596400 1 0
-2.2812943 15.335438 -0.99364436 46 3202828596400 1 0
-0.016549617 18.06139 -1.0518512 28 3202828598704 1 0
-2.3901613 24.148888 1.4132433 32 3202828598704 1 0
-2.636995 53.086452 2.1654644 49 3202828601008 1 0
-1.6153976 16.346563 -0.7651578 61 3202828601008 1 0
-1.9963487 20.233067 2.4963717 24 3202828603312 1 0
-1.2313491 24.942549 2.0386682 11 3202828605616 1 0
-2.271772 15.335788 -0.63161415 59 3202828605616 1 0
-0.8653498 17.474577 -0.91692597 49 3202828603312 1 0
-0.0057325303 18.768559 -0.65541255 45 3202828607920 1 0
-2.1954849 22.321085 6.009778 15 3202828607920 1 0
-1.1033751 22.48975 4.1053944 16 3202828610224 1 0
-0.19511463 4.0918617 -1.9102346 3 3202828630960 1 0
-2.2579565 15.421199 -0.27204812 24 3202828630960 1 0
-1.6059358 16.352886 -0.38235298 74 3202828610224 1 0
-0.8346085 17.556732 -0.51152796 44 3202828633264 1 0
-0.69161385 7.154326 -2.0121105 5 3202828633264 1 0
-1.9657434 20.365349 0 28 3202828635568 1 0
-0.5187855 10.946681 -2.1918068 2 3202828635568 1 0
0.031249035 18.846697 -0.21941113 31 3202828637872 1 0
-1.3032044 13.521927 -2.113445 39 3202828637872 1 0
-0.69820964 14.823829 -1.8889726 16 3202828640176 1 0
-2.9413335 20.170324 0.11847005 22 3202828640176 1 0
-2.4912605 53.05665 -0.3087056 88 3202828642480 1 0
-1.4191676 14.770143 -1.5983163 75 3202828642480 1 0
0.03672679 17.535725 -1.636931 23 3202828644784 1 0
-1.9915552 20.759043 0.4852691 19 3202828644784 1 0
0.056888014 25.398214 0.2956835 24 3202828647088 1 0
-1.4591597 15.232905 -1.0700643 16 3202828647088 1 0
-0.768057 16.51116 -1.3493484 22 3202828649392 1 0
-2.935304 20.211317 0.5943778 10 3202828649392 1 0
-2.4606156 53.06289 0.92721146 55 3202828651696 1 0
-2.2363927 15.414659 -0.9982493 48 3202828651696 1 0
0.04807886 17.965496 -1.0462698 18 3202828654000 1 0
-2.303392 24.157318 1.4132433 21 3202828654000 1 0
-1.1209457 24.325985 0.9921178 13 3202828656304 1 0
-1.5635979 16.42385 -0.768508 57 3202828656304 1 0
-0.8072207 17.573328 -0.9219502 47 3202828658608 1 0
-1.9228166 20.228222 2.4949093 27 3202828658608 1 0
-1.1364449 24.819345 2.0282536 10 3202828660912 1 0
-2.2278578 15.418958 -0.6347079 56 3202828660912 1 0
0.061446432 18.860403 -0.6586233 45 3202828663216 1 0
-2.1137455 22.305687 6.0035667 15 3202828663216 1 0
-0.9625825 21.156971 3.8614528 20 3202828665520 1 0
-1.5545534 16.430153 -0.38402793 66 3202828665520 1 0
-0.18019007 4.0780315 -1.9034727 3 3202828686256 1 0
-2.213728 15.496293 -0.27323487 24 3202828686256 1 0
-0.7777977 17.655394 -0.5143207 47 3202828688560 1 0
-0.6667405 7.156687 -2.0121105 6 3202828688560 1 0
-0.48088974 10.948411 -2.1918068 2 3202828690864 1 0
-1.8944947 20.364067 0 31 3202828690864 1 0
0.096724235 18.946468 -0.22057524 30 3202828693168 1 0
-1.2595112 13.557823 -2.1183643 15 3202828693168 1 0
-0.646977 14.818209 -1.8879625 13 3202828695472 1 0
-2.8720822 20.180302 0.11847005 27 3202828695472 1 0
-2.3086843 53.03688 -0.30854288 49 3202828697776 1 0
-1.3657414 14.743227 -1.5948893 74 3202828697776 1 0
0.095728636 17.412037 -1.6254059 10 3202828700080 1 0
-1.9312061 20.877193 0.48787457 29 3202828700080 1 0
0.14257549 25.329882 0.29489192 22 3202828702384 1 0
-1.4156039 15.325176 -1.0762029 21 3202828702384 1 0
-2.87214 20.256735 0.59542507 8 3202828704688 1 0
-0.71147996 16.493742 -1.3477211 17 3202828704688 1 0
-2.2812924 53.046883 0.92679256 77 3202828706992 1 0
-2.1935484 15.485323 -1.0023426 49 3202828706992 1 0
0.10798456 17.933289 -1.0444094 30 3202828709296 1 0
-2.2335398 24.284182 1.42022 21 3202828709296 1 0
-1.0378697 24.281668 0.99016386 27 3202828711600 1 0
-1.5154648 16.500586 -0.7718583 57 3202828711600 1 0
-0.7520021 17.647745 -0.92571837 47 3202828713904 1 0
-1.8658793 20.345188 2.5085585 18 3202828713904 1 0
-1.0475583 24.659653 2.0149097 21 3202828716208 1 0
-2.1869915 15.497463 -0.63763887 61 3202828716208 1 0
0.124121085 18.964035 -0.66225284 42 3202828718512 1 0
-1.983062 21.685349 5.8348165 11 3202828718512 1 0
-0.8953333 21.207188 3.8700626 27 3202828720816 1 0
-0.16722904 4.074955 -1.9017822 3 3202828741552 1 0
-1.5069597 16.502853 -0.3856098 70 3202828720816 1 0
-2.1705654 15.54278 -0.27393296 34 3202828741552 1 0
-0.72510606 17.725664 -0.5162988 49 3202828743856 1 0
-0.6445991 7.1625824 -2.0131888 5 3202828743856 1 0
-0.4466518 10.953787 -2.1925914 2 3202828746160 1 0
-1.8290777 20.353981 0 14 3202828746160 1 0
0.15707035 19.046062 -0.22173935 31 3202828748464 1 0
0 0 0 8 3202828748464 1 0
-0.5978511 14.756733 -1.8798813 4 3202828750768 1 0
-2.8378808 20.399199 0.119702175 15 3202828750768 1 0
-2.141569 53.03188 -0.30847314 69 3202828753072 1 0
-1.3190631 14.743484 -1.5944608 55 3202828753072 1 0
0.1504296 17.41165 -1.6254059 5 3202828755376 1 0
-1.8624066 20.84731 0.4870371 19 3202828755376 1 0
0.22155449 25.261316 0.2941003 22 3202828757680 1 0
-1.3858875 15.536221 -1.0907122 20 3202828757680 1 0
-0.6696958 16.74686 -1.368225 23 3202828759984 1 0
-2.8194644 20.344868 0.5977523 6 3202828759984 1 0
-2.1144705 53.04979 0.92672276 66 3202828762288 1 0
0 0 0 163 3202828762288 1 0
0.16435961 17.936853 -1.044642 20 3202828764592 1 0
-2.1621833 24.346764 1.4234757 7 3202828764592 1 0
-0.9467175 23.909414 0.9748579 30 3202828766896 1 0
-1.4703251 16.580887 -0.7753946 56 3202828766896 1 0
-0.70017946 17.741823 -0.9305333 49 3202828769200 1 0
-0.96679217 24.579165 2.0080752 32 3202828771504 1 0
-1.8145599 20.493319 2.5261078 22 3202828769200 1 0
-1.9914092 14.439231 -0.5938378 99 3202828771504 1 0
0.18462698 19.059488 -0.6656032 47 3202828773808 1 0
-1.9257984 21.81463 5.867945 7 3202828773808 1 0
-0.8262465 21.14698 3.858583 30 3202828776112 1 0
-1.4610764 16.575224 -0.3871917 72 3202828776112 1 0
-1.9519948 14.361745 -0.2529901 15 3202828797296 1 0
-0.1525632 4.082786 -1.9051632 3 3202828797296 1 0
-0.6635745 17.8241 -0.5190915 45 3202828799600 1 0
-0.61729693 7.1533885 -2.009954 5 3202828799600 1 0
-0.4024165 10.849526 -2.1714106 2 3202828801904 1 0
-1.8657565 21.655777 0 23 3202828801904 1 0
0.22853309 19.149338 -0.22295003 34 3202828804208 1 0
-1.2299042 14.298559 -2.2327375 5 3202828804208 1 0
-0.55267423 15.01262 -1.9122059 4 3202828806512 1 0
-1.9432472 14.356839 0.084203005 13 3202828806512 1 0
-1.9473068 53.095406 -0.3087986 19 3202828808816 1 0
-1.2692367 14.80374 -1.6004583 61 3202828808816 1 0
0.21480846 17.395042 -1.6239188 5 3202828811120 1 0
-1.7898498 20.909855 0.48833984 12 3202828811120 1 0
0.3167247 25.364304 0.295311 22 3202828813424 1 0
-1.3233873 15.485603 -1.0868058 20 3202828813424 1 0
-0.6067587 16.733301 -1.3669231 23 3202828815728 1 0
-1.9366621 14.367928 0.4219291 17 3202828815728 1 0
-1.9198672 53.149235 0.9283284 55 3202828818032 1 0
0.23392893 18.131767 -1.0560372 31 3202828820336 1 0
-1.932066 14.348804 -0.92789596 115 3202828818032 1 0
-4.523668 53.193542 3.1090422 41 3202828820336 1 0
-0.86045885 24.004656 0.978603 33 3202828822640 1 0
-1.4143009 16.657942 -0.7787449 59 3202828822640 1 0
-0.63645005 17.824163 -0.93472016 47 3202828824944 1 0
-1.737647 20.499985 2.5261078 24 3202828824944 1 0
-0.87479967 24.594578 2.0090516 10 3202828827248 1 0
-1.9264846 14.367392 -0.59058124 93 3202828827248 1 0
0.2578209 19.162584 -0.6692327 44 3202828829552 1 0
-1.8449101 21.83713 5.8720865 40 3202828829552 1 0
-0.7447608 21.102757 3.8499732 28 3202828831856 1 0
-1.4048926 16.656332 -0.3889597 67 3202828831856 1 0
-0.13877663 4.076023 -1.9017822 3 3202828852592 1 0
-1.9038333 14.364175 -0.25292027 23 3202828852592 1 0
-0.5937864 7.1592436 -2.011032 6 3202828854896 1 0
-0.36598805 10.846891 -2.1706262 2 3202828857200 1 0
-1.7949531 21.681828 0 25 3202828857200 1 0
-0.607049 17.910128 -0.5215351 45 3202828854896 1 0
0.29439804 19.248444 -0.22411413 31 3202828859504 1 0
-1.1665595 14.117476 -2.2038367 23 3202828859504 1 0
-0.502677 15.034228 -1.9147314 2 3202828861808 1 0
-1.8921763 14.343487 0.08408677 22 3202828861808 1 0
-1.7748147 53.325573 -0.31010047 29 3202828864112 1 0
-1.2255878 14.887228 -1.6090261 56 3202828864112 1 0
-1.7235874 20.975607 0.48973563 29 3202828866416 1 0
0.40526095 25.47905 0.29666138 19 3202828868720 1 0
0.27369562 17.3743 -1.6220598 3 3202828866416 1 0
-1.2740387 15.533782 -1.0898751 22 3202828868720 1 0
-1.8847307 14.354669 0.4213473 24 3202828871024 1 0
-0.5506264 16.775131 -1.3701777 23 3202828871024 1 0
-0.7775613 23.799675 0.41564652 8 3202828873328 1 0
-1.8768843 14.311842 -0.92508185 61 3202828873328 1 0
0.2974105 18.174768 -1.0585953 30 3202828875632 1 0
-4.337885 53.18898 3.1078794 41 3202828875632 1 0
-0.7798552 24.095385 0.98218524 27 3202828877936 1 0
-1.362547 16.738424 -0.7822813 56 3202828877936 1 0
-0.5770576 17.91411 -0.93932575 45 3202828880240 1 0
-1.6647921 20.490097 2.5241578 22 3202828880240 1 0
-0.7658464 23.88822 1.95112 13 3202828882544 1 0
-1.8668015 14.302721 -0.5876503 104 3202828882544 1 0
-1.7692846 21.858892 5.8762274 12 3202828884848 1 0
-0.6700481 21.101324 3.8492558 28 3202828887152 1 0
-1.3521339 16.736925 -0.3907277 68 3202828887152 1 0
0.32709855 19.269476 -0.6730019 44 3202828884848 1 0
-0.12416656 4.087375 -1.9068536 3 3202828907888 1 0
-1.8465747 14.335357 -0.25229198 22 3202828907888 1 0
-0.5672902 7.157528 -2.009954 5 3202828910192 1 0
-0.54443103 18.008144 -0.5243278 45 3202828910192 1 0
-0.32626957 10.844234 -2.1698418 2 3202828912496 1 0
-1.717366 21.708174 0 12 3202828912496 1 0
0.3664944 19.351217 -0.22532481 30 3202828914800 1 0
0 0 0 3 3202828914800 1 0
-0.44670787 14.992328 -1.9091755 1 3202828917104 1 0
-1.8395008 14.346305 0.08406352 23 3202828917104 1 0
0 0 0 13 3202828919408 1 0
0.33638427 17.36125 -1.6209445 6 3202828921712 1 0
-1.1759235 14.947083 -1.6150235 55 3202828919408 1 0
-1.647925 20.985699 0.48982868 21 3202828921712 1 0
0.4992983 25.577393 0.2978255 19 3202828924016 1 0
-1.2234994 15.60989 -1.0948976 21 3202828924016 1 0
-0.48964918 16.761068 -1.3688759 20 3202828926320 1 0
-1.5413413 53.025524 0.9259549 88 3202828928624 1 0
-1.832941 14.361374 0.4213473 23 3202828926320 1 0
0 0 0 233 3202828928624 1 0
0.36230233 18.15362 -1.0574325 26 3202828930928 1 0
-4.145226 53.184315 3.1067166 62 3202828930928 1 0
-1.308416 16.818892 -0.7858176 63 3202828933232 1 0
-0.6958779 24.181921 0.9856047 16 3202828933232 1 0
-0.51558805 18.007896 -0.9441407 50 3202828935536 1 0
-1.5933137 20.51967 2.5270827 29 3202828935536 1 0
-0.6733935 23.639738 1.9306163 10 3202828937840 1 0
0.39789516 19.372103 -0.67663145 44 3202828940144 1 0
-1.8162228 14.31326 -0.58781314 117 3202828937840 1 0
-1.6988317 21.961363 5.9021096 20 3202828940144 1 0
-1.2993795 16.829344 -0.39277485 72 3202828942448 1 0
-0.59367454 21.05637 3.840646 26 3202828942448 1 0
-0.10980078 4.08416 -1.9051632 4 3202828963184 1 0
-1.798015 14.353621 -0.25250143 18 3202828963184 1 0
-0.4840504 18.097862 -0.5268878 45 3202828965488 1 0
-0.5420634 7.1556196 -2.0088756 5 3202828965488 1 0
-0.28805023 10.825699 -2.1659193 2 3202828967792 1 0
-1.6216886 21.446775 0 28 3202828967792 1 0
0.43621704 19.465794 -0.22667517 31 3202828970096 1 0
-1.0583901 14.0229435 -2.187849 1 3202828970096 1 0
0 0 0 111 3202828972400 1 0
0 0 0 182 3202828972400 1 0
-1.3882638 53.000927 -0.30814767 68 3202828974704 1 0
-1.1293546 15.018475 -1.6223061 60 3202828974704 1 0
0.39659032 17.375914 -1.6224316 11 3202828977008 1 0
-1.5776722 21.019169 0.49048004 5 3202828977008 1 0
0.5519247 24.036036 0.2798982 7 3202828979312 1 0
-1.1760584 15.697567 -1.1007571 19 3202828979312 1 0
-0.43324447 16.80649 -1.372456 15 3202828981616 1 0
0 0 0 117 3202828981616 1 0
-1.3588891 52.998505 0.9253964 33 3202828983920 1 0
0.42565456 18.208166 -1.0606883 30 3202828986224 1 0
-1.7733514 14.300905 -0.92354685 227 3202828983920 1 0
-3.9669816 53.24596 3.1095073 41 3202828986224 1 0
-0.5876578 23.169321 0.94424605 28 3202828988528 1 0
-1.2560823 16.890995 -0.78898174 59 3202828988528 1 0
-0.45621115 18.085419 -0.9481182 47 3202828990832 1 0
-1.5287579 20.596243 2.5358572 15 3202828990832 1 0
-0.5803084 23.131748 1.8889576 19 3202828993136 1 0
-1.7676029 14.319345 -0.58781314 219 3202828993136 1 0
0.46593273 19.470554 -0.68012136 44 3202828995440 1 0
-1.6318066 22.067177 5.9290266 22 3202828995440 1 0
-0.52510285 21.164473 3.860018 22 3202828997744 1 0
-1.2471721 16.89745 -0.3942637 72 3202828997744 1 0
-0.0961712 4.0808773 -1.9034727 3 3202829018480 1 0
0 0 0 109 3202829018480 1 0
-0.42582875 18.187313 -0.52944773 42 3202829020784 1 0
-0.2518344 10.826602 -2.1659193 2 3202829023088 1 0
-1.5623305 21.623634 0 14 3202829023088 1 0
0.5041909 19.564178 -0.22783928 28 3202829025392 1 0
-0.51739293 7.1458597 -2.0056407 6 3202829020784 1 0
-1.0115547 14.030363 -2.188464 1 3202829025392 1 0
-0.3757199 16.367592 -2.0839307 49 3202829027696 1 0
-1.7389811 14.33869 0.08394728 133 3202829027696 1 0
-1.2082794 52.98933 -0.3080547 87 3202829030000 1 0
-1.0838637 15.097585 -1.6304455 56 3202829030000 1 0
0.45729136 17.434183 -1.6280082 20 3202829032304 1 0
-3.616876 50.48891 1.1778593 17 3202829032304 1 0
0.63354754 24.014017 0.27966538 20 3202829034608 1 0
-1.1289421 15.793037 -1.1071748 20 3202829034608 1 0
-0.4061007 18.174988 -1.484088 39 3202829036912 1 0
-1.7410138 14.429192 0.42297637 178 3202829036912 1 0
-1.175928 52.99088 0.925187 99 3202829039216 1 0
-1.7340746 14.390159 -0.9289193 137 3202829039216 1 0
0.48985928 18.250492 -1.0632464 30 3202829041520 1 0
-3.7860384 53.30717 3.112298 20 3202829041520 1 0
-0.50729007 23.179216 0.94457173 25 3202829043824 1 0
-1.2024442 16.967001 -0.792332 56 3202829043824 1 0
-0.39542183 18.194729 -0.95377046 50 3202829046128 1 0
-1.4789788 20.914316 2.574368 21 3202829046128 1 0
-0.49819136 23.08581 1.8850521 13 3202829048432 1 0
-1.7250117 14.388946 -0.5904184 115 3202829048432 1 0
0.53753275 19.580683 -0.6840301 44 3202829050736 1 0
-1.5693223 22.288618 5.9870024 27 3202829050736 1 0
-0.45540395 21.406185 3.903784 7 3202829053040 1 0
-1.1922083 16.969566 -0.3958456 68 3202829053040 1 0
-0.08121339 4.0812025 -1.9034727 3 3202829073776 1 0
-1.7156014 14.516749 -0.2551542 116 3202829073776 1 0
-0.36119354 18.284689 -0.5322404 36 3202829076080 1 0
-0.49151468 7.1515474 -2.006719 5 3202829076080 1 0
-0.21207802 10.815684 -2.1635659 2 3202829078384 1 0
-1.4781799 21.553371 0 17 3202829078384 1 0
0.57911295 19.68615 -0.22928278 28 3202829080688 1 0
0 0 0 29 3202829080688 1 0
-0.31773603 16.448195 -2.0940323 45 3202829082992 1 0
-1.7083211 14.527657 0.085016675 116 3202829082992 1 0
-1.0158292 52.985367 -0.30800816 87 3202829085296 1 0
-1.0333962 15.164903 -1.6372997 57 3202829085296 1 0
0.52292293 17.516012 -1.6358156 23 3202829087600 1 0
-3.6173968 53.19872 1.2407628 19 3202829087600 1 0
0.7202168 24.007572 0.27961883 15 3202829089904 1 0
-1.0804983 15.92441 -1.1161035 20 3202829089904 1 0
-0.3258288 17.391085 -1.4199728 22 3202829092208 1 0
-1.7038246 14.562456 0.42669997 117 3202829092208 1 0
-0.45240536 24.336088 0.42486137 8 3202829094512 1 0
-1.8671215 15.978276 -1.0309955 48 3202829094512 1 0
-3.5961215 53.344334 3.1136935 41 3202829096816 1 0
-0.42440432 23.192873 0.94506025 21 3202829099120 1 0
-1.1475062 17.058908 -0.7964267 57 3202829099120 1 0
-0.33184263 18.279898 -0.95816666 47 3202829101424 1 0
0.5577285 18.324451 -1.067665 30 3202829096816 1 0
-1.4052031 20.93532 2.576318 23 3202829101424 1 0
-0.41546983 23.071497 1.8837503 26 3202829103728 1 0
-1.8600938 15.99887 -0.65620136 67 3202829103728 1 0
0.6104011 19.678535 -0.6875201 39 3202829106032 1 0
-1.4916931 22.321053 5.994249 20 3202829106032 1 0
-0.41789648 23.587389 4.3012652 12 3202829108336 1 0
-1.1377088 17.06148 -0.39789274 72 3202829108336 1 0
-0.06696685 4.081461 -1.9034727 3 3202829129072 1 0
-1.6767615 14.625957 -0.25696924 100 3202829129072 1 0
-0.29899478 18.377787 -0.53491676 40 3202829131376 1 0
-0.46660015 7.153216 -2.006719 5 3202829131376 1 0
-0.174417 10.812434 -2.1627815 2 3202829133680 1 0
-1.4022099 21.542414 0 17 3202829133680 1 0
0.65042144 19.775967 -0.23035376 28 3202829135984 1 0
-0.9132801 14.060867 -2.1921535 26 3202829135984 1 0
-0.26218155 16.536482 -2.1051438 43 3202829138288 1 0
0 0 0 22 3202829138288 1 0
-0.8326077 52.976563 -0.30793843 87 3202829140592 1 0
0.5867446 17.617598 -1.6454818 26 3202829142896 1 0
-0.98613954 15.247756 -1.6458675 59 3202829140592 1 0
-3.2629938 50.561104 1.1789759 26 3202829142896 1 0
0.8493157 25.39608 0.29582322 13 3202829145200 1 0
-1.0280238 15.963871 -1.1186148 22 3202829145200 1 0
-0.26649842 17.416018 -1.4219255 30 3202829147504 1 0
0 0 0 37 3202829147504 1 0
-0.36977437 24.38548 0.42569908 34 3202829149808 1 0
-1.8204768 16.055973 -1.0356004 28 3202829149808 1 0
0.62251896 18.386293 -1.0713859 24 3202829152112 1 0
0 0 0 9 3202829152112 1 0
-0.3425622 23.010359 0.9375701 31 3202829154416 1 0
-1.094409 17.142475 -0.8001492 57 3202829154416 1 0
-0.2710999 18.380774 -0.9634003 45 3202829156720 1 0
-1.3463117 21.134127 2.6002042 21 3202829156720 1 0
-0.34171525 23.387693 1.9094615 13 3202829159024 1 0
-1.8129183 16.06864 -0.6588066 63 3202829159024 1 0
0.6812094 19.79621 -0.691708 42 3202829161328 1 0
-1.4148192 22.3067 5.989073 15 3202829161328 1 0
0 0 0 45 3202829163632 1 0
-1.0850592 17.145048 -0.3997538 68 3202829163632 1 0
-0.053479318 4.0852857 -1.9051632 4 3202829184368 1 0
-1.7958975 16.137907 -0.2834271 63 3202829184368 1 0
-0.23897259 18.470633 -0.53759307 45 3202829186672 1 0
-0.44205883 7.1431966 -2.003484 5 3202829186672 1 0
-0.13829632 10.816879 -2.1635659 2 3202829188976 1 0
0.7213523 19.89758 -0.23179725 30 3202829191280 1 0
-1.3281666 21.515043 0 17 3202829188976 1 0
-0.87550807 14.2177105 -2.216135 7 3202829191280 1 0
-0.20727234 16.60869 -2.1142352 39 3202829193584 1 0
-0.65287656 52.96308 -0.30784544 78 3202829195888 1 0
-2.2539697 20.367315 0.11909773 22 3202829193584 1 0
-0.9385964 15.318493 -1.6531501 58 3202829195888 1 0
0.6507918 17.726938 -1.6558915 28 3202829198192 1 0
0 0 0 5 3202829198192 1 0
0.9415647 25.540918 0.2975461 49 3202829200496 1 0
-0.9763683 16.015085 -1.1219631 25 3202829200496 1 0
-0.20652755 17.400885 -1.4206237 16 3202829202800 1 0
-2.262485 20.559126 0.60194135 17 3202829202800 1 0
-0.62048596 52.960297 0.9244889 55 3202829205104 1 0
-1.7651206 16.062153 -1.0356004 37 3202829205104 1 0
0.68824565 18.439896 -1.0746417 24 3202829207408 1 0
-3.2150688 53.136627 3.1002052 41 3202829207408 1 0
-0.26230004 22.987432 0.9365931 31 3202829209712 1 0
-1.0393867 17.221956 -0.80368555 57 3202829209712 1 0
-1.3173828 21.883743 2.69185 13 3202829212016 1 0
-0.2545108 22.918343 1.8710574 9 3202829214320 1 0
-1.7648324 16.150383 -0.6619004 60 3202829214320 1 0
0.7551258 19.90554 -0.6956168 42 3202829216624 1 0
-1.359627 22.701078 6.0936356 18 3202829216624 1 0
-0.2541656 23.534626 4.2912207 12 3202829218928 1 0
-0.20792663 18.469482 -0.96800584 45 3202829212016 1 0
-1.0292263 17.228613 -0.40161484 68 3202829218928 1 0
-0.03847147 4.081829 -1.9034727 3 3202829239664 1 0
-1.7427257 16.20005 -0.28440443 61 3202829239664 1 0
-0.17250676 18.575335 -0.5406185 47 3202829241968 1 0
-0.09885657 10.805544 -2.1612124 2 3202829244272 1 0
-0.41597864 7.144763 -2.003484 6 3202829241968 1 0
-3.0838802 53.094517 0 20 3202829244272 1 0
0.7975516 19.998747 -0.23300792 30 3202829246576 1 0
-0.83178586 14.354946 -2.237042 7 3202829246576 1 0
-0.14806741 16.688686 -2.1243365 34 3202829248880 1 0
-2.183895 20.40713 0.11928371 22 3202829248880 1 0
-0.46246475 52.949085 -0.30775246 87 3202829251184 1 0
-0.8874516 15.389263 -1.6604327 51 3202829251184 1 0
0.7187031 17.835922 -1.6663013 33 3202829253488 1 0
0 0 0 10 3202829253488 1 0
1.0241678 25.329586 0.29512474 19 3202829255792 1 0
-0.92615306 16.137974 -1.1303339 26 3202829255792 1 0
-0.14497249 17.425426 -1.4225764 22 3202829258096 1 0
-2.2000914 20.666422 0.6048504 19 3202829258096 1 0
-0.43320715 52.95016 0.92427945 77 3202829260400 1 0
-1.6361759 15.389517 -0.99185354 14 3202829260400 1 0
0.76113117 18.632864 -1.0860369 30 3202829262704 1 0
-3.0271132 53.131664 3.0992749 41 3202829262704 1 0
-0.18175459 22.992207 0.93675596 28 3202829265008 1 0
-0.98354864 17.305277 -0.80740803 58 3202829265008 1 0
-0.14423046 18.569954 -0.9732394 45 3202829267312 1 0
-1.2385142 21.844606 2.686488 28 3202829267312 1 0
-0.17502512 22.943008 1.8730102 21 3202829269616 1 0
-1.7154067 16.220013 -0.66450566 60 3202829269616 1 0
0.8284905 20.010649 -0.69938594 41 3202829271920 1 0
-1.2810377 22.705648 6.0936356 21 3202829271920 1 0
-0.17518073 23.826553 4.3443136 28 3202829274224 1 0
-0.9741022 17.307917 -0.40338284 73 3202829274224 1 0
-0.024891136 4.0746837 -1.9000916 3 3202829294960 1 0
-1.6972865 16.285297 -0.2858006 60 3202829294960 1 0
-0.111321084 18.667765 -0.5432948 47 3202829297264 1 0
-0.39180928 7.138414 -2.0013275 6 3202829297264 1 0
-0.062912025 10.813658 -2.1627815 2 3202829299568 1 0
-2.9129262 53.21233 0 31 3202829299568 1 0
0.8696561 20.119848 -0.23445141 33 3202829301872 1 0
-0.7840808 14.361589 -2.2376568 6 3202829301872 1 0
-0.09276579 16.784319 -2.1364584 36 3202829304176 1 0
-2.124688 20.50185 0.119795166 26 3202829304176 1 0
-0.28490835 52.94234 -0.30770597 39 3202829306480 1 0
-0.83995175 15.467603 -1.6685721 47 3202829306480 1 0
0.7824452 17.920942 -1.6744803 34 3202829308784 1 0
-2.879242 53.163677 1.2389017 48 3202829308784 1 0
1.1092722 25.321997 0.2950782 22 3202829311088 1 0
-0.8748238 16.196783 -1.1342403 20 3202829311088 1 0
-0.092343815 18.67365 -1.5244448 17 3202829313392 1 0
-0.24482098 51.00764 0.89035195 30 3202829315696 1 0
-2.1364918 20.733387 0.6065958 19 3202829313392 1 0
-1.5878031 15.430699 -0.994156 15 3202829315696 1 0
0.8251532 18.650124 -1.0871997 28 3202829318000 1 0
-1.3095491 24.44347 1.4255688 37 3202829318000 1 0
-0.104210004 23.11259 0.9416408 21 3202829320304 1 0
-0.08146463 18.6702 -0.97847307 42 3202829322608 1 0
-0.9290359 17.388317 -0.8111305 52 3202829320304 1 0
-1.1457832 21.503778 2.6440773 22 3202829322608 1 0
0 0 0 17 3202829324912 1 0
-1.6673979 16.297335 -0.6674366 58 3202829324912 1 0
0.9024302 20.1315 -0.7037135 44 3202829327216 1 0
-1.2015839 22.67517 6.084318 13 3202829327216 1 0
-0.91882294 17.387026 -0.40515086 72 3202829329520 1 0
-0.010686666 4.0819964 -1.9034727 2 3202829350256 1 0
-0.09370802 23.862429 4.350771 18 3202829329520 1 0
-1.6476423 16.36275 -0.2870572 61 3202829350256 1 0
-0.046521556 18.76 -0.54597116 45 3202829352560 1 0
-0.02528547 10.798122 -2.1596437 2 3202829354864 1 0
-2.7305987 53.274067 0 31 3202829354864 1 0
0.94429445 20.22059 -0.23566209 28 3202829357168 1 0
-0.73324925 14.344486 -2.2345822 7 3202829357168 1 0
-0.36733654 7.147429 -2.003484 5 3202829352560 1 0
-0.034829166 16.8639 -2.1465597 40 3202829359472 1 0
-0.09836692 51.04304 -0.2966633 28 3202829361776 1 0
-2.0477285 20.449383 0.11944645 22 3202829359472 1 0
-0.79075766 15.553822 -1.6775682 50 3202829361776 1 0
0.8492752 18.02555 -1.6845183 38 3202829364080 1 0
-2.697386 53.201244 1.2395532 38 3202829364080 1 0
1.1952342 25.29406 0.2947988 11 3202829366384 1 0
-0.82676286 16.351133 -1.1448432 22 3202829366384 1 0
-0.026642358 17.613386 -1.437873 13 3202829368688 1 0
-0.03245398 23.612381 0.41215602 26 3202829370992 1 0
-1.5412604 15.499602 -0.9982493 13 3202829370992 1 0
0.88946354 18.65916 -1.0878974 30 3202829373296 1 0
-2.0593696 20.68092 0.6048504 15 3202829368688 1 0
-1.2219955 24.368038 1.4209176 18 3202829373296 1 0
-0.025744526 23.444536 0.9551556 32 3202829375600 1 0
-0.8741154 17.47918 -0.8152253 56 3202829375600 1 0
-0.017995128 18.746265 -0.98245054 32 3202829377904 1 0
-1.0739752 21.535309 2.6474895 25 3202829377904 1 0
-0.020577423 25.040691 2.0442011 26 3202829380208 1 0
0.97584635 20.236135 -0.7074826 44 3202829382512 1 0
-1.1256913 22.698406 6.0894947 18 3202829382512 1 0
-0.01299572 23.827194 4.3443136 21 3202829384816 1 0
-1.6202995 16.386427 -0.670856 54 3202829380208 1 0
-0.8641703 17.473907 -0.40710494 75 3202829384816 1 0
0.0028497805 4.0820093 -1.9034727 2 3202829405552 1 0
-1.5991848 16.427832 -0.28810433 54 3202829405552 1 0
0.015769353 18.85601 -0.5487638 47 3202829407856 1 0
-0.34326288 7.1409125 -2.0013275 6 3202829407856 1 0
0.010534 10.809914 -2.161997 2 3202829410160 1 0
1.0179375 20.349174 -0.23719871 36 3202829412464 1 0
-2.5454943 53.10703 0 92 3202829410160 1 0
-0.68492246 14.331047 -2.2321227 8 3202829412464 1 0
0.02121781 16.963121 -2.1591866 36 3202829414768 1 0
-1.9745097 20.400322 0.119120985 21 3202829414768 1 0
0.07350971 52.923054 -0.3075897 19 3202829417072 1 0
-0.74238384 15.623891 -1.6848508 52 3202829417072 1 0
0.91406107 18.122076 -1.6938127 30 3202829419376 1 0
1.2285961 24.291302 0.2831577 10 3202829421680 1 0
-2.5171645 53.130005 1.2376921 86 3202829419376 1 0
-0.77724314 16.45343 -1.1518189 21 3202829421680 1 0
-1.9819692 20.596096 0.60217404 13 3202829423984 1 0
0.04583991 23.608358 0.41208622 28 3202829426288 1 0
0 0 0 46 3202829423984 1 0
-1.524217 15.862244 -1.021274 13 3202829426288 1 0
0.9617062 18.859499 -1.0997577 28 3202829428592 1 0
0.052417144 23.632338 0.9628086 32 3202829430896 1 0
-1.1075623 23.653961 1.3790575 31 3202829428592 1 0
-0.81931525 17.549835 -0.8183894 52 3202829430896 1 0
0.044480417 18.87804 -0.9893589 47 3202829433200 1 0
-0.99627924 21.403912 2.6309154 22 3202829433200 1 0
0.05976569 23.960218 1.9560019 10 3202829435504 1 0
-1.5708923 16.443432 -0.67297274 58 3202829435504 1 0
1.0507665 20.384495 -0.71278733 57 3202829437808 1 0
-1.0554147 22.810083 6.118482 26 3202829437808 1 0
0.06533128 23.579193 4.299113 21 3202829440112 1 0
-0.8100898 17.560566 -0.40905905 69 3202829440112 1 0
0.017811073 4.0819716 -1.9034727 3 3202829460296 1 0
-1.5460482 16.509241 -0.2894307 45 3202829460296 1 0
0.085485816 18.95978 -0.5517892 45 3202829462600 1 0
-0.31703588 7.142125 -2.0013275 6 3202829462600 1 0
0.050274953 10.801957 -2.160428 2 3202829464904 1 0
-2.3465216 53.036118 0 71 3202829464904 1 0
1.094889 20.38123 -0.23761779 79 3202829467208 1 0
-0.63155687 14.32163 -2.2302778 7 3202829467208 1 0
0.084256865 17.038317 -2.168783 37 3202829469512 1 0
-1.9039502 20.459253 0.1194232 26 3202829469512 1 0
0.26940623 52.92242 -0.3075897 100 3202829471816 1 0
0 0 0 17 3202829471816 1 0
0.98751223 18.23389 -1.7045943 28 3202829474120 1 0
-2.3171325 53.07106 1.2361102 28 3202829474120 1 0
1.317555 24.262606 0.2828783 17 3202829476424 1 0
-0.7192179 16.527962 -1.1568414 21 3202829476424 1 0
0.09860256 17.840378 -1.4564241 12 3202829478728 1 0
-1.8938556 20.479912 0.59856683 19 3202829478728 1 0
0.14670844 25.863644 0.45145884 29 3202829481032 1 0
-1.5255839 16.52368 -1.063486 21 3202829481032 1 0
1.0343772 18.895645 -1.1020833 28 3202829483336 1 0
-1.0222318 23.729748 1.3832436 31 3202829483336 1 0
0.13687247 22.95255 0.9351277 15 3202829485640 1 0
-0.75752413 17.644596 -0.8226703 50 3202829485640 1 0
0.11585581 18.965618 -0.9939645 52 3202829487944 1 0
-0.9151066 21.387667 2.628478 17 3202829487944 1 0
0.1488766 23.804344 1.9433091 10 3202829490248 1 0
-1.516361 16.52882 -0.67622936 54 3202829490248 1 0
1.1273265 20.3764 -0.71264774 90 3202829492552 1 0
-0.9680054 22.779154 6.1091647 18 3202829492552 1 0
0.15442798 23.594519 4.301983 18 3202829494856 1 0
-0.74786663 17.659386 -0.4112923 67 3202829494856 1 0
0.03200276 4.074634 -1.9000916 2 3202829515592 1 0
0.15236022 19.06332 -0.55481464 45 3202829517896 1 0
-0.29215524 7.143186 -2.0013275 5 3202829517896 1 0
-1.4948727 16.586235 -0.2906873 52 3202829515592 1 0
0.088014744 10.825251 -2.165135 1 3202829520200 1 0
-2.1619854 53.039955 0 71 3202829520200 1 0
1.1662668 20.389288 -0.23775749 75 3202829522504 1 0
-0.5815528 14.315835 -2.229048 8 3202829522504 1 0
0.14403613 17.133152 -2.1809049 30 3202829524808 1 0
-1.8356158 20.493608 0.11958594 12 3202829524808 1 0
0.45204315 52.901176 -0.30747348 78 3202829527112 1 0
0 0 0 4 3202829527112 1 0
1.0565443 18.337732 -1.7146322 33 3202829529416 1 0
-2.1335392 53.062748 1.235738 28 3202829529416 1 0
1.4033105 24.297861 0.28334397 7 3202829531720 1 0
-0.66443855 16.582169 -1.1604687 22 3202829531720 1 0
0.17180419 19.175438 -1.5654525 40 3202829534024 1 0
-1.8246111 20.49824 0.59891593 24 3202829534024 1 0
