# .PCD v.7 - Point Cloud Data file format
VERSION .7
FIELDS x y z rgb timestamp_ns device_id active
SIZE 4 4 4 4 8 1 1
TYPE F F F F F U U
COUNT 1 1 1 1 1 1 1
WIDTH 1004
HEIGHT 1
VIEWPOINT 0 0 0 1 0 0 0
POINTS 1004               
DATA ascii
7.818079 26.506609 0.16061805 35 3203335538880 1 0
8.104426 20.017237 -0.12551409 40 3203335541184 1 0
5.097047 14.602524 -1.6660017 12 3203335541184 1 0
9.071454 19.587517 -2.0150273 14 3203335543488 1 0
6.2413325 17.87243 0.4405108 15 3203335543488 1 0
9.304814 20.083738 0.257687 18 3203335545792 1 0
5.084087 14.551788 -1.077877 41 3203335545792 1 0
7.7074637 19.012918 -1.6748064 40 3203335548096 1 0
6.643698 22.476759 0.68211484 16 3203335548096 1 0
9.07993 22.389193 0.42171994 19 3203335550400 1 0
4.319961 14.607347 -0.9762479 39 3203335550400 1 0
9.148911 19.724665 -1.2662679 10 3203335552704 1 0
14.939835 42.701286 2.6346278 13 3203335552704 1 0
9.113362 22.452873 0.987233 20 3203335555008 1 0
5.48492 15.66978 -0.77334726 3 3203335555008 1 0
7.8282657 19.278694 -1.090472 34 3203335557312 1 0
6.284141 17.944689 2.3345292 14 3203335557312 1 0
4.371221 14.749117 -0.6267293 2 3203335559616 1 0
9.140709 22.501463 1.9826895 10 3203335559616 1 0
9.470099 20.386053 -0.7849595 15 3203335561920 1 0
0 0 0 9 3203335561920 1 0
5.202075 14.834042 -0.36578962 1 3203335564224 1 0
0 0 0 29 3203335564224 1 0
0 0 0 4 3203335584960 1 0
4.4731984 15.005046 -0.27330467 4 3203335584960 1 0
8.165494 20.0002 -0.6287046 69 3203335587264 1 0
2.259221 6.4122806 -1.903202 5 3203335587264 1 0
3.7641644 9.215756 -1.9909828 2 3203335589568 1 0
9.212832 26.135773 0 39 3203335589568 1 0
9.128443 19.552616 -0.25121456 13 3203335591872 1 0
6.2237606 15.224269 -2.093527 7 3203335594176 1 0
7.9204874 26.509588 0.16080403 42 3203335594176 1 0
8.190119 20.025549 -0.12574656 42 3203335596480 1 0
5.164405 14.629457 -1.6711423 10 3203335596480 1 0
9.132194 19.537292 -2.0131686 10 3203335598784 1 0
6.2751617 17.767307 0.43846366 28 3203335598784 1 0
4.5194545 12.814944 -2.11406 8 3203335591872 1 0
9.303032 19.894861 0.25568476 22 3203335601088 1 0
5.13825 14.541216 -1.0784351 49 3203335601088 1 0
7.786976 19.014961 -1.67741 40 3203335603392 1 0
8.057325 26.907644 0.817444 12 3203335603392 1 0
9.579484 23.381893 0.4410572 15 3203335605696 1 0
9.266547 19.793201 -1.2727795 7 3203335608000 1 0
4.369588 14.584244 -0.9757362 58 3203335605696 1 0
0 0 0 24 3203335608000 1 0
8.77497 21.399576 0.94229215 9 3203335610304 1 0
7.894161 19.24317 -1.0900533 37 3203335612608 1 0
5.544837 15.661394 -0.77390563 3 3203335610304 1 0
6.343003 17.907122 2.3325791 6 3203335612608 1 0
8.364581 20.381021 1.7984803 9 3203335614912 1 0
4.440163 14.786941 -0.6290089 1 3203335614912 1 0
9.631528 20.540108 -0.79221857 65 3203335617216 1 0
6.0581264 17.086294 4.857516 5 3203335617216 1 0
20.699465 50.392204 9.93273 20 3203335619520 1 0
5.256777 14.818988 -0.36588266 1 3203335619520 1 0
0 0 0 4 3203335640256 1 0
4.5223813 14.969407 -0.27295563 8 3203335640256 1 0
8.249126 19.99613 -0.62951916 69 3203335642560 1 0
2.2800286 6.3967338 -1.9010454 6 3203335642560 1 0
3.79316 9.191132 -1.9886293 2 3203335644864 1 0
9.232568 25.891115 0 28 3203335644864 1 0
9.197489 19.515812 -0.251168 22 3203335647168 1 0
4.5605226 12.783602 -2.1116002 7 3203335647168 1 0
6.272575 15.187051 -2.091507 6 3203335649472 1 0
8.048505 26.588041 0.16145496 10 3203335649472 1 0
8.271172 20.018179 -0.12588605 48 3203335651776 1 0
5.236987 14.666991 -1.6775682 9 3203335651776 1 0
9.212234 19.526104 -2.0153992 29 3203335654080 1 0
6.4893565 18.166517 0.44888556 15 3203335654080 1 0
5.195404 14.537845 -1.0795512 45 3203335656384 1 0
9.302166 19.709667 0.25372905 26 3203335656384 1 0
7.862027 19.005627 -1.6790372 44 3203335658688 1 0
8.133037 26.813835 0.81546587 6 3203335658688 1 0
8.908122 21.526031 0.40664107 7 3203335660992 1 0
4.4292197 14.5954485 -0.977527 75 3203335660992 1 0
9.735328 20.605328 -1.3271976 23 3203335663296 1 0
8.891216 21.468386 0.94668853 9 3203335665600 1 0
0 0 0 3 3203335663296 1 0
0 0 0 26 3203335665600 1 0
7.971987 19.24133 -1.0915188 34 3203335667904 1 0
18.053123 50.406555 6.57412 18 3203335667904 1 0
8.412479 20.29658 1.7935984 9 3203335670208 1 0
4.470608 14.702588 -0.62607795 1 3203335670208 1 0
9.699152 20.499418 -0.7919394 15 3203335672512 1 0
6.0911603 16.99248 4.83681 1 3203335672512 1 0
8.95593 21.590878 4.261804 9 3203335674816 1 0
5.318626 14.8308935 -0.3666271 1 3203335674816 1 0
0 0 0 4 3203335695552 1 0
4.5743356 14.961978 -0.27309525 9 3203335695552 1 0
8.32615 19.994503 -0.63033366 63 3203335697856 1 0
2.3025336 6.3927617 -1.9021238 5 3203335697856 1 0
3.8206012 9.171261 -1.9870604 2 3203335700160 1 0
8.389521 23.2826 0 31 3203335700160 1 0
9.262156 19.485205 -0.251168 42 3203335702464 1 0
4.6002088 12.760972 -2.1103704 8 3203335702464 1 0
8.237386 26.890112 0.16345426 10 3203335704768 1 0
6.313741 15.144192 -2.0884764 6 3203335704768 1 0
8.345207 20.009098 -0.12600228 55 3203335707072 1 0
5.498855 15.240613 -1.7452534 5 3203335707072 1 0
9.266666 19.473871 -2.0131686 12 3203335709376 1 0
6.5387015 18.114807 0.44814113 18 3203335709376 1 0
9.35544 19.65343 0.2534031 24 3203335711680 1 0
5.249006 14.535548 -1.0806673 41 3203335711680 1 0
7.9326897 18.997845 -1.6806645 44 3203335713984 1 0
8.194925 26.698805 0.8127895 3 3203335713984 1 0
8.977915 21.492682 0.40657127 26 3203335716288 1 0
4.4717364 14.561601 -0.9762479 90 3203335716288 1 0
0 0 0 16 3203335718592 1 0
15.374933 42.521088 2.6332326 13 3203335718592 1 0
9.005522 21.542032 0.95124775 52 3203335720896 1 0
5.597171 15.472912 -0.76646066 10 3203335720896 1 0
8.069655 19.295862 -1.0961243 34 3203335723200 1 0
0 0 0 21 3203335723200 1 0
8.91519 21.309399 1.8857031 9 3203335725504 1 0
4.520515 14.691502 -0.6262408 1 3203335725504 1 0
9.281564 19.449738 -0.7525728 37 3203335727808 1 0
0 0 0 100 3203335727808 1 0
7.2189426 17.241587 3.4080083 5 3203335730112 1 0
5.36914 14.816935 -0.36672014 1 3203335730112 1 0
0 0 0 4 3203335750296 1 0
4.6253524 14.942099 -0.27302545 9 3203335750296 1 0
8.407033 19.990995 -0.6311482 51 3203335752600 1 0
2.3236094 6.381032 -1.9010454 4 3203335752600 1 0
3.852858 9.157756 -1.9870604 2 3203335754904 1 0
9.551739 26.218267 0 25 3203335754904 1 0
9.277337 19.340551 -0.24972452 53 3203335757208 1 0
4.639867 12.72978 -2.1079109 8 3203335757208 1 0
6.3643656 15.114376 -2.0874662 6 3203335759512 1 0
18.106663 58.366936 0.35517767 32 3203335759512 1 0
8.427324 20.005037 -0.12616502 65 3203335761816 1 0
5.589931 15.321797 -1.75682 16 3203335761816 1 0
9.288007 19.340067 -2.0027587 13 3203335764120 1 0
7.6428065 20.938723 0.51867497 17 3203335764120 1 0
5.305297 14.527842 -1.0815043 100 3203335766424 1 0
9.441573 19.652142 0.25382218 24 3203335766424 1 0
8.01046 18.991148 -1.6826173 42 3203335768728 1 0
8.605729 27.680855 0.8436255 3 3203335768728 1 0
0 0 0 21 3203335771032 1 0
4.526814 14.552934 -0.97675955 85 3203335771032 1 0
7.8038087 21.339334 1.3232441 9 3203335773336 1 0
9.295025 19.324423 -1.2488261 64 3203335773336 1 0
9.093433 21.531103 0.95222473 13 3203335775640 1 0
5.7291293 15.658757 -0.7766975 3 3203335775640 1 0
8.448152 19.994709 -1.1375743 90 3203335777944 1 0
0 0 0 3 3203335777944 1 0
8.883334 21.015726 1.8625956 9 3203335780248 1 0
4.5709767 14.6633215 -0.62575233 1 3203335780248 1 0
9.290894 19.285666 -0.7475472 57 3203335782552 1 0
7.2920384 17.23644 3.4123132 31 3203335784856 1 0
5.4749804 14.93584 -0.37016308 1 3203335784856 1 0
0 0 0 4 3203335805592 1 0
0 0 0 19 3203335782552 1 0
4.6812835 14.928862 -0.27309525 11 3203335805592 1 0
2.3455575 6.368892 -1.8999672 5 3203335807896 1 0
8.483084 19.967531 -0.631381 60 3203335807896 1 0
3.886131 9.143686 -1.9870604 2 3203335810200 1 0
7.662567 20.797306 0 38 3203335810200 1 0
9.356034 19.324827 -0.24995734 60 3203335812504 1 0
4.683204 12.705476 -2.1066809 8 3203335812504 1 0
6.418842 15.091321 -2.0874662 6 3203335814808 1 0
18.329063 58.339405 0.35541016 32 3203335814808 1 0
8.505402 19.989357 -0.12625802 53 3203335817112 1 0
5.6944914 15.43594 -1.772242 7 3203335817112 1 0
9.3380375 19.267288 -1.9986693 22 3203335819416 1 0
8.21751 22.26556 0.55226696 47 3203335819416 1 0
9.523755 19.643566 0.25414813 24 3203335821720 1 0
5.3501205 14.4901285 -1.0801092 104 3203335821720 1 0
8.088743 18.988276 -1.6848955 42 3203335824024 1 0
22.533937 52.87802 1.0033039 26 3203335826328 1 0
8.6750965 27.558609 0.84083277 9 3203335824024 1 0
4.580618 14.544458 -0.9772712 76 3203335826328 1 0
9.354266 19.273624 -1.2476634 97 3203335828632 1 0
7.935642 21.4653 1.3327789 6 3203335828632 1 0
9.161009 21.480715 0.95141053 9 3203335830936 1 0
5.752102 15.552385 -0.77241665 7 3203335830936 1 0
8.511624 19.9504 -1.136737 63 3203335833240 1 0
8.285629 22.392962 2.931689 9 3203335833240 1 0
8.954769 20.981054 1.8622701 15 3203335835544 1 0
4.630339 14.674024 -0.62689215 1 3203335835544 1 0
9.368081 19.274961 -0.74838483 69 3203335837848 1 0
6.7531486 18.235752 5.210545 5 3203335837848 1 0
7.434878 17.40662 3.451057 26 3203335840152 1 0
5.5236535 14.909379 -0.36997697 1 3203335840152 1 0
0 0 0 4 3203335860888 1 0
4.734391 14.924692 -0.27330467 11 3203335860888 1 0
8.560426 19.96495 -0.6321955 60 3203335863192 1 0
2.366711 6.361062 -1.8999672 5 3203335863192 1 0
3.9134717 9.123483 -1.9854914 2 3203335865496 1 0
7.7248163 20.752926 0 76 3203335865496 1 0
4.7228293 12.682364 -2.105451 9 3203335867800 1 0
9.438036 19.329432 -0.25042298 58 3203335867800 1 0
6.466159 15.062472 -2.086456 7 3203335870104 1 0
0 0 0 14 3203335870104 1 0
8.581838 19.982782 -0.1263975 55 3203335872408 1 0
5.47119 14.678905 -1.6874211 3 3203335872408 1 0
9.414961 19.260853 -2.0012717 16 3203335874712 1 0
8.276901 22.19661 0.55124336 26 3203335874712 1 0
9.602141 19.636541 0.25447407 24 3203335877016 1 0
5.398879 14.472033 -1.0801092 25 3203335877016 1 0
8.166942 18.993837 -1.6878246 46 3203335879320 1 0
8.74741 27.464415 0.8388546 9 3203335879320 1 0
0 0 0 79 3203335881624 1 0
4.6346226 14.5441 -0.97829455 68 3203335881624 1 0
9.433574 19.270508 -1.2495239 92 3203335883928 1 0
0 0 0 69 3203335883928 1 0
9.428288 21.901009 0.9714385 32 3203335886232 1 0
8.590534 19.946999 -1.1382024 63 3203335888536 1 0
5.730752 15.334391 -0.7625521 5 3203335886232 1 0
18.832806 50.370625 6.602881 38 3203335888536 1 0
9.053093 21.012632 1.8678029 25 3203335890840 1 0
4.6742816 14.639109 -0.62607795 1 3203335890840 1 0
9.446224 19.267954 -0.749362 63 3203335893144 1 0
7.5453243 20.163004 5.768559 19 3203335893144 1 0
0 0 0 29 3203335895448 1 0
5.5536575 14.834196 -0.3685812 3 3203335895448 1 0
0 0 0 4 3203335916184 1 0
4.7901273 14.919499 -0.27351412 11 3203335916184 1 0
8.641184 19.960632 -0.63301 54 3203335918488 1 0
2.3875449 6.3491564 -1.8988888 5 3203335918488 1 0
3.942177 9.102569 -1.9839225 2 3203335920792 1 0
9.517823 19.321486 -0.25074893 60 3203335923096 1 0
7.795802 20.722092 0 15 3203335920792 1 0
4.7615013 12.651005 -2.1029916 8 3203335923096 1 0
6.5186977 15.039809 -2.086456 7 3203335925400 1 0
8.469484 26.326723 0.16073428 10 3203335925400 1 0
5.564455 14.771367 -1.7002728 9 3203335927704 1 0
8.661086 19.974724 -0.12653698 40 3203335927704 1 0
9.494467 19.252874 -2.003874 12 3203335930008 1 0
7.825487 20.764334 0.51634866 46 3203335930008 1 0
9.686553 19.635187 0.25489315 14 3203335932312 1 0
8.236368 18.972527 -1.6884755 42 3203335934616 1 0
5.4662557 14.497903 -1.0834576 16 3203335932312 1 0
8.829732 27.391851 0.83757466 9 3203335934616 1 0
0 0 0 87 3203335936920 1 0
9.514929 19.266104 -1.2513843 92 3203335939224 1 0
4.6878133 14.535431 -0.9788062 65 3203335936920 1 0
7.991446 21.167368 1.3176627 13 3203335939224 1 0
9.571591 22.021912 0.9782774 16 3203335941528 1 0
5.7390656 15.194679 -0.7565961 5 3203335941528 1 0
8.67126 19.942532 -1.1396677 60 3203335943832 1 0
7.1178436 18.836826 2.4724853 6 3203335943832 1 0
9.09617 20.911444 1.8616191 15 3203335946136 1 0
5.3435206 16.535635 -0.70798105 1 3203335946136 1 0
9.53292 19.27428 -0.7508976 63 3203335948440 1 0
8.144602 21.535116 6.169211 2 3203335948440 1 0
7.5786414 17.408905 3.461819 26 3203335950744 1 0
7.55831 19.976122 -0.49699372 48 3203335950744 1 0
0 0 0 4 3203335971480 1 0
4.8446484 14.910295 -0.27365375 11 3203335971480 1 0
8.730021 19.974312 -0.6344064 18 3203335973784 1 0
2.409693 6.3407836 -1.8988888 6 3203335973784 1 0
3.9723556 9.085158 -1.9831381 2 3203335976088 1 0
8.533358 22.444553 0 7 3203335976088 1 0
4.8042274 12.630613 -2.1023767 7 3203335978392 1 0
6.569566 15.013328 -2.085951 7 3203335980696 1 0
9.59589 19.309635 -0.25102833 61 3203335978392 1 0
8.40531 25.817764 0.15780509 6 3203335980696 1 0
0 0 0 19 3203335983000 1 0
9.574032 19.244576 -2.0064766 8 3203335985304 1 0
7.90219 20.748102 0.5166278 27 3203335985304 1 0
0 0 0 21 3203335987608 1 0
5.521092 14.48992 -1.0842947 15 3203335987608 1 0
8.765042 19.998926 -1.7825329 18 3203335989912 1 0
5.685316 14.933975 -1.7212638 7 3203335983000 1 0
8.828576 27.064371 0.8284984 9 3203335989912 1 0
10.17047 23.196472 0.44210437 25 3203335992216 1 0
4.741 14.526568 -0.97931784 54 3203335992216 1 0
9.59993 19.268515 -1.2537098 97 3203335994520 1 0
9.630739 21.948109 0.97648627 23 3203335996824 1 0
8.361363 21.915373 1.3660344 42 3203335994520 1 0
5.7236767 14.995371 -0.74766207 5 3203335996824 1 0
8.763298 19.963348 -1.1425986 18 3203335999128 1 0
19.227901 50.352898 6.617993 19 3203335999128 1 0
9.191552 20.930668 1.8661755 6 3203336001432 1 0
5.3962393 16.501686 -0.7073297 3 3203336001432 1 0
9.610849 19.262348 -0.75173515 71 3203336003736 1 0
7.585532 17.25986 3.437425 5 3203336006040 1 0
0 0 0 67 3203336003736 1 0
7.6494164 20.005644 -0.4983895 100 3203336006040 1 0
0 0 0 4 3203336026776 1 0
4.8991637 14.900891 -0.27379334 12 3203336026776 1 0
9.583953 21.721601 -0.6909584 10 3203336029080 1 0
2.4303849 6.3287554 -1.8978106 6 3203336029080 1 0
4.000745 9.064118 -1.981569 2 3203336031384 1 0
8.581202 22.336342 0 5 3203336031384 1 0
10.356472 20.660002 -0.26904872 60 3203336033688 1 0
4.84234 12.599114 -2.099917 7 3203336033688 1 0
6.621496 14.990497 -2.085951 7 3203336035992 1 0
0 0 0 10 3203336035992 1 0
9.630574 21.794643 -0.13848628 7 3203336038296 1 0
5.7425795 14.929095 -1.7229773 10 3203336038296 1 0
9.652815 19.236378 -2.009079 8 3203336040600 1 0
8.45191 21.963537 0.54761434 16 3203336040600 1 0
10.339179 20.59708 0.2683037 22 3203336042904 1 0
5.5795026 14.493186 -1.0859687 15 3203336042904 1 0
9.041695 20.439047 -1.8245169 7 3203336045208 1 0
5.902924 17.887182 0.548182 11 3203336045208 1 0
10.230441 23.117613 0.44126666 33 3203336047512 1 0
4.7957344 14.525407 -0.98034114 40 3203336047512 1 0
9.678283 19.260567 -1.2553377 85 3203336049816 1 0
7.95653 20.642174 1.2883607 18 3203336049816 1 0
9.65537 21.80185 0.9714385 9 3203336052120 1 0
5.6497173 14.651418 -0.7314693 3 3203336052120 1 0
9.515615 21.478266 -1.231151 23 3203336054424 1 0
19.420595 50.342728 6.625305 19 3203336054424 1 0
9.432197 21.282036 1.9003487 9 3203336056728 1 0
5.45727 16.498444 -0.70798105 4 3203336056728 1 0
9.692244 19.261806 -0.75299156 37 3203336059032 1 0
8.267509 21.413696 6.1505756 22 3203336059032 1 0
8.441585 19.032701 3.7961626 4 3203336061336 1 0
7.727109 20.005775 -0.49904087 100 3203336061336 1 0
0 0 0 4 3203336082072 1 0
4.9523354 14.895949 -0.2740028 12 3203336082072 1 0
9.665846 21.711546 -0.69165653 7 3203336084376 1 0
2.4514043 6.3206434 -1.8978106 5 3203336084376 1 0
4.032508 9.054326 -1.9823536 2 3203336086680 1 0
20.785181 53.56891 0 34 3203336086680 1 0
10.434398 20.643166 -0.26928154 82 3203336088984 1 0
4.8815074 12.575512 -2.0986872 7 3203336088984 1 0
6.6683745 14.961014 -2.084941 7 3203336091288 1 0
8.738864 26.23432 0.16071104 10 3203336091288 1 0
9.701958 21.758581 -0.13846304 21 3203336093592 1 0
5.801238 14.932001 -1.7255477 11 3203336093592 1 0
9.706601 19.182516 -2.0068483 5 3203336095896 1 0
8.834229 22.728926 0.5674345 26 3203336095896 1 0
10.412084 20.569288 0.26839682 47 3203336098200 1 0
5.647069 14.522665 -1.0895962 11 3203336098200 1 0
8.793706 19.698532 -1.7610526 6 3203336100504 1 0
9.742654 21.81572 0.4170427 30 3203336102808 1 0
4.8448257 14.509107 -0.98034114 17 3203336102808 1 0
0 0 0 36 3203336105112 1 0
8.014847 20.585323 1.2865002 18 3203336105112 1 0
9.241747 20.677933 0.9227526 30 3203336107416 1 0
5.6994424 14.632147 -0.7314693 4 3203336107416 1 0
8.965756 26.863323 0.824193 9 3203336100504 1 0
0 0 0 17 3203336109720 1 0
8.711159 22.354494 2.9458258 9 3203336109720 1 0
9.566584 21.388035 1.912716 22 3203336112024 1 0
5.4944882 16.422882 -0.7055386 3 3203336112024 1 0
0 0 0 21 3203336114328 1 0
7.2905245 18.6928 5.376189 12 3203336114328 1 0
8.136938 18.177584 3.6311433 6 3203336116632 1 0
7.8057623 20.005268 -0.49969226 100 3203336116632 1 0
0 0 0 4 3203336137368 1 0
5.009402 14.893734 -0.274282 12 3203336137368 1 0
8.930323 19.872416 -0.6340573 6 3203336139672 1 0
2.4692366 6.3012886 -1.8945756 6 3203336139672 1 0
4.052831 9.015153 -1.9768623 2 3203336141976 1 0
20.548662 52.41605 0 33 3203336141976 1 0
10.522743 20.638687 -0.26970062 80 3203336144280 1 0
4.922488 12.551037 -2.0974574 7 3203336144280 1 0
6.71893 14.934028 -2.084436 7 3203336146584 1 0
7.6577697 22.723986 0.1393697 21 3203336146584 1 0
9.288629 20.637623 -0.13153523 9 3203336148888 1 0
6.728127 17.140265 -1.9834373 4 3203336148888 1 0
9.768069 19.137875 -2.005733 7 3203336151192 1 0
8.866739 22.57884 0.5644568 49 3203336151192 1 0
10.48564 20.53638 0.26844338 40 3203336153496 1 0
5.7108603 14.536289 -1.0921073 9 3203336153496 1 0
6.0511594 17.922003 0.5505093 3 3203336155800 1 0
9.244033 20.514616 -1.8368844 14 3203336155800 1 0
9.887776 21.934711 0.4199747 46 3203336158104 1 0
10.026832 19.616655 -1.2830119 7 3203336160408 1 0
6.993231 17.77761 1.1125484 5 3203336160408 1 0
9.34181 20.70748 0.9255207 21 3203336162712 1 0
7.59854 19.308132 -0.9665445 36 3203336162712 1 0
0 0 0 52 3203336165016 1 0
0 0 0 5 3203336165016 1 0
4.904385 14.5185795 -0.98213196 5 3203336158104 1 0
9.616576 21.300007 1.9078342 19 3203336167320 1 0
4.9611115 14.658377 -0.6304744 2 3203336167320 1 0
10.016338 19.568027 -0.76764935 6 3203336169624 1 0
7.422304 18.83619 5.424847 4 3203336169624 1 0
8.607036 19.049173 3.8112297 14 3203336171928 1 0
7.884346 20.000221 -0.5002506 100 3203336171928 1 0
0 0 0 4 3203336192664 1 0
5.0626483 14.879944 -0.27435184 12 3203336192664 1 0
0 0 0 103 3203336194968 1 0
2.4926808 6.296194 -1.895654 5 3203336194968 1 0
4.0892687 9.011606 -1.9792157 2 3203336197272 1 0
10.609805 20.630053 -0.27007312 80 3203336199576 1 0
9.338725 23.57791 0 15 3203336197272 1 0
4.966543 12.533669 -2.0974574 7 3203336199576 1 0
6.7665296 14.899447 -2.0829206 7 3203336201880 1 0
7.733833 22.685534 0.13929994 26 3203336201880 1 0
9.296833 20.462708 -0.13062857 45 3203336204184 1 0
9.842939 19.117395 -2.00722 8 3203336206488 1 0
6.7782755 17.09055 -1.9804386 6 3203336204184 1 0
8.698709 21.922905 0.548824 26 3203336206488 1 0
10.576619 20.534674 0.268909 49 3203336208792 1 0
7.7203703 19.448586 -1.4632118 7 3203336208792 1 0
8.937107 19.647028 -1.762029 4 3203336211096 1 0
9.546612 20.978443 0.40231287 55 3203336213400 1 0
9.118447 26.693602 0.8209349 31 3203336211096 1 0
0 0 0 9 3203336213400 1 0
10.0838585 19.555958 -1.281384 2 3203336215704 1 0
8.488788 21.355787 1.3383603 10 3203336215704 1 0
9.44882 20.746735 0.92877734 25 3203336218008 1 0
9.347494 20.515947 -1.1815366 6 3203336220312 1 0
7.66891 19.28459 -0.96673065 40 3203336218008 1 0
0 0 0 1 3203336220312 1 0
9.720989 21.327065 1.9133669 16 3203336222616 1 0
5.043414 14.727462 -0.6342194 2 3203336222616 1 0
10.134262 19.624268 -0.77127886 6 3203336224920 1 0
7.182609 18.037643 5.202263 3 3203336224920 1 0
8.696783 19.06461 3.8205569 4 3203336227224 1 0
7.9636903 19.990286 -0.50071585 100 3203336227224 1 0
0 0 0 4 3203336247960 1 0
5.124964 14.883977 -0.27477068 11 3203336247960 1 0
0 0 0 28 3203336250264 1 0
2.5142183 6.2834764 -1.8945756 5 3203336250264 1 0
4.118741 8.989546 -1.9776467 2 3203336252568 1 0
8.725741 21.798437 0 40 3203336252568 1 0
10.697343 20.616346 -0.2703991 86 3203336254872 1 0
6.8152666 14.864123 -2.0814054 7 3203336257176 1 0
5.0030856 12.493585 -2.093768 7 3203336254872 1 0
7.8390875 22.725554 0.1397184 23 3203336257176 1 0
9.36695 20.421906 -0.13058208 57 3203336259480 1 0
6.8351903 17.055014 -1.9791535 5 3203336259480 1 0
9.900263 19.06085 -2.0049894 8 3203336261784 1 0
8.677385 21.642956 0.5425895 21 3203336261784 1 0
10.668165 20.532347 0.26937467 49 3203336264088 1 0
7.743575 19.306145 -1.454562 22 3203336264088 1 0
0 0 0 101 3203336266392 1 0
9.35677 27.076767 0.8337347 45 3203336266392 1 0
9.63906 20.984549 0.4030808 32 3203336268696 1 0
10.230017 19.669138 -1.2911514 5 3203336271000 1 0
5.0098124 14.490987 -0.98264366 1 3203336268696 1 0
8.546044 21.281311 1.3355696 10 3203336271000 1 0
7.76476 19.328037 -0.970267 31 3203336273304 1 0
9.5749 20.829693 0.93398786 25 3203336273304 1 0
0 0 0 67 3203336275608 1 0
7.198234 17.910686 2.370115 12 3203336275608 1 0
5.09327 14.706065 -0.6340566 2 3203336277912 1 0
9.800063 21.30401 1.9143434 19 3203336277912 1 0
10.233523 19.649343 -0.773652 9 3203336280216 1 0
8.47197 21.063177 6.083283 7 3203336280216 1 0
8.79865 19.113157 3.8363411 2 3203336282520 1 0
8.045984 19.996103 -0.5015533 88 3203336282520 1 0
0 0 0 4 3203336303256 1 0
5.1808662 14.885786 -0.27511972 11 3203336303256 1 0
9.468301 20.492846 -0.65698063 21 3203336305560 1 0
2.5365298 6.2786574 -1.895654 5 3203336305560 1 0
4.1420765 8.961536 -1.9745089 2 3203336307864 1 0
8.736843 21.617203 0 12 3203336307864 1 0
0 0 0 9 3203336310168 1 0
6.8682837 14.848444 -2.0824156 7 3203336312472 1 0
5.043279 12.473151 -2.093153 7 3203336310168 1 0
9.354527 26.82736 0.1651281 18 3203336312472 1 0
9.44712 20.415798 -0.13074481 52 3203336314776 1 0
6.878902 16.998825 -1.9752979 6 3203336314776 1 0
9.951313 19.002783 -2.002387 6 3203336317080 1 0
8.784565 21.698935 0.5447297 11 3203336317080 1 0
10.746518 20.514027 0.26960748 29 3203336319384 1 0
7.7725863 19.191198 -1.4478654 12 3203336319384 1 0
9.07291 19.584684 -1.762029 4 3203336321688 1 0
9.2173195 26.384485 0.81337136 18 3203336321688 1 0
9.752007 21.04255 0.40482602 28 3203336323992 1 0
5.075907 14.52295 -0.9859694 1 3203336323992 1 0
0 0 0 98 3203336326296 1 0
7.1565013 17.647896 1.1090599 5 3203336326296 1 0
7.843874 19.334879 -0.9719421 36 3203336328600 1 0
9.67249 20.855066 0.9365931 21 3203336328600 1 0
9.492071 20.458265 -1.1819552 16 3203336330904 1 0
9.886095 21.29939 1.916947 16 3203336333208 1 0
7.238247 17.834581 2.3632903 6 3203336330904 1 0
5.1447186 14.69238 -0.6342194 2 3203336333208 1 0
10.326645 19.6638 -0.7756064 9 3203336335512 1 0
8.122242 19.995995 5.783053 7 3203336335512 1 0
23.35458 50.278664 10.107794 44 3203336337816 1 0
8.12045 19.983246 -0.5019255 96 3203336337816 1 0
0 0 0 4 3203336358552 1 0
9.198466 19.727673 -0.6334755 6 3203336360856 1 0
5.236779 14.878928 -0.27532917 8 3203336358552 1 0
2.5526097 6.2554994 -1.8913407 5 3203336360856 1 0
4.171675 8.943469 -1.9737244 2 3203336363160 1 0
0 0 0 28 3203336365464 1 0
5.083799 12.448153 -2.0919232 8 3203336365464 1 0
6.918394 14.820784 -2.0819104 7 3203336367768 1 0
9.287167 26.338097 0.16231513 14 3203336367768 1 0
9.5284815 20.404444 -0.13088429 52 3203336370072 1 0
9.079835 22.242058 0 39 3203336363160 1 0
6.944216 16.989435 -1.9770116 8 3203336370072 1 0
10.010145 18.953844 -2.0008998 6 3203336372376 1 0
9.211396 22.526869 0.56631786 13 3203336372376 1 0
0 0 0 43 3203336374680 1 0
7.8259315 19.130713 -1.4453541 8 3203336374680 1 0
9.28136 19.852654 -1.789042 22 3203336376984 1 0
7.4141946 20.98747 0.647788 14 3203336376984 1 0
9.986361 21.352543 0.41145793 23 3203336379288 1 0
5.1292315 14.5126705 -0.9864811 1 3203336379288 1 0
10.404292 19.672424 -1.296035 7 3203336381592 1 0
0 0 0 21 3203336381592 1 0
9.812998 20.96597 0.9431063 15 3203336383896 1 0
7.9173775 19.32217 -0.9726866 33 3203336383896 1 0
9.644731 20.598652 -1.1920037 48 3203336386200 1 0
7.776312 18.970037 2.5173333 4 3203336386200 1 0
9.962074 21.268362 1.9172724 10 3203336388504 1 0
5.2026434 14.69317 -0.63503355 2 3203336388504 1 0
7.3296766 17.865677 5.17431 3 3203336390808 1 0
24.345005 51.935623 10.457922 51 3203336393112 1 0
8.1992655 19.976976 -0.50248384 99 3203336393112 1 0
10.4232855 19.680624 -0.77770036 15 3203336390808 1 0
0 0 0 4 3203336414296 1 0
5.3007526 14.894469 -0.27595747 9 3203336414296 1 0
0 0 0 55 3203336416600 1 0
2.5773654 6.2536736 -1.8934973 5 3203336416600 1 0
4.2011976 8.925303 -1.97294 2 3203336418904 1 0
0 0 0 23 3203336421208 1 0
5.124206 12.423023 -2.0906932 8 3203336421208 1 0
0 0 0 3 3203336418904 1 0
6.968395 14.7929535 -2.0814054 9 3203336423512 1 0
8.307079 23.298958 0.1437635 27 3203336423512 1 0
9.2364645 19.600359 -0.12593254 31 3203336425816 1 0
6.9943724 16.943035 -1.9744412 6 3203336425816 1 0
10.087479 18.939877 -2.0031307 8 3203336428120 1 0
9.575419 23.185751 0.5837187 5 3203336428120 1 0
10.255661 19.248903 0.2539153 30 3203336430424 1 0
7.8865676 19.088526 -1.4442381 14 3203336430424 1 0
9.302973 19.719177 -1.7799292 6 3203336432728 1 0
6.4638925 18.096064 0.5592364 23 3203336432728 1 0
5.1825457 14.502196 -0.9869928 1 3203336435032 1 0
10.030108 21.25245 0.41020137 18 3203336435032 1 0
10.281218 19.276598 -1.2723143 67 3203336437336 1 0
9.814435 20.779804 0.93626744 18 3203336439640 1 0
8.995235 21.74504 1.370453 7 3203336437336 1 0
7.9939437 19.316566 -0.97380334 31 3203336439640 1 0
9.684152 20.496239 -1.1880262 9 3203336441944 1 0
7.8470387 18.953783 2.5187955 15 3203336441944 1 0
9.949368 21.049635 1.9006741 9 3203336444248 1 0
5.252553 14.671157 -0.63487077 2 3203336444248 1 0
10.267807 19.224508 -0.76108825 48 3203336446552 1 0
0 0 0 57 3203336446552 1 0
8.279667 19.974092 -0.5031352 93 3203336448856 1 0
24.554752 51.9108 10.470119 51 3203336448856 1 0
0 0 0 4 3203336469592 1 0
5.3581285 14.890928 -0.27623668 8 3203336469592 1 0
2.599179 6.2446384 -1.8934973 5 3203336471896 1 0
9.246791 19.475159 -0.62742466 17 3203336471896 1 0
4.2272787 8.899956 -1.9705865 2 3203336474200 1 0
10.247316 19.099157 -0.25233212 58 3203336476504 1 0
8.97811 21.561453 0 7 3203336474200 1 0
5.1629796 12.394115 -2.0888486 8 3203336476504 1 0
7.021693 14.772123 -2.0819104 9 3203336478808 1 0
8.396496 23.292397 0.14390299 11 3203336478808 1 0
9.253295 19.45963 -0.12523511 59 3203336481112 1 0
7.050411 16.911175 -1.9735844 5 3203336481112 1 0
10.145991 18.890516 -2.0016434 9 3203336483416 1 0
0 0 0 101 3203336483416 1 0
10.290608 19.15309 0.2531237 42 3203336485720 1 0
0 0 0 27 3203336488024 1 0
7.930103 19.005642 -1.4400526 12 3203336485720 1 0
7.564607 20.94648 0.6481371 14 3203336488024 1 0
10.444709 21.932257 0.42402366 8 3203336490328 1 0
5.235849 14.491526 -0.9875044 1 3203336490328 1 0
10.267108 19.089369 -1.2623144 76 3203336492632 1 0
0 0 0 42 3203336492632 1 0
10.170622 21.340723 0.9631342 26 3203336494936 1 0
8.330957 19.933708 -1.0063752 67 3203336494936 1 0
9.279459 19.463533 -1.130038 39 3203336497240 1 0
8.917802 21.329147 2.8385808 5 3203336497240 1 0
10.063973 21.10114 1.908485 9 3203336499544 1 0
5.3064537 14.660249 -0.6351964 1 3203336499544 1 0
10.276087 19.079445 -0.75676066 63 3203336501848 1 0
0 0 0 9 3203336501848 1 0
24.756145 51.86739 10.478729 26 3203336504152 1 0
8.358604 19.967201 -0.5036935 97 3203336504152 1 0
0 0 0 4 3203336524888 1 0
5.4196453 14.898443 -0.27672535 6 3203336524888 1 0
9.257709 19.32377 -0.6235847 60 3203336527192 1 0
2.6164834 6.224875 -1.8902625 5 3203336527192 1 0
4.254929 8.878071 -1.9690176 1 3203336529496 1 0
9.048668 21.51892 0 5 3203336529496 1 0
10.321536 19.077343 -0.2525184 80 3203336531800 1 0
5.1970162 12.354158 -2.085159 7 3203336531800 1 0
7.0646353 14.729634 -2.079385 9 3203336534104 1 0
9.314244 19.412785 -0.12514213 72 3203336536408 1 0
9.424135 25.859827 0.15996711 10 3203336534104 1 0
7.110943 16.890127 -1.9740129 6 3203336536408 1 0
10.194799 18.823465 -1.9982975 9 3203336538712 1 0
0 0 0 10 3203336538712 1 0
10.37074 19.14167 0.25344965 48 3203336541016 1 0
7.9762545 18.930042 -1.4364253 17 3203336541016 1 0
9.281603 19.323133 -1.7499871 76 3203336543320 1 0
10.514275 21.881245 0.42374444 23 3203336545624 1 0
7.6061397 20.833563 0.6454608 31 3203336543320 1 0
0 0 0 81 3203336545624 1 0
10.34891 19.081495 -1.2641748 95 3203336547928 1 0
8.993161 21.317469 1.34743 16 3203336547928 1 0
10.257177 21.330303 0.96427405 9 3203336550232 1 0
8.434669 19.985495 -1.0104699 82 3203336550232 1 0
9.293663 19.319433 -1.1235483 66 3203336552536 1 0
9.933573 20.641975 1.8700811 9 3203336554840 1 0
8.956682 21.213764 2.8273687 5 3203336552536 1 0
5.666608 15.48613 -0.671833 3 3203336554840 1 0
10.354071 19.064535 -0.7575983 84 3203336557144 1 0
7.578019 17.933863 5.216757 15 3203336557144 1 0
25.001928 51.915382 10.505993 26 3203336559448 1 0
8.439151 19.963686 -0.5043449 70 3203336559448 1 0
0 0 0 4 3203336580184 1 0
5.4826603 14.909463 -0.27728385 5 3203336580184 1 0
9.330324 19.302135 -0.6239338 69 3203336582488 1 0
2.6412063 6.222795 -1.8924191 4 3203336582488 1 0
4.280771 8.8525715 -1.9666642 1 3203336584792 1 0
21.03804 49.546486 0 21 3203336584792 1 0
10.405306 19.072798 -0.25293747 75 3203336587096 1 0
5.2339272 12.321391 -2.0826995 7 3203336587096 1 0
7.116008 14.704884 -2.079385 9 3203336589400 1 0
7.644938 20.752249 0.12853628 29 3203336589400 1 0
9.392407 19.401756 -0.12528162 72 3203336591704 1 0
7.168301 16.861542 -1.9735844 15 3203336591704 1 0
10.2451725 18.759802 -1.9953233 8 3203336594008 1 0
0 0 0 3 3203336594008 1 0
10.452834 19.133432 0.25382218 54 3203336596312 1 0
8.036036 18.887398 -1.4353092 33 3203336596312 1 0
9.348997 19.290617 -1.7499871 74 3203336598616 1 0
8.153638 22.093485 0.685373 24 3203336598616 1 0
5.35763 14.510791 -0.9913419 18 3203336600920 1 0
10.157894 20.95192 0.40643165 5 3203336600920 1 0
10.42695 19.066275 -1.2655702 99 3203336603224 1 0
8.784256 20.62099 1.3053373 42 3203336603224 1 0
8.507512 19.963282 -1.0108421 75 3203336605528 1 0
10.343783 21.31954 0.96541387 29 3203336605528 1 0
9.3593 19.283281 -1.1233389 78 3203336607832 1 0
0 0 0 19 3203336607832 1 0
10.0682535 20.736284 1.8817976 9 3203336610136 1 0
10.439756 19.06334 -0.7589943 87 3203336612440 1 0
0 0 0 10 3203336610136 1 0
7.481364 17.534159 5.1080527 14 3203336612440 1 0
8.519775 19.959852 -0.50499624 78 3203336614744 1 0
0 0 0 4 3203336635480 1 0
7.446445 20.033588 -0.37306264 55 3203336635480 1 0
25.184713 51.831333 10.50671 52 3203336614744 1 0
9.40816 19.291012 -0.62463194 71 3203336637784 1 0
2.6583598 6.202916 -1.8891841 4 3203336637784 1 0
4.3082066 8.830524 -1.9650953 1 3203336640088 1 0
0 0 0 42 3203336640088 1 0
10.4910965 19.071405 -0.2534031 84 3203336642392 1 0
7.1690354 14.68352 -2.0798903 9 3203336644696 1 0
7.7215176 20.736683 0.12860602 29 3203336644696 1 0
9.474119 19.397604 -0.1254676 72 3203336647000 1 0
5.2659993 12.277618 -2.0783951 7 3203336642392 1 0
7.2255464 16.832764 -1.973156 6 3203336647000 1 0
22.6761 52.805458 1.3372583 22 3203336649304 1 0
10.2990675 18.702993 -1.9930927 9 3203336649304 1 0
10.538857 19.131863 0.2542878 52 3203336651608 1 0
8.111365 18.88123 -1.4369833 35 3203336651608 1 0
9.430286 19.286516 -1.7525908 72 3203336653912 1 0
8.216734 22.027428 0.68420935 22 3203336653912 1 0
10.236239 20.927113 0.40664107 5 3203336656216 1 0
5.4152274 14.5107 -0.992621 15 3203336656216 1 0
10.514651 19.068228 -1.2681283 100 3203336658520 1 0
8.821472 20.509499 1.3002211 29 3203336658520 1 0
10.456797 21.362276 0.9689961 9 3203336660824 1 0
8.585042 19.951815 -1.0117728 77 3203336660824 1 0
9.43885 19.275606 -1.1248044 75 3203336663128 1 0
10.154606 20.729656 1.8844012 6 3203336665432 1 0
8.9130535 20.705824 2.7678964 5 3203336663128 1 0
5.6696157 15.165421 -0.65962076 4 3203336665432 1 0
10.521695 19.054777 -0.76011103 84 3203336667736 1 0
7.559339 17.546968 5.1194406 12 3203336667736 1 0
25.426111 51.866776 10.531822 53 3203336670040 1 0
8.598892 19.952024 -0.50555456 72 3203336670040 1 0
0 0 0 4 3203336690776 1 0
7.513517 19.999985 -0.37292302 57 3203336690776 1 0
9.487517 19.283304 -0.6254465 69 3203336693080 1 0
2.678376 6.190103 -1.8881059 4 3203336693080 1 0
4.3352838 8.808519 -1.9635264 2 3203336695384 1 0
9.4429035 21.816038 0 10 3203336695384 1 0
10.574233 19.06661 -0.25382218 82 3203336697688 1 0
5.2988663 12.237632 -2.0747056 7 3203336697688 1 0
7.221147 14.662386 -2.0803952 9 3203336699992 1 0
9.646433 25.636744 0.15919994 7 3203336699992 1 0
9.5562725 19.397404 -0.12567683 72 3203336702296 1 0
7.271969 16.782425 -1.9701573 5 3203336702296 1 0
10.358795 18.660868 -1.992349 9 3203336704600 1 0
10.621107 19.12751 0.2547069 52 3203336706904 1 0
0 0 0 94 3203336704600 1 0
8.181654 18.868277 -1.4380995 59 3203336706904 1 0
7.813012 20.731234 0.6447626 33 3203336709208 1 0
9.512944 19.290342 -1.7558453 74 3203336709208 1 0
21.168562 42.911434 0.83520234 9 3203336711512 1 0
5.469582 14.507365 -0.99364436 15 3203336711512 1 0
10.597778 19.06785 -1.2704539 100 3203336713816 1 0
8.896392 20.494526 1.3011513 19 3203336713816 1 0
9.942319 20.141085 0.9150997 18 3203336716120 1 0
9.5151 19.269272 -1.1262698 78 3203336718424 1 0
8.662587 19.948765 -1.0130756 70 3203336716120 1 0
8.518189 19.60921 2.6250656 7 3203336718424 1 0
25.735806 52.10106 4.743874 26 3203336720728 1 0
5.6377635 14.929758 -0.6501767 3 3203336720728 1 0
10.601767 19.051527 -0.76136744 75 3203336723032 1 0
8.9493685 20.587051 6.0149546 15 3203336723032 1 0
25.618376 51.82915 10.541149 53 3203336725336 1 0
8.673707 19.945782 -0.5061129 61 3203336725336 1 0
0 0 0 4 3203336746072 1 0
7.5990033 20.036114 -0.37403998 82 3203336746072 1 0
2.6978996 6.1816187 -1.8881059 4 3203336748376 1 0
9.564319 19.285503 -0.62649375 69 3203336748376 1 0
4.3579617 8.784188 -1.9611729 2 3203336750680 1 0
21.394459 49.001064 0 31 3203336750680 1 0
10.65247 19.064257 -0.25424126 57 3203336752984 1 0
5.3283267 12.198959 -2.0710163 8 3203336752984 1 0
7.2627325 14.628543 -2.07888 9 3203336755288 1 0
20.604692 54.23273 0.33718398 13 3203336755288 1 0
9.631027 19.391663 -0.12583956 38 3203336757592 1 0
7.327468 16.762608 -1.9705857 6 3203336757592 1 0
10.418994 18.627323 -1.992349 11 3203336759896 1 0
0 0 0 5 3203336759896 1 0
11.58539 20.705564 0.27621964 45 3203336762200 1 0
8.250805 18.859919 -1.4394946 47 3203336762200 1 0
9.588165 19.284237 -1.7581235 78 3203336764504 1 0
7.87909 20.701931 0.6446462 26 3203336764504 1 0
0 0 0 10 3203336766808 1 0
5.528392 14.519233 -0.995691 13 3203336766808 1 0
10.672106 19.053816 -1.2718493 57 3203336769112 1 0
8.976526 20.494436 1.3030118 19 3203336769112 1 0
8.787736 20.055468 -1.0199622 42 3203336771416 1 0
9.59141 19.262642 -1.1277351 75 3203336773720 1 0
9.021492 20.580805 2.759122 2 3203336773720 1 0
25.786545 51.768826 4.7214174 26 3203336776024 1 0
5.5934505 14.664436 -0.63943 4 3203336776024 1 0
10.416592 20.927504 0.9523875 22 3203336771416 1 0
10.66935 19.02293 -0.7616466 27 3203336778328 1 0
7.650713 17.439837 5.102876 5 3203336778328 1 0
25.850296 51.85901 10.564826 53 3203336780632 1 0
0 0 0 8 3203336780632 1 0
0 0 0 4 3203336801368 1 0
7.677484 20.031874 -0.37445882 87 3203336801368 1 0
9.647679 19.284182 -0.627541 46 3203336803672 1 0
2.719461 6.1721635 -1.8881059 5 3203336803672 1 0
4.3868423 8.765415 -1.9603884 1 3203336805976 1 0
21.667015 49.156677 0 21 3203336805976 1 0
11.665203 20.706625 -0.27668527 96 3203336808280 1 0
5.3644977 12.16582 -2.0685565 7 3203336808280 1 0
7.3084207 14.592459 -2.077365 7 3203336810584 1 0
21.364473 55.64668 0.34643656 28 3203336810584 1 0
10.354433 20.666813 -0.1343482 85 3203336812888 1 0
7.385936 16.736927 -1.9705857 5 3203336812888 1 0
10.478084 18.580435 -1.9912337 11 3203336815192 1 0
10.216625 23.14231 0.5886505 13 3203336815192 1 0
11.673317 20.692867 0.27659214 64 3203336817496 1 0
8.327872 18.856554 -1.4414477 73 3203336817496 1 0
9.6679325 19.275595 -1.7604017 29 3203336819800 1 0
8.522536 22.159569 0.6909584 14 3203336819800 1 0
10.296895 20.52215 0.40077707 50 3203336822104 1 0
5.5890737 14.525925 -0.99748176 9 3203336822104 1 0
0 0 0 24 3203336824408 1 0
9.075463 20.525063 1.3069652 9 3203336824408 1 0
10.457298 20.826723 0.94945663 6 3203336826712 1 0
9.546261 21.581333 -1.0992513 30 3203336826712 1 0
9.676519 19.26474 -1.1298286 45 3203336829016 1 0
22.219086 50.21118 6.741812 41 3203336829016 1 0
25.997524 51.739056 4.7269506 26 3203336831320 1 0
7.702938 19.98513 -0.8726013 26 3203336831320 1 0
0 0 0 21 3203336833624 1 0
8.521967 19.243 5.639149 6 3203336833624 1 0
26.062983 51.831738 10.577741 54 3203336835928 1 0
8.780983 19.820084 -0.5044379 4 3203336835928 1 0
0 0 0 4 3203336856664 1 0
7.7545834 20.0236 -0.3748079 85 3203336856664 1 0
0 0 0 18 3203336858968 1 0
2.7409892 6.1626334 -1.8881059 4 3203336858968 1 0
4.426251 8.767556 -1.9643108 2 3203336861272 1 0
0 0 0 100 3203336861272 1 0
11.757165 20.70056 -0.2771509 86 3203336863576 1 0
5.403717 12.139798 -2.0673268 7 3203336863576 1 0
7.3611026 14.5704 -2.07787 9 3203336865880 1 0
0 0 0 73 3203336865880 1 0
10.439139 20.655533 -0.13451093 100 3203336868184 1 0
7.4378405 16.696512 -1.9688722 6 3203336868184 1 0
10.540909 18.540283 -1.9908619 8 3203336870488 1 0
0 0 0 70 3203336870488 1 0
11.763274 20.683285 0.27701122 47 3203336872792 1 0
0 0 0 9 3203336875096 1 0
0 0 0 8 3203336872792 1 0
8.581008 22.081236 0.6894457 16 3203336875096 1 0
10.37208 20.49322 0.40091667 70 3203336877400 1 0
5.675906 14.59934 -1.0038775 15 3203336877400 1 0
11.178265 19.634726 -1.3158023 5 3203336879704 1 0
9.072185 20.32552 1.2962676 9 3203336879704 1 0
26.161404 51.65256 2.3589056 50 3203336882008 1 0
0 0 0 4 3203336882008 1 0
22.418509 50.18769 6.749124 62 3203336884312 1 0
0 0 0 8 3203336884312 1 0
26.24646 51.783123 4.739318 26 3203336886616 1 0
7.795859 20.017708 -0.87520653 74 3203336886616 1 0
11.2711115 19.771051 -0.7947313 9 3203336888920 1 0
26.295372 51.84222 10.598547 54 3203336891224 1 0
8.636391 19.318953 5.6702075 4 3203336888920 1 0
9.715372 21.724072 -0.55375576 15 3203336891224 1 0
0 0 0 4 3203336911960 1 0
7.833175 20.018755 -0.37522674 76 3203336911960 1 0
9.959829 19.565552 -0.6389445 6 3203336914264 1 0
4.446149 8.731081 -1.959604 2 3203336916568 1 0
2.7577512 6.142486 -1.8848709 4 3203336914264 1 0
9.975637 22.210623 0 13 3203336916568 1 0
0 0 0 56 3203336918872 1 0
5.4444404 12.117257 -2.066712 7 3203336918872 1 0
10.096739 25.75943 0.16080403 10 3203336921176 1 0
10.53116 20.658167 -0.13476665 100 3203336923480 1 0
7.411918 14.544617 -2.07787 3 3203336921176 1 0
10.593679 18.482643 -1.9886312 8 3203336925784 1 0
7.4928145 16.663193 -1.9680153 5 3203336923480 1 0
0 0 0 70 3203336925784 1 0
8.978399 19.95145 -1.529899 4 3203336928088 1 0
0 0 0 43 3203336928088 1 0
10.0233555 19.64086 -1.8001076 4 3203336930392 1 0
8.617118 21.94694 0.6861875 24 3203336930392 1 0
10.456281 20.481823 0.40140533 60 3203336932696 1 0
7.621183 19.402098 -1.3359451 10 3203336932696 1 0
0 0 0 98 3203336935000 1 0
9.190647 20.399311 1.3030118 26 3203336935000 1 0
10.240601 20.044947 0.91705364 9 3203336937304 1 0
10.001647 19.570192 -1.1518097 3 3203336939608 1 0
8.882342 19.707352 -1.0069336 12 3203336937304 1 0
22.626198 50.181515 6.758874 42 3203336939608 1 0
26.39076 51.620193 4.7328086 26 3203336941912 1 0
7.8715396 20.005249 -0.87585783 51 3203336941912 1 0
11.346032 19.741985 -0.79515016 9 3203336944216 1 0
8.501952 18.841425 5.5387278 4 3203336944216 1 0
9.779627 21.664513 -0.5531044 5 3203336946520 1 0
26.501266 51.799164 10.608592 54 3203336946520 1 0
0 0 0 4 3203336967256 1 0
7.911828 20.013607 -0.3756456 78 3203336967256 1 0
10.039022 19.552008 -0.63964266 6 3203336969560 1 0
2.7759957 6.1258054 -1.8827143 4 3203336969560 1 0
4.4676385 8.698063 -1.9556817 2 3203336971864 1 0
9.299991 20.514404 0 30 3203336971864 1 0
22.429089 38.85615 -0.5223121 5 3203336974168 1 0
5.480174 12.08378 -2.0642521 7 3203336974168 1 0
7.462643 14.518655 -2.07787 3 3203336976472 1 0
8.688869 21.941849 0.13716117 25 3203336976472 1 0
10.61784 20.649738 -0.13495263 100 3203336978776 1 0
7.5460033 16.626072 -1.9667302 5 3203336978776 1 0
10.644183 18.421413 -1.9860289 8 3203336981080 1 0
29.763453 51.49299 0.6924116 21 3203336983384 1 0
9.916143 21.83975 0.55812925 15 3203336981080 1 0
8.97538 19.760134 -1.5176219 18 3203336983384 1 0
10.08273 19.588028 -1.7984803 4 3203336985688 1 0
8.581632 21.634266 0.677344 20 3203336985688 1 0
10.542359 20.473644 0.40196383 67 3203336987992 1 0
0 0 0 85 3203336987992 1 0
11.40306 19.70829 -1.3260348 5 3203336990296 1 0
9.299817 20.450712 1.3083606 22 3203336990296 1 0
10.277555 19.94513 0.9141227 18 3203336992600 1 0
9.354788 20.563656 -1.0523479 8 3203336992600 1 0
22.832472 50.170887 6.768136 63 3203336994904 1 0
10.093692 19.581318 -1.1545312 3 3203336994904 1 0
0 0 0 8 3203336997208 1 0
7.945752 19.988792 -0.87634635 29 3203336997208 1 0
11.472992 19.802568 -0.79919845 18 3203336999512 1 0
0 0 0 48 3203336999512 1 0
26.743273 51.825237 10.632986 55 3203337001816 1 0
0 0 0 75 3203337001816 1 0
0 0 0 4 3203337022552 1 0
10.138468 19.577204 -0.6416208 12 3203337024856 1 0
7.993507 20.015581 -0.37620407 82 3203337022552 1 0
2.798964 6.1195807 -1.8837926 4 3203337024856 1 0
4.492561 8.671967 -1.9533283 2 3203337027160 1 0
9.316622 20.361784 0 47 3203337027160 1 0
0 0 0 16 3203337029464 1 0
5.522321 12.064577 -2.0642521 7 3203337029464 1 0
7.520582 14.506608 -2.0798903 3 3203337031768 1 0
8.661411 21.65142 0.13553382 45 3203337031768 1 0
10.700905 20.633854 -0.13509212 77 3203337034072 1 0
7.6023374 16.596016 -1.9663018 5 3203337034072 1 0
10.710426 18.387587 -1.9864006 9 3203337036376 1 0
9.5791645 20.903429 0.53505224 31 3203337036376 1 0
30.025576 51.53047 0.69432074 31 3203337038680 1 0
9.017694 19.670649 -1.5131575 4 3203337038680 1 0
10.244729 19.733168 -1.8150786 7 3203337040984 1 0
9.048235 22.580282 0.70794725 18 3203337040984 1 0
10.635881 20.479311 0.40280154 65 3203337043288 1 0
8.016383 19.996824 -1.3807154 45 3203337043288 1 0
11.491904 19.70286 -1.3283603 10 3203337045592 1 0
9.581023 20.87541 1.3376626 10 3203337045592 1 0
9.048051 19.70659 -1.0100976 7 3203337047896 1 0
10.228315 19.673555 -1.1620675 9 3203337050200 1 0
23.033976 50.148605 6.7759356 63 3203337050200 1 0
27.317068 52.524086 4.83305 27 3203337052504 1 0
7.9767556 19.864506 -0.87211275 22 3203337052504 1 0
18.233408 31.219414 -1.2625242 6 3203337054808 1 0
9.348149 20.3368 5.997355 2 3203337054808 1 0
26.951265 51.78393 10.643748 55 3203337057112 1 0
10.323154 19.86303 0.9120059 6 3203337047896 1 0
9.46618 20.585684 -0.5272358 66 3203337057112 1 0
0 0 0 4 3203337078296 1 0
8.076792 20.020937 -0.37683237 78 3203337078296 1 0
2.8186495 6.1062965 -1.8827143 4 3203337080600 1 0
4.5208616 8.652822 -1.9525437 2 3203337082904 1 0
10.219559 19.566578 -0.6424354 9 3203337080600 1 0
9.392376 20.34017 0 47 3203337082904 1 0
20.667248 35.235275 -0.47556153 58 3203337085208 1 0
5.5558505 12.027408 -2.0611777 7 3203337085208 1 0
7.552368 14.445325 -2.0748394 3 3203337087512 1 0
8.997047 22.26661 0.13957892 15 3203337087512 1 0
0 0 0 38 3203337089816 1 0
7.6596193 16.569656 -1.9663018 5 3203337089816 1 0
10.767695 18.340256 -1.9852853 8 3203337092120 1 0
9.694802 20.964655 0.5374716 11 3203337092120 1 0
30.253286 51.51311 0.6954849 21 3203337094424 1 0
10.33644 19.743801 -1.8193096 7 3203337096728 1 0
9.125511 19.726429 -1.5198541 8 3203337094424 1 0
9.137688 22.578741 0.70887816 6 3203337096728 1 0
10.689265 20.410875 0.40217325 30 3203337099032 1 0
8.095315 19.99515 -1.3825061 65 3203337099032 1 0
11.484304 19.536095 -1.3197558 7 3203337101336 1 0
9.69427 20.933128 1.3434765 47 3203337101336 1 0
10.409392 19.863106 0.9136342 6 3203337103640 1 0
9.49816 20.502232 -1.052534 8 3203337103640 1 0
0 0 0 51 3203337105944 1 0
23.249592 50.16718 6.7890973 64 3203337105944 1 0
27.33976 52.13443 4.8057113 27 3203337108248 1 0
8.110255 20.000265 -0.8792772 48 3203337108248 1 0
18.4121 31.28147 -1.2675498 6 3203337110552 1 0
10.176163 21.941881 6.480829 3 3203337110552 1 0
27.193878 51.821423 10.670295 56 3203337112856 1 0
9.11836 19.653929 -0.5041588 6 3203337112856 1 0
0 0 0 4 3203337133592 1 0
8.149174 20.008858 -0.37711158 78 3203337133592 1 0
10.308746 19.578497 -0.6439481 28 3203337135896 1 0
2.8389277 6.096895 -1.8827143 4 3203337135896 1 0
4.544173 8.627305 -1.9501903 2 3203337138200 1 0
9.47527 20.341408 0 38 3203337138200 1 0
11.215581 18.97585 -0.25661603 31 3203337140504 1 0
5.5926275 12.001631 -2.0599477 7 3203337140504 1 0
0 0 0 38 3203337142808 1 0
0 0 0 3 3203337142808 1 0
19.680405 37.324577 -0.24523951 19 3203337145112 1 0
7.7050405 16.522259 -1.9637315 6 3203337145112 1 0
10.833309 18.310831 -1.9860289 11 3203337147416 1 0
9.819284 21.047932 0.54044926 23 3203337147416 1 0
9.186816 19.684744 -1.519017 6 3203337149720 1 0
0 0 0 19 3203337149720 1 0
10.403003 19.70881 -1.8193096 7 3203337152024 1 0
8.8841095 21.740915 0.6835112 8 3203337152024 1 0
10.218539 19.352522 0.38199827 45 3203337154328 1 0
8.173457 19.993525 -1.384297 68 3203337154328 1 0
9.74825 20.863977 1.3411509 40 3203337156632 1 0
0 0 0 31 3203337156632 1 0
10.48986 19.852375 0.914774 6 3203337158936 1 0
9.209049 19.702463 -1.0130756 7 3203337158936 1 0
10.404925 19.684704 -1.1668825 6 3203337161240 1 0
23.44542 50.14171 6.7964096 43 3203337161240 1 0
27.353418 51.730736 4.777071 27 3203337163544 1 0
8.189024 19.998379 -0.88041705 55 3203337163544 1 0
0 0 0 20 3203337165848 1 0
10.228173 21.857979 6.466335 3 3203337165848 1 0
27.391462 51.766235 10.678187 56 3203337168152 1 0
9.656943 20.629425 -0.5300274 66 3203337168152 1 0
0 0 0 4 3203337188888 1 0
8.229618 20.006182 -0.37760025 78 3203337188888 1 0
2.8585544 6.083462 -1.881636 4 3203337191192 1 0
4.57794 8.618318 -1.9517592 2 3203337193496 1 0
9.253535 19.685568 0 31 3203337193496 1 0
11.244903 18.874733 -0.25577787 71 3203337195800 1 0
10.217638 19.242231 -0.6340573 42 3203337191192 1 0
5.6210313 11.953422 -2.0550284 7 3203337195800 1 0
7.6639743 14.417887 -2.0783749 6 3203337198104 1 0
0 0 0 31 3203337200408 1 0
21.00441 50.977352 0.3204457 25 3203337198104 1 0
7.762667 16.495262 -1.9637315 6 3203337200408 1 0
10.88084 18.245539 -1.9830546 4 3203337202712 1 0
10.015332 21.274025 0.54714906 19 3203337202712 1 0
11.257931 18.871622 0.25582445 58 3203337205016 1 0
9.3183775 19.786125 -1.529341 12 3203337205016 1 0
10.226335 19.21136 -1.7766746 56 3203337207320 1 0
8.886728 21.532368 0.6779258 38 3203337207320 1 0
10.246555 19.242601 0.38053226 69 3203337209624 1 0
8.250815 19.98332 -1.3855761 61 3203337209624 1 0
11.2662945 18.866928 -1.2797562 87 3203337211928 1 0
9.785257 20.753973 1.3362672 23 3203337211928 1 0
10.5778885 19.85091 0.9164023 6 3203337214232 1 0
10.261247 19.249939 -1.1432266 63 3203337216536 1 0
9.477198 20.09302 -1.0348521 36 3203337214232 1 0
23.645718 50.113422 6.803722 21 3203337216536 1 0
27.96715 52.447563 4.8522515 28 3203337218840 1 0
8.264891 19.984446 -0.8810684 63 3203337218840 1 0
11.283341 18.870525 -0.76778895 87 3203337221144 1 0
27.607191 51.73627 10.691819 56 3203337223448 1 0
9.825978 20.808947 6.166105 2 3203337221144 1 0
9.674238 20.479885 -0.5270497 7 3203337223448 1 0
0 0 0 4 3203337244184 1 0
8.308609 19.999493 -0.37801912 78 3203337244184 1 0
10.237836 19.11818 -0.6311482 75 3203337246488 1 0
2.8765597 6.0664444 -1.8794794 4 3203337246488 1 0
4.600837 8.588322 -1.9486214 2 3203337248792 1 0
9.247334 19.49386 0 44 3203337248792 1 0
11.328015 18.862303 -0.2561504 89 3203337251096 1 0
5.6530757 11.912056 -2.0513391 7 3203337251096 1 0
0 0 0 21 3203337253400 1 0
7.7188425 14.397592 -2.079385 9 3203337253400 1 0
10.252344 19.115868 -0.12607203 93 3203337255704 1 0
7.8213964 16.467495 -1.9637315 5 3203337255704 1 0
10.9522085 18.216732 -1.98417 4 3203337258008 1 0
10.142871 21.346413 0.54994065 23 3203337258008 1 0
11.340084 18.85505 0.2561504 66 3203337260312 1 0
9.341433 19.651615 -1.5215282 20 3203337260312 1 0
9.298231 22.300987 0.7031764 25 3203337262616 1 0
10.259729 19.107615 -1.7704909 85 3203337262616 1 0
10.333209 19.237076 0.38116056 67 3203337264920 1 0
8.333889 19.9791 -1.3873669 71 3203337264920 1 0
11.35748 18.863468 -1.2823143 100 3203337267224 1 0
