# .PCD v.7 - Point Cloud Data file format
VERSION .7
FIELDS x y z rgb timestamp_ns device_id active
SIZE 4 4 4 4 8 1 1
TYPE F F F F F U U
COUNT 1 1 1 1 1 1 1
WIDTH 984
HEIGHT 1
VIEWPOINT 0 0 0 1 0 0 0
POINTS 984               
DATA ascii
17.638206 -52.08489 2.240366 59 3202374178600 1 0
10.683936 -27.111189 -1.3574059 43 3202374178600 1 0
0 0 0 93 3202374180904 1 0
14.46347 -36.71766 4.8455253 7 3202374180904 1 0
14.033714 -41.48069 3.5748296 37 3202374183208 1 0
12.114195 -26.840376 -1.1997249 28 3202374183208 1 0
7.8552856 -27.60667 -1.0023135 52 3202374185512 1 0
0 0 0 9 3202374185512 1 0
9.850887 -29.145061 5.609223 35 3202374187816 1 0
10.695871 -27.187834 -0.679842 69 3202374187816 1 0
0 0 0 4 3202374208552 1 0
9.193469 -27.33099 -0.8392037 55 3202374210856 1 0
13.976247 -31.098558 -0.59512705 46 3202374208552 1 0
2.2142067 -5.6524096 -1.699403 1 3202374210856 1 0
2.7387054 -8.145736 -1.7187719 4 3202374213160 1 0
10.804003 -27.59219 0 33 3202374213160 1 0
11.449983 -40.530876 -0.4903224 42 3202374215464 1 0
3.8966947 -9.955978 -1.663331 17 3202374215464 1 0
3.413808 -10.163482 -1.364707 34 3202374217768 1 0
14.451304 -32.205708 0.20516056 41 3202374217768 1 0
0 0 0 27 3202374220072 1 0
5.6531825 -14.456158 -1.6719991 3 3202374220072 1 0
5.152341 -18.268824 -1.7718858 4 3202374222376 1 0
15.832504 -40.5038 1.0119466 55 3202374222376 1 0
13.744235 -48.76053 0.58978385 51 3202374224680 1 0
6.708608 -20.011219 -1.7229741 4 3202374226984 1 0
14.425066 -32.197372 1.0267795 61 3202374226984 1 0
11.113368 -33.166256 0.610555 73 3202374229288 1 0
10.329454 -23.06478 -1.6196607 7 3202374229288 1 0
8.699943 -22.26634 -1.6716441 7 3202374224680 1 0
7.7524657 -27.549511 -1.6667295 7 3202374231592 1 0
20.12539 -51.57462 3.2241576 46 3202374231592 1 0
11.105087 -33.173573 1.4252433 19 3202374233896 1 0
10.57762 -27.118538 -1.355917 43 3202374233896 1 0
7.438077 -9.344806 -1.5202694 48 3202368687584 1 0
28.429981 -29.318687 0.23735856 26 3202368687584 1 0
28.679092 -36.04111 -0.26769674 23 3202368689888 1 0
10.317133 -14.356488 -1.6503149 2 3202368692192 1 0
8.115006 -9.233731 -1.3241479 3 3202368689888 1 0
28.392277 -32.315407 1.0009664 33 3202368692192 1 0
14.688504 -16.722763 -1.5564065 4 3202368694496 1 0
12.214339 -15.362865 -1.6022292 3 3202368696800 1 0
29.364943 -40.873795 0.585919 25 3202368694496 1 0
28.413355 -29.333963 1.1885228 31 3202368696800 1 0
29.573551 -37.207367 0.8296176 54 3202368699104 1 0
16.416965 -16.953571 -1.5124679 4 3202368699104 1 0
15.347575 -21.38137 -1.5327772 6 3202368701408 1 0
27.68085 -31.540817 2.4439318 21 3202368701408 1 0
27.60172 -34.746254 1.8078917 19 3202368703712 1 0
18.648813 -23.482605 -1.571544 9 3202368706016 1 0
20.330597 -23.172062 -1.4359505 9 3202368703712 1 0
31.554575 -35.974762 5.8755646 22 3202368706016 1 0
32.069786 -40.39377 4.2104487 19 3202368708320 1 0
18.788092 -26.205065 -1.1259973 40 3202368710624 1 0
23.591095 -24.389153 -1.3824192 16 3202368708320 1 0
0 0 0 9 3202368710624 1 0
21.328922 -26.880274 6.256386 18 3202368712928 1 0
22.790773 -26.005058 -0.8046255 35 3202368712928 1 0
0 0 0 4 3202368733664 1 0
24.774818 -25.690945 -0.6229811 38 3202368733664 1 0
19.829615 -25.062525 -0.93008256 50 3202368735968 1 0
3.941537 -4.5101185 -1.6767588 1 3202368735968 1 0
5.1877003 -6.5587597 -1.6724882 3 3202368738272 1 0
29.563908 -41.39547 -0.59220517 19 3202368740576 1 0
28.428013 -32.53889 0 47 3202368738272 1 0
6.910797 -7.9125814 -1.6344303 4 3202368740576 1 0
7.391739 -9.351173 -1.517239 43 3202368742880 1 0
28.422459 -29.509523 0.23812573 26 3202368742880 1 0
28.58903 -36.17889 -0.26799896 23 3202368745184 1 0
8.075823 -9.252191 -1.3228627 17 3202368745184 1 0
10.270526 -14.39476 -1.6506866 2 3202368747488 1 0
28.389927 -32.535385 1.0047816 34 3202368747488 1 0
29.341196 -41.136738 0.58824724 17 3202368749792 1 0
14.633884 -16.775875 -1.5566854 4 3202368749792 1 0
12.171416 -15.417217 -1.603531 3 3202368752096 1 0
28.417833 -29.540815 1.1929446 37 3202368752096 1 0
16.435904 -17.090622 -1.5196311 4 3202368754400 1 0
29.573961 -37.472336 0.8332477 54 3202368754400 1 0
15.2873745 -21.453882 -1.5341725 6 3202368756704 1 0
27.668575 -31.747831 2.4525363 22 3202368756704 1 0
27.592152 -34.983204 1.815219 19 3202368759008 1 0
20.25255 -23.245607 -1.4361366 9 3202368759008 1 0
18.58157 -23.56638 -1.5728002 9 3202368761312 1 0
31.527893 -36.198456 5.8940887 22 3202368761312 1 0
31.987232 -40.581074 4.21826 19 3202368763616 1 0
23.527609 -24.494755 -1.3837218 16 3202368763616 1 0
0 0 0 9 3202368765920 1 0
21.170475 -26.875116 6.2377315 18 3202368768224 1 0
22.61997 -25.994944 -0.8018339 40 3202368768224 1 0
0 0 0 4 3202368788960 1 0
24.622412 -25.720907 -0.6215151 33 3202368788960 1 0
19.760214 -25.16305 -0.9311298 45 3202368791264 1 0
3.9275699 -4.527387 -1.677837 1 3202368791264 1 0
5.163818 -6.5775795 -1.6724882 3 3202368793568 1 0
18.658655 -26.21892 -1.1237638 40 3202368765920 1 0
28.422205 -32.77198 0 55 3202368793568 1 0
29.584944 -41.743748 -0.595651 27 3202368795872 1 0
6.874328 -7.9285984 -1.6325855 5 3202368795872 1 0
7.353062 -9.371531 -1.5162288 19 3202368798176 1 0
28.42088 -29.721706 0.23900914 26 3202368798176 1 0
8.037323 -9.275132 -1.322006 60 3202368800480 1 0
10.218957 -14.431416 -1.6506866 2 3202368802784 1 0
28.508247 -36.344307 -0.2684639 24 3202368800480 1 0
28.383308 -32.7637 1.0086898 34 3202368802784 1 0
29.35388 -41.466286 0.59146017 25 3202368805088 1 0
14.607973 -16.867126 -1.5603127 4 3202368805088 1 0
12.124004 -15.469728 -1.6045074 3 3202368807392 1 0
28.409477 -29.742674 1.1970173 37 3202368807392 1 0
29.57207 -37.743477 0.8369476 54 3202368809696 1 0
16.369884 -17.14283 -1.5191195 4 3202368809696 1 0
15.220991 -21.520597 -1.5351027 6 3202368812000 1 0
27.666407 -31.971846 2.4623039 22 3202368812000 1 0
27.582705 -35.224457 1.8227092 28 3202368814304 1 0
20.241528 -23.398043 -1.441162 9 3202368814304 1 0
18.506582 -23.640533 -1.5734282 9 3202368816608 1 0
31.518213 -36.44342 5.9160256 34 3202368816608 1 0
31.76735 -40.591553 4.207845 19 3202368818912 1 0
23.486458 -24.622663 -1.3863271 11 3202368818912 1 0
18.53088 -26.23111 -1.1215302 39 3202368821216 1 0
0 0 0 9 3202368821216 1 0
21.019526 -26.87354 6.2205124 24 3202368823520 1 0
22.449177 -25.978962 -0.7989493 39 3202368823520 1 0
24.473595 -25.73576 -0.61990947 33 3202368844256 1 0
0 0 0 4 3202368844256 1 0
19.69369 -25.25065 -0.9319444 45 3202368846560 1 0
5.146705 -6.6009283 -1.6740572 3 3202368848864 1 0
3.9125018 -4.540415 -1.677837 1 3202368846560 1 0
28.359886 -32.921013 0 41 3202368848864 1 0
29.523705 -41.953484 -0.59723413 67 3202368851168 1 0
6.852983 -7.9574904 -1.6338153 4 3202368851168 1 0
0 0 0 30 3202368853472 1 0
28.414957 -29.91522 0.23979956 26 3202368853472 1 0
28.386244 -36.439674 -0.2684639 24 3202368855776 1 0
7.967268 -9.256811 -1.3155801 58 3202368855776 1 0
10.186448 -14.488473 -1.6532891 2 3202368858080 1 0
28.31741 -32.910404 1.0102717 20 3202368858080 1 0
29.335995 -41.738316 0.59392804 25 3202368860384 1 0
12.074184 -15.513696 -1.6048329 3 3202368862688 1 0
28.40252 -29.936987 1.2009736 43 3202368862688 1 0
29.930544 -38.46825 0.85076994 18 3202368864992 1 0
16.31457 -17.200985 -1.5193753 4 3202368864992 1 0
14.561506 -16.928318 -1.5614289 4 3202368860384 1 0
27.659407 -32.18353 2.4713736 33 3202368867296 1 0
30.949146 -39.80129 2.0540893 23 3202368869600 1 0
15.150269 -21.575323 -1.5353353 6 3202368867296 1 0
20.167156 -23.472712 -1.4415342 9 3202368869600 1 0
18.49221 -23.788532 -1.5790805 9 3202368871904 1 0
0 0 0 8 3202368874208 1 0
23.413338 -24.71423 -1.3869785 11 3202368874208 1 0
18.383732 -26.212473 -1.1180403 39 3202368876512 1 0
0 0 0 9 3202368876512 1 0
20.888735 -26.895653 6.2090325 24 3202368878816 1 0
31.559559 -36.74323 5.947224 34 3202368871904 1 0
22.294956 -25.979836 -0.796623 39 3202368878816 1 0
0 0 0 4 3202368899552 1 0
24.328693 -25.762875 -0.6185133 38 3202368899552 1 0
19.629908 -25.350855 -0.933108 50 3202368901856 1 0
3.8941247 -4.551118 -1.6767588 1 3202368901856 1 0
5.121231 -6.6157517 -1.6732727 2 3202368904160 1 0
28.361801 -33.156593 0 42 3202368904160 1 0
29.525957 -42.269417 -0.6002608 55 3202368906464 1 0
6.825165 -7.9813633 -1.6338153 4 3202368906464 1 0
7.2499804 -9.371361 -1.5081477 3 3202368908768 1 0
28.40642 -30.116066 0.24061322 33 3202368908768 1 0
28.356756 -36.665104 -0.26939383 24 3202368911072 1 0
7.9168205 -9.263402 -1.3125814 51 3202368911072 1 0
10.126695 -14.510879 -1.651802 2 3202368913376 1 0
28.311459 -33.136745 1.0141798 20 3202368913376 1 0
29.313702 -42.0176 0.5964425 17 3202368915680 1 0
14.502327 -16.979044 -1.5614289 4 3202368915680 1 0
12.029708 -15.568367 -1.6061347 3 3202368917984 1 0
28.402035 -30.146534 1.2053953 38 3202368917984 1 0
29.583376 -38.297134 0.84469646 18 3202368920288 1 0
16.259901 -17.26364 -1.519887 4 3202368920288 1 0
15.138799 -21.719803 -1.5418469 6 3202368922592 1 0
27.655767 -32.40746 2.4811409 34 3202368922592 1 0
30.988316 -40.140026 2.065976 24 3202368924896 1 0
20.095472 -23.555124 -1.4422787 9 3202368924896 1 0
18.426144 -23.875072 -1.5805459 9 3202368927200 1 0
31.523857 -36.961914 5.964773 34 3202368927200 1 0
0 0 0 8 3202368929504 1 0
23.340618 -24.810362 -1.3877926 16 3202368929504 1 0
0 0 0 9 3202368931808 1 0
18.24644 -26.210867 -1.1152483 39 3202368931808 1 0
20.74907 -26.909195 6.1954007 24 3202368934112 1 0
22.12373 -25.963146 -0.79373837 39 3202368934112 1 0
0 0 0 4 3202368955296 1 0
24.176664 -25.790598 -0.6170473 38 3202368955296 1 0
19.553915 -25.444822 -0.9339225 45 3202368957600 1 0
3.8799114 -4.5682955 -1.677837 1 3202368957600 1 0
5.1065073 -6.6469193 -1.6764106 2 3202368959904 1 0
29.507538 -42.574593 -0.6030547 56 3202368962208 1 0
6.800981 -8.012352 -1.6350452 4 3202368962208 1 0
7.201085 -9.378986 -1.5051172 3 3202368964512 1 0
28.448946 -30.383488 0.24191509 27 3202368964512 1 0
28.348822 -33.388386 0 42 3202368959904 1 0
28.44381 -37.057533 -0.27150935 24 3202368966816 1 0
7.8802423 -9.289324 -1.312153 17 3202368966816 1 0
10.080243 -14.55772 -1.6529173 2 3202368969120 1 0
28.282928 -33.350086 1.0175297 21 3202368969120 1 0
29.325686 -42.364834 0.5998417 26 3202368971424 1 0
14.442578 -17.035126 -1.561708 4 3202368971424 1 0
11.979845 -15.621844 -1.6071111 3 3202368973728 1 0
28.38694 -30.352638 1.209468 44 3202368973728 1 0
29.518244 -38.503696 0.8468606 46 3202368976032 1 0
16.20197 -17.32895 -1.5203986 4 3202368976032 1 0
15.065905 -21.784998 -1.5425445 7 3202368978336 1 0
27.642624 -32.633533 2.4906757 34 3202368978336 1 0
31.069473 -40.55155 2.081282 38 3202368980640 1 0
20.00384 -23.62252 -1.4419065 9 3202368980640 1 0
18.36523 -23.977331 -1.5828487 9 3202368982944 1 0
31.52413 -37.237804 5.9906096 23 3202368982944 1 0
0 0 0 8 3202368985248 1 0
23.244072 -24.8899 -1.3874669 16 3202368985248 1 0
18.107084 -26.215073 -1.1125959 43 3202368987552 1 0
0 0 0 9 3202368987552 1 0
20.609648 -26.931936 6.183203 30 3202368989856 1 0
0 0 0 4 3202369010592 1 0
21.940619 -25.940248 -0.79057455 43 3202368989856 1 0
24.040165 -25.825068 -0.6158605 38 3202369010592 1 0
19.486803 -25.541533 -0.9349698 45 3202369012896 1 0
3.8664248 -4.584756 -1.6789154 1 3202369012896 1 0
5.083274 -6.664704 -1.6764106 2 3202369015200 1 0
28.34039 -33.61558 0 42 3202369015200 1 0
29.494759 -42.875053 -0.60584855 49 3202369017504 1 0
6.780613 -8.04511 -1.6368899 4 3202369017504 1 0
7.158681 -9.391443 -1.5030969 3 3202369019808 1 0
28.454386 -30.60271 0.24286824 27 3202369019808 1 0
28.34822 -37.201134 -0.27183482 16 3202369022112 1 0
0 0 0 4 3202369022112 1 0
10.076738 -14.661745 -1.6607246 2 3202369024416 1 0
29.286346 -42.62518 0.6020768 26 3202369026720 1 0
14.377888 -17.079332 -1.5611498 4 3202369026720 1 0
28.289982 -33.595432 1.0219963 21 3202369024416 1 0
11.937316 -15.679427 -1.6087384 3 3202369029024 1 0
28.392372 -30.571661 1.2142389 44 3202369029024 1 0
29.50477 -38.765625 0.85035104 37 3202369031328 1 0
16.149529 -17.394178 -1.5211661 4 3202369031328 1 0
15.001068 -21.853916 -1.5437073 7 3202369033632 1 0
27.6365 -32.858177 2.500443 23 3202369033632 1 0
31.157598 -40.961956 2.0967505 40 3202369035936 1 0
19.941832 -23.71667 -1.4433955 9 3202369035936 1 0
18.288677 -24.05083 -1.5834767 9 3202369038240 1 0
31.560005 -37.545162 6.0222955 35 3202369038240 1 0
0 0 0 8 3202369040544 1 0
23.159765 -24.973816 -1.3876297 16 3202369040544 1 0
17.979301 -26.225363 -1.1103624 39 3202369042848 1 0
0 0 0 9 3202369042848 1 0
20.489326 -26.969246 6.175311 30 3202369045152 1 0
21.795929 -25.952372 -0.7886205 43 3202369045152 1 0
0 0 0 4 3202369065888 1 0
23.901007 -25.855963 -0.61460394 32 3202369065888 1 0
19.424084 -25.644459 -0.93624973 46 3202369068192 1 0
3.8454516 -4.5923176 -1.6767588 2 3202369068192 1 0
5.0623465 -6.685534 -1.6771951 3 3202369070496 1 0
28.287066 -33.79098 0 49 3202369070496 1 0
17.923609 -26.250416 -0.37004676 43 3202369072800 1 0
0 0 0 29 3202369075104 1 0
28.44236 -30.804707 0.24368192 35 3202369075104 1 0
0 0 0 100 3202369077408 1 0
7.797339 -9.322757 -1.3091543 2 3202369077408 1 0
6.752489 -8.068729 -1.6368899 4 3202369072800 1 0
10.0187645 -14.68696 -1.6596093 2 3202369079712 1 0
28.241796 -33.77681 1.0245087 35 3202369079712 1 0
29.290615 -42.951855 0.6052432 26 3202369082016 1 0
14.3386545 -17.153908 -1.5633821 4 3202369082016 1 0
11.88732 -15.727362 -1.6093893 3 3202369084320 1 0
28.388489 -30.782272 1.2186606 39 3202369084320 1 0
29.497059 -39.0375 0.85405093 55 3202369086624 1 0
16.080597 -17.441639 -1.5203986 4 3202369086624 1 0
14.9314375 -21.916046 -1.544405 7 3202369088928 1 0
27.62914 -33.083176 2.5102103 35 3202369088928 1 0
31.170979 -41.27778 2.1073346 14 3202369091232 1 0
19.884531 -23.816807 -1.4452567 14 3202369091232 1 0
18.26478 -24.194225 -1.5887103 9 3202369093536 1 0
31.550869 -37.801403 6.0456944 36 3202369093536 1 0
0 0 0 8 3202369095840 1 0
0 0 0 19 3202369095840 1 0
17.865158 -26.254913 -1.1089664 47 3202369098144 1 0
0 0 0 9 3202369098144 1 0
20.354778 -26.987194 6.163114 24 3202369100448 1 0
21.625813 -25.933088 -0.78573585 38 3202369100448 1 0
0 0 0 4 3202369121184 1 0
23.761925 -25.886202 -0.61334735 32 3202369121184 1 0
19.356264 -25.740725 -0.937297 46 3202369123488 1 0
3.824506 -4.5997615 -1.6746022 1 3202369123488 1 0
5.0367193 -6.699956 -1.6764106 2 3202369125792 1 0
21.549604 -25.925152 0 57 3202369125792 1 0
0 0 0 84 3202369128096 1 0
6.7269855 -8.095143 -1.6375048 4 3202369128096 1 0
7.100367 -9.450501 -1.5046122 42 3202369130400 1 0
28.435577 -31.01206 0.24454208 28 3202369130400 1 0
0 0 0 100 3202369132704 1 0
7.7422204 -9.322101 -1.3052988 3 3202369132704 1 0
9.977011 -14.734598 -1.6610963 2 3202369135008 1 0
28.232489 -34.003178 1.0284169 28 3202369135008 1 0
29.27498 -43.247772 0.6079905 26 3202369137312 1 0
14.282113 -17.206198 -1.5636611 4 3202369137312 1 0
28.37718 -30.98273 1.2227334 39 3202369139616 1 0
11.8308735 -15.764883 -1.6090639 3 3202369139616 1 0
29.483181 -39.29826 0.85754144 46 3202369141920 1 0
16.023457 -17.499561 -1.5206544 4 3202369141920 1 0
14.860917 -21.973568 -1.54487 7 3202369144224 1 0
27.625519 -33.309586 2.5202103 35 3202369144224 1 0
31.16188 -41.559723 2.11629 14 3202369146528 1 0
19.877144 -23.973688 -1.4506543 14 3202369146528 1 0
18.187124 -24.26264 -1.589129 14 3202369148832 1 0
31.551249 -38.064453 6.0705557 36 3202369148832 1 0
0 0 0 8 3202369151136 1 0
22.655449 -24.769972 -1.3676018 16 3202369151136 1 0
17.755943 -26.285492 -1.10771 42 3202369153440 1 0
0 0 0 9 3202369153440 1 0
20.232737 -27.014925 6.153787 30 3202369155744 1 0
21.497183 -25.95679 -0.784247 52 3202369155744 1 0
0 0 0 4 3202369176480 1 0
23.619364 -25.902798 -0.6118814 26 3202369176480 1 0
3.8141038 -4.6183863 -1.6767588 1 3202369178784 1 0
19.296926 -25.84015 -0.938577 46 3202369178784 1 0
28.277964 -34.2511 0 36 3202369181088 1 0
5.0167227 -6.719837 -1.6771951 3 3202369181088 1 0
6.7024426 -8.120601 -1.6381197 5 3202369183392 1 0
25.546114 -37.96651 -0.53274256 66 3202369183392 1 0
7.028375 -9.4201355 -1.4960259 40 3202369185696 1 0
29.6066 -39.693787 -0.28780597 99 3202369188000 1 0
7.703333 -9.3388 -1.3040136 18 3202369188000 1 0
9.929672 -14.771341 -1.6614681 2 3202369190304 1 0
28.224943 -34.22742 1.0323251 28 3202369190304 1 0
29.265285 -43.548603 0.6108309 27 3202369192608 1 0
28.46904 -31.257828 0.24572772 28 3202369185696 1 0
14.2215605 -17.25111 -1.5633821 4 3202369192608 1 0
11.794286 -15.827091 -1.6113421 3 3202369194912 1 0
28.377405 -31.193653 1.2272714 39 3202369194912 1 0
29.481535 -39.57413 0.861381 56 3202369197216 1 0
15.977618 -17.56841 -1.5219336 4 3202369197216 1 0
14.788592 -22.027119 -1.5451026 7 3202369199520 1 0
27.624184 -33.53863 2.5304427 36 3202369199520 1 0
30.987146 -41.620434 2.1140106 14 3202369201824 1 0
19.83117 -24.08424 -1.4532601 14 3202369201824 1 0
31.545155 -38.321808 6.094442 36 3202369204128 1 0
18.090134 -24.30517 -1.5878729 14 3202369204128 1 0
0 0 0 8 3202369206432 1 0
22.842255 -25.145891 -1.3840475 11 3202369206432 1 0
17.628149 -26.289583 -1.1053369 47 3202369208736 1 0
20.107212 -27.03986 6.143742 30 3202369211040 1 0
9.556022 -11.615768 4.03033 1 3202369208736 1 0
21.352266 -25.962324 -0.7821998 52 3202369211040 1 0
23.469746 -25.919865 -0.61034554 26 3202369231776 1 0
0 0 0 4 3202369231776 1 0
19.220898 -25.926624 -0.93927515 46 3202369234080 1 0
3.795517 -4.6286936 -1.6756804 2 3202369234080 1 0
4.995571 -6.7404594 -1.6779796 3 3202369236384 1 0
28.287561 -34.507366 0 14 3202369236384 1 0
25.408989 -38.048798 -0.5326494 22 3202369238688 1 0
6.6740556 -8.143948 -1.6381197 4 3202369238688 1 0
23.431007 -25.90736 0.20302176 15 3202369240992 1 0
6.983641 -9.428669 -1.4935006 44 3202369240992 1 0
29.644003 -40.034775 -0.28952628 112 3202369243296 1 0
9.88026 -14.809225 -1.66184 2 3202369245600 1 0
7.660608 -9.353326 -1.3023001 60 3202369243296 1 0
28.19903 -34.440216 1.035768 21 3202369245600 1 0
29.25291 -43.860126 0.61376446 27 3202369247904 1 0
14.171366 -17.312998 -1.5644982 4 3202369247904 1 0
11.760306 -15.89701 -1.6142712 3 3202369250208 1 0
28.364836 -31.399328 1.2314605 40 3202369250208 1 0
29.469254 -39.847225 0.8650809 47 3202369252512 1 0
15.918871 -17.627039 -1.5221895 4 3202369252512 1 0
14.716042 -22.085253 -1.5455678 7 3202369254816 1 0
27.61059 -33.761593 2.5399776 36 3202369254816 1 0
31.604223 -42.760063 2.1662786 33 3202369257120 1 0
19.787443 -24.20281 -1.456238 14 3202369257120 1 0
18.000435 -24.361744 -1.5874542 9 3202369259424 1 0
31.551893 -38.603836 6.121741 37 3202369259424 1 0
0 0 0 8 3202369261728 1 0
22.72757 -25.195795 -1.3824192 33 3202369261728 1 0
17.516342 -26.321005 -1.1040804 47 3202369264032 1 0
19.972971 -27.05606 6.131545 24 3202369266336 1 0
0 0 0 102 3202369264032 1 0
21.15022 -25.900414 -0.7781055 9 3202369266336 1 0
0 0 0 4 3202369287072 1 0
23.333666 -25.951073 -0.6091588 26 3202369287072 1 0
19.149239 -26.019321 -0.94020605 46 3202369289376 1 0
0 0 0 8 3202369289376 1 0
4.9696875 -6.7546964 -1.6771951 2 3202369291680 1 0
20.096874 -24.691021 0 81 3202369291680 1 0
25.33126 -38.22061 -0.53381354 11 3202369293984 1 0
6.6455874 -8.167194 -1.6381197 4 3202369293984 1 0
6.948336 -9.449792 -1.4929955 14 3202369296288 1 0
28.485321 -31.7177 0.2477735 14 3202369296288 1 0
29.624897 -40.302376 -0.2907119 124 3202369298592 1 0
7.600311 -9.346068 -1.2975879 63 3202369298592 1 0
9.832904 -14.850265 -1.6625835 2 3202369300896 1 0
28.229992 -34.724613 1.0413512 42 3202369300896 1 0
29.238718 -44.172092 0.616698 27 3202369303200 1 0
14.105813 -17.356167 -1.5639402 4 3202369303200 1 0
11.704743 -15.937964 -1.6142712 3 3202369305504 1 0
28.367191 -31.623154 1.2363477 40 3202369305504 1 0
29.469625 -40.140057 0.86919963 47 3202369307808 1 0
15.862575 -17.688442 -1.5227011 4 3202369307808 1 0
14.647671 -22.14981 -1.546498 7 3202369310112 1 0
27.603329 -33.994164 2.55021 36 3202369310112 1 0
31.658102 -43.147243 2.1802819 51 3202369312416 1 0
19.680176 -24.243814 -1.4545629 9 3202369312416 1 0
17.986164 -24.521057 -1.5937345 9 3202369314720 1 0
31.544538 -38.87096 6.146602 38 3202369314720 1 0
0 0 0 8 3202369317024 1 0
17.402327 -26.34863 -1.1026845 47 3202369319328 1 0
0 0 0 57 3202369319328 1 0
19.855146 -27.093874 6.1243706 30 3202369321632 1 0
0 0 0 24 3202369321632 1 0
0 0 0 4 3202369342368 1 0
22.679482 -25.319632 -1.3848617 16 3202369317024 1 0
28.476994 -31.89457 -0.74633473 14 3202369342368 1 0
19.081884 -26.11829 -0.94136965 57 3202369344672 1 0
9.463471 -11.706593 -4.214002 5 3202369344672 1 0
4.9483924 -6.7751703 -1.6779796 2 3202369346976 1 0
0 0 0 7 3202369346976 1 0
29.433207 -44.74818 -0.62354296 67 3202369349280 1 0
6.6195216 -8.193417 -1.6387346 4 3202369349280 1 0
0 0 0 22 3202369351584 1 0
28.459625 -31.912468 0.24851742 44 3202369351584 1 0
29.62786 -40.60264 -0.29213002 113 3202369353888 1 0
7.5476537 -9.347788 -1.2941607 67 3202369353888 1 0
9.778819 -14.881169 -1.6622118 2 3202369356192 1 0
29.527729 -36.58105 1.093926 15 3202369356192 1 0
29.2227 -44.48449 0.6196316 27 3202369358496 1 0
14.057672 -17.420826 -1.5653353 4 3202369358496 1 0
11.651387 -15.981946 -1.6145966 3 3202369360800 1 0
29.435333 -40.388123 0.8723411 28 3202369363104 1 0
28.363012 -31.841406 1.2410022 41 3202369360800 1 0
15.803389 -17.746687 -1.522957 4 3202369363104 1 0
27.59979 -34.23331 2.5609076 37 3202369365408 1 0
14.633803 -22.29762 -1.5532421 7 3202369365408 1 0
31.594358 -43.377018 2.1863067 52 3202369367712 1 0
19.64307 -24.371473 -1.4580992 14 3202369367712 1 0
17.907515 -24.593378 -1.5943626 9 3202369370016 1 0
31.540682 -39.144684 6.1724386 39 3202369370016 1 0
0 0 0 8 3202369372320 1 0
22.64674 -25.461355 -1.3882811 16 3202369372320 1 0
17.292715 -26.38247 -1.1015677 47 3202369374624 1 0
0 0 0 143 3202369374624 1 0
19.730354 -27.121649 6.115043 29 3202369376928 1 0
19.973354 -24.810791 -0.7411637 56 3202369376928 1 0
0 0 0 4 3202369397664 1 0
28.463655 -32.104504 -0.74891764 21 3202369397664 1 0
18.985905 -26.178267 -0.94113696 40 3202369399968 1 0
9.4755945 -11.805643 -4.237725 7 3202369399968 1 0
4.929317 -6.7987533 -1.6795485 2 3202369402272 1 0
28.920982 -36.04339 0 24 3202369402272 1 0
29.324924 -44.924335 -0.6245674 60 3202369404576 1 0
6.593354 -8.219557 -1.6393496 4 3202369404576 1 0
6.847272 -9.449873 -1.4854194 3 3202369406880 1 0
28.459433 -32.137386 0.24949384 22 3202369406880 1 0
0 0 0 16 3202369409184 1 0
7.5025396 -9.3585615 -1.2920188 53 3202369409184 1 0
9.7420435 -14.938565 -1.6648141 2 3202369411488 1 0
29.502392 -36.811836 1.097741 23 3202369411488 1 0
29.204857 -44.79731 0.62256515 27 3202369413792 1 0
13.996776 -17.469791 -1.5653353 4 3202369413792 1 0
11.597866 -16.02575 -1.614922 3 3202369416096 1 0
28.344408 -32.045036 1.2450749 41 3202369416096 1 0
29.437174 -40.688282 0.8765995 19 3202369418400 1 0
14.5558815 -22.348566 -1.5532421 7 3202369420704 1 0
27.594917 -34.472847 2.5716052 25 3202369420704 1 0
31.775282 -43.946945 2.2094283 37 3202369423008 1 0
15.746633 -17.807722 -1.5234686 4 3202369418400 1 0
19.585339 -24.474209 -1.4601467 14 3202369423008 1 0
31.525377 -39.406452 6.196325 27 3202369425312 1 0
17.880058 -24.736671 -1.5995961 10 3202369425312 1 0
0 0 0 8 3202369427616 1 0
22.621223 -25.612146 -1.392189 33 3202369427616 1 0
17.1809 -26.412512 -1.1003113 52 3202369429920 1 0
9.5304365 -11.920071 4.0893407 151 3202369429920 1 0
19.904104 -24.902227 -0.74181503 56 3202369432224 1 0
19.601006 -27.142502 6.104281 29 3202369432224 1 0
0 0 0 4 3202369452960 1 0
28.4677 -32.335747 -0.7519893 50 3202369452960 1 0
18.85236 -26.185972 -0.93904245 40 3202369455264 1 0
9.503944 -11.926005 -4.2689953 3 3202369455264 1 0
4.903264 -6.8127346 -1.678764 3 3202369457568 1 0
28.797483 -36.147247 0 24 3202369457568 1 0
29.420185 -45.415825 -0.6299689 38 3202369459872 1 0
6.56216 -8.239429 -1.6387346 5 3202369459872 1 0
6.802659 -9.45761 -1.4828941 3 3202369462176 1 0
28.455376 -32.359688 0.25044698 22 3202369462176 1 0
29.61456 -41.185204 -0.29482675 117 3202369464480 1 0
9.687675 -14.969136 -1.6644424 2 3202369466784 1 0
0 0 0 10 3202369464480 1 0
29.490742 -37.061665 1.1021146 31 3202369466784 1 0
29.183012 -45.10719 0.6254521 27 3202369469088 1 0
13.93571 -17.518541 -1.5653353 4 3202369469088 1 0
11.555812 -16.085562 -1.6168748 3 3202369471392 1 0
28.340557 -32.26695 1.2498457 41 3202369471392 1 0
29.411613 -40.953213 0.88008994 19 3202369473696 1 0
15.684377 -17.862581 -1.5234686 4 3202369473696 1 0
14.479949 -22.402594 -1.5534747 7 3202369476000 1 0
27.581253 -34.70339 2.5816052 25 3202369476000 1 0
31.850067 -44.375793 2.2253857 38 3202369478304 1 0
19.532103 -24.583094 -1.4625663 9 3202369478304 1 0
17.800589 -24.80867 -1.6002243 10 3202369480608 1 0
31.506159 -39.665478 6.2197237 27 3202369480608 1 0
0 0 0 8 3202369482912 1 0
22.565943 -25.730015 -1.3943058 27 3202369482912 1 0
17.069086 -26.442097 -1.0990549 47 3202369485216 1 0
9.570445 -12.056154 4.1245403 118 3202369485216 1 0
19.478628 -27.172377 6.0956717 29 3202369487520 1 0
19.83446 -24.99348 -0.7424664 58 3202369487520 1 0
0 0 0 4 3202369508256 1 0
28.449413 -32.543316 -0.7545024 44 3202369508256 1 0
18.716667 -26.189814 -0.93683153 40 3202369510560 1 0
3.711767 -4.6912084 -1.6746022 1 3202369510560 1 0
4.8817334 -6.833 -1.6795485 3 3202369512864 1 0
28.66865 -36.244415 0 24 3202369512864 1 0
29.421528 -45.76722 -0.6334146 31 3202369515168 1 0
6.540714 -8.271586 -1.6405793 5 3202369515168 1 0
6.7672987 -9.478069 -1.482389 8 3202369517472 1 0
28.44748 -32.579338 0.2513769 30 3202369517472 1 0
29.593777 -41.460876 -0.2960589 111 3202369519776 1 0
7.424693 -9.39511 -1.2898768 3 3202369519776 1 0
9.641821 -15.012915 -1.6655577 2 3202369522080 1 0
29.482662 -37.318134 1.1066741 31 3202369522080 1 0
29.16584 -45.42756 0.6284788 28 3202369524384 1 0
13.9486685 -17.661022 -1.573706 4 3202369524384 1 0
11.504221 -16.132294 -1.6175257 3 3202369526688 1 0
28.340757 -32.49525 1.2548493 36 3202369526688 1 0
29.414742 -41.26079 0.884488 29 3202369528992 1 0
15.619306 -17.914211 -1.5232128 4 3202369528992 1 0
14.399506 -22.44964 -1.5532421 7 3202369531296 1 0
27.573734 -34.943653 2.5923026 25 3202369531296 1 0
31.943115 -44.83499 2.2428083 40 3202369533600 1 0
19.315014 -24.48486 -1.4527017 9 3202369533600 1 0
17.711565 -24.867401 -1.6000148 10 3202369535904 1 0
31.490433 -39.931087 6.2440977 28 3202369535904 1 0
0 0 0 8 3202369538208 1 0
22.523235 -25.86288 -1.3972367 16 3202369538208 1 0
16.955118 -26.467855 -1.097659 47 3202369540512 1 0
9.58331 -12.159282 4.1483517 131 3202369540512 1 0
19.347157 -27.188904 6.084192 29 3202369542816 1 0
19.76442 -25.08455 -0.74311775 58 3202369542816 1 0
0 0 0 4 3202369563552 1 0
28.435268 -32.757195 -0.7571552 59 3202369563552 1 0
18.578867 -26.189766 -0.93450433 39 3202369565856 1 0
3.6882305 -4.6950493 -1.6713673 1 3202369565856 1 0
4.853314 -6.8436003 -1.6779796 3 3202369568160 1 0
28.524664 -36.322243 0 24 3202369568160 1 0
29.401413 -46.08882 -0.6364413 38 3202369570464 1 0
6.50936 -8.291259 -1.6399645 5 3202369570464 1 0
6.718112 -9.478972 -1.4788535 47 3202369572768 1 0
28.417435 -32.775146 0.25212082 38 3202369572768 1 0
29.578367 -41.746696 -0.29736075 111 3202369575072 1 0
7.374668 -9.399068 -1.2868781 3 3202369575072 1 0
9.578654 -15.029687 -1.6636988 2 3202369577376 1 0
29.483025 -37.58758 1.1116059 39 3202369577376 1 0
29.13604 -45.731483 0.6312727 28 3202369579680 1 0
13.886935 -17.709604 -1.573706 4 3202369579680 1 0
11.459356 -16.188623 -1.619153 5 3202369581984 1 0
28.33709 -32.720924 1.2597365 36 3202369581984 1 0
29.4207 -41.57542 0.88902557 40 3202369584288 1 0
15.57758 -17.992767 -1.5252594 4 3202369584288 1 0
14.325342 -22.506504 -1.5537072 7 3202369586592 1 0
27.564875 -35.184288 2.6030002 25 3202369586592 1 0
32.01488 -45.269268 2.2589283 41 3202369588896 1 0
19.212181 -24.530111 -1.4513988 9 3202369588896 1 0
17.622347 -24.925812 -1.5998055 15 3202369591200 1 0
31.524632 -40.26271 6.2787085 29 3202369591200 1 0
0 0 0 8 3202369593504 1 0
22.500792 -26.019943 -1.4014703 16 3202369593504 1 0
16.849758 -26.506638 -1.0968214 46 3202369595808 1 0
19.22943 -27.22413 6.077017 29 3202369598112 1 0
9.6098585 -12.280902 4.178375 118 3202369595808 1 0
19.696447 -25.178585 -0.74386215 54 3202369598112 1 0
0 0 0 4 3202369619296 1 0
28.388641 -32.935013 -0.75897026 29 3202369619296 1 0
18.4482 -26.198883 -0.9325262 39 3202369621600 1 0
3.676557 -4.7139697 -1.6735239 2 3202369621600 1 0
4.8361692 -6.870122 -1.6803329 3 3202369623904 1 0
28.41 -36.437366 0 24 3202369623904 1 0
29.392246 -46.431114 -0.6397474 31 3202369626208 1 0
6.4803786 -8.3139305 -1.6399645 5 3202369626208 1 0
6.671284 -9.482893 -1.475823 47 3202369628512 1 0
29.584332 -42.065628 -0.2988951 79 3202369630816 1 0
28.386366 -32.97114 0.25286475 23 3202369628512 1 0
7.329594 -9.409065 -1.2847362 3 3202369630816 1 0
9.555935 -15.110155 -1.6689037 3 3202369633120 1 0
29.476948 -37.851177 1.1163516 24 3202369633120 1 0
29.110884 -46.0459 0.63420624 28 3202369635424 1 0
13.832386 -17.767416 -1.5745431 4 3202369635424 1 0
11.400485 -16.225262 -1.6188276 29 3202369637728 1 0
28.32437 -32.93787 1.2642746 36 3202369637728 1 0
15.577133 -18.119682 -1.5313994 4 3202369640032 1 0
14.26162 -22.580006 -1.555335 7 3202369642336 1 0
32.12219 -41.29745 3.0469499 19 3202369642336 1 0
29.376543 -41.821865 0.89209723 20 3202369640032 1 0
32.017406 -45.609726 2.2703264 42 3202369644640 1 0
19.153418 -24.631723 -1.4534461 9 3202369644640 1 0
17.54441 -25.000254 -1.6006429 10 3202369646944 1 0
31.530094 -40.560577 6.307957 15 3202369646944 1 0
0 0 0 8 3202369649248 1 0
22.415035 -26.104393 -1.4017959 11 3202369649248 1 0
16.73367 -26.528101 -1.0952858 46 3202369651552 1 0
0 0 0 19 3202369651552 1 0
19.104914 -27.2492 6.06769 29 3202369653856 1 0
19.63542 -25.281927 -0.74488574 58 3202369653856 1 0
0 0 0 4 3202369674592 1 0
28.377527 -33.155445 -0.7617626 29 3202369674592 1 0
18.310825 -26.197577 -0.9301989 39 3202369676896 1 0
3.6624382 -4.7298203 -1.6746022 2 3202369676896 1 0
4.8121586 -6.8869615 -1.6803329 3 3202369679200 1 0
28.338951 -36.609062 0 16 3202369679200 1 0
29.338495 -46.706165 -0.64212215 55 3202369681504 1 0
6.458575 -8.345878 -1.6418092 4 3202369681504 1 0
6.631327 -9.496363 -1.4743078 46 3202369683808 1 0
28.377668 -33.194683 0.2538179 23 3202369683808 1 0
0 0 0 57 3202369686112 1 0
0 0 0 100 3202369686112 1 0
9.4861965 -15.116432 -1.6659294 22 3202369688416 1 0
29.84118 -38.59605 1.1352413 24 3202369688416 1 0
29.103014 -46.391182 0.6375588 28 3202369690720 1 0
13.765402 -17.809278 -1.5739851 4 3202369690720 1 0
11.357463 -16.284578 -1.6207803 31 3202369693024 1 0
28.323462 -33.170326 1.2693945 36 3202369693024 1 0
29.399645 -42.166924 0.8972631 41 3202369695328 1 0
15.524156 -18.18609 -1.5324227 4 3202369695328 1 0
14.189075 -22.639801 -1.5560328 10 3202369697632 1 0
32.177975 -41.66849 3.0660193 60 3202369697632 1 0
32.049934 -45.99666 2.2840042 43 3202369699936 1 0
19.077087 -24.711082 -1.4541907 14 3202369699936 1 0
17.447905 -25.048231 -1.5998055 15 3202369702240 1 0
0 0 0 1 3202369702240 1 0
0 0 0 8 3202369704544 1 0
22.347115 -26.209848 -1.4032614 16 3202369704544 1 0
16.269802 -25.993359 -1.0708562 65 3202369706848 1 0
0 0 0 9 3202369706848 1 0
19.564144 -25.37248 -0.7455371 54 3202369709152 1 0
0 0 0 4 3202369729888 1 0
28.385939 -33.40058 -0.7651135 22 3202369729888 1 0
18.982706 -27.276964 6.05908 29 3202369709152 1 0
18.175964 -26.198915 -0.92798805 39 3202369732192 1 0
3.6552963 -4.754791 -1.6789154 1 3202369732192 1 0
28.552233 -37.15178 0 24 3202369734496 1 0
4.7925596 -6.910163 -1.6819019 4 3202369734496 1 0
29.355116 -47.096813 -0.64608014 24 3202369736800 1 0
6.5890965 -9.506407 -1.4722875 44 3202369739104 1 0
6.431811 -8.371506 -1.6424241 5 3202369736800 1 0
28.370344 -33.421616 0.2547943 23 3202369739104 1 0
0 0 0 28 3202369741408 1 0
7.24193 -9.431617 -1.2808807 62 3202369741408 1 0
29.482258 -38.408146 1.1266804 16 3202369743712 1 0
29.061384 -46.68604 0.640213 28 3202369746016 1 0
9.4249525 -15.13593 -1.6644424 30 3202369743712 1 0
13.698294 -17.85089 -1.5734271 4 3202369746016 1 0
28.313517 -33.39403 1.2741654 36 3202369748320 1 0
11.314165 -16.343792 -1.622733 35 3202369748320 1 0
29.375175 -42.44688 0.90103287 41 3202369750624 1 0
15.447675 -18.224943 -1.5311435 4 3202369750624 1 0
0 0 0 85 3202369752928 1 0
32.14409 -41.926334 3.076717 60 3202369752928 1 0
0 0 0 22 3202369755232 1 0
17.380808 -25.138554 -1.6016896 10 3202369757536 1 0
0 0 0 1 3202369757536 1 0
0 0 0 8 3202369759840 1 0
32.025585 -46.30548 2.293774 44 3202369755232 1 0
22.270983 -26.305996 -1.4042383 16 3202369759840 1 0
16.164204 -26.02622 -1.0698789 52 3202369762144 1 0
9.915301 -12.948368 4.3699007 3 3202369762144 1 0
18.858301 -27.30097 6.049753 28 3202369764448 1 0
19.497335 -25.469196 -0.7463746 54 3202369764448 1 0
0 0 0 4 3202369785184 1 0
28.35687 -33.603382 -0.76748705 52 3202369785184 1 0
18.041317 -26.199635 -0.92577714 28 3202369787488 1 0
4.7706337 -6.930081 -1.6826863 2 3202369789792 1 0
3.6410136 -4.770583 -1.6799936 2 3202369787488 1 0
28.4248 -37.2544 0 16 3202369789792 1 0
29.360949 -47.474533 -0.6498518 40 3202369792096 1 0
6.404947 -8.397049 -1.643039 5 3202369792096 1 0
6.551375 -9.522811 -1.4712774 17 3202369794400 1 0
28.335999 -33.618313 0.25553823 23 3202369794400 1 0
18.022066 -26.204302 -0.18484211 25 3202369796704 1 0
7.192086 -9.434698 -1.277882 61 3202369796704 1 0
9.369967 -15.165349 -1.6640706 41 3202369799008 1 0
29.437693 -38.628506 1.1301234 24 3202369799008 1 0
29.057981 -47.045822 0.6437519 28 3202369801312 1 0
13.643153 -17.908117 -1.574264 4 3202369801312 1 0
28.30493 -33.621124 1.2790526 37 3202369803616 1 0
11.270592 -16.4029 -1.6246858 35 3202369803616 1 0
29.308348 -42.667835 0.903546 10 3202369805920 1 0
14.039063 -22.7519 -1.556963 35 3202369808224 1 0
15.396815 -18.294025 -1.5324227 4 3202369805920 1 0
32.20554 -42.31155 3.096717 61 3202369808224 1 0
32.04697 -46.683884 2.306963 45 3202369810528 1 0
18.916206 -24.85956 -1.4551213 9 3202369810528 1 0
17.28391 -25.185898 -1.6008523 10 3202369812832 1 0
0 0 0 1 3202369812832 1 0
0 0 0 8 3202369815136 1 0
21.659523 -25.765593 -1.3713468 16 3202369815136 1 0
16.052286 -26.048454 -1.068483 61 3202369817440 1 0
9.907455 -13.032112 4.386465 9 3202369817440 1 0
18.731735 -27.321194 6.039708 28 3202369819744 1 0
19.432508 -25.568937 -0.7473051 54 3202369819744 1 0
0 0 0 4 3202369840480 1 0
28.308754 -33.78493 -0.76937187 22 3202369840480 1 0
17.92268 -26.22284 -0.92438084 33 3202369842784 1 0
3.6196864 -4.7771235 -1.677837 2 3202369842784 1 0
4.7419887 -6.940214 -1.6811174 2 3202369845088 1 0
19.824324 -26.17129 0 18 3202369845088 1 0
29.351948 -47.832413 -0.65334415 40 3202369847392 1 0
6.3779826 -8.422505 -1.6436539 5 3202369847392 1 0
0 0 0 22 3202369849696 1 0
28.313463 -33.830513 0.25639838 24 3202369849696 1 0
29.533094 -43.264156 -0.3044513 29 3202369852000 1 0
7.1375093 -9.431205 -1.2740265 65 3202369852000 1 0
9.319055 -15.201359 -1.6644424 45 3202369854304 1 0
29.411247 -38.874535 1.1343107 24 3202369854304 1 0
29.0566 -47.412968 0.6473839 29 3202369856608 1 0
13.580559 -17.955633 -1.574264 4 3202369856608 1 0
11.226744 -16.461905 -1.6266385 37 3202369858912 1 0
28.302794 -33.857765 1.2842889 43 3202369858912 1 0
29.413809 -43.143288 0.9114345 21 3202369861216 1 0
15.335423 -18.350721 -1.5326785 4 3202369861216 1 0
13.963729 -22.807579 -1.5574281 66 3202369863520 1 0
32.07691 -42.449196 3.0985773 41 3202369863520 1 0
41.70911 -61.21592 3.017875 29 3202369865824 1 0
19.03885 -25.202814 -1.4713141 15 3202369865824 1 0
17.202637 -25.25598 -1.6014802 10 3202369868128 1 0
0 0 0 1 3202369868128 1 0
0 0 0 8 3202369870432 1 0
21.533598 -25.798086 -1.3690673 32 3202369870432 1 0
15.986285 -26.145254 -1.0701581 30 3202369872736 1 0
9.829319 -13.023441 4.371971 3 3202369872736 1 0
18.616327 -27.357132 6.0332513 28 3202369875040 1 0
19.364815 -25.665342 -0.7481426 54 3202369875040 1 0
0 0 0 4 3202369895776 1 0
28.344124 -34.06801 -0.77356046 22 3202369895776 1 0
17.806345 -26.248844 -0.9231008 44 3202369898080 1 0
3.6029892 -4.7897296 -1.677837 2 3202369898080 1 0
4.7199354 -6.959971 -1.6819019 3 3202369900384 1 0
0 0 0 68 3202369900384 1 0
16.20546 -26.616655 -0.36278272 37 3202369902688 1 0
6.3461685 -8.441559 -1.643039 5 3202369902688 1 0
6.4624724 -9.535469 -1.4662266 3 3202369904992 1 0
28.328135 -34.089108 0.25760725 16 3202369904992 1 0
25.724863 -37.969288 -0.2665576 23 3202369907296 1 0
7.104545 -9.456062 -1.2740265 27 3202369907296 1 0
9.268004 -15.237199 -1.6648141 40 3202369909600 1 0
29.390646 -39.13044 1.1387773 24 3202369909600 1 0
29.059242 -47.790924 0.65115565 29 3202369911904 1 0
13.520195 -18.006119 -1.5745431 4 3202369911904 1 0
11.173682 -16.507597 -1.6272894 37 3202369914208 1 0
28.289135 -34.082497 1.2890598 37 3202369914208 1 0
0 0 0 65 3202369916512 1 0
15.278921 -18.413357 -1.533446 4 3202369916512 1 0
32.086697 -42.771732 3.113926 62 3202369918816 1 0
41.380993 -61.19229 3.0095706 58 3202369921120 1 0
18.931581 -25.243546 -1.4698251 14 3202369921120 1 0
17.112135 -25.312565 -1.6012709 10 3202369923424 1 0
13.873665 -22.839117 -1.5562654 59 3202369918816 1 0
0 0 0 1 3202369923424 1 0
0 0 0 8 3202369925728 1 0
21.468918 -25.903868 -1.3706956 26 3202369925728 1 0
15.938466 -26.27267 -1.0730897 40 3202369928032 1 0
9.718928 -12.971096 4.3429837 3 3202369928032 1 0
18.489885 -27.376295 6.023206 28 3202369930336 1 0
19.294287 -25.758387 -0.748887 49 3202369930336 1 0
21.38592 -25.887913 -0.5861216 15 3202369951072 1 0
17.69228 -26.277674 -0.9219372 44 3202369953376 1 0
3.5839431 -4.7991905 -1.6767588 2 3202369953376 1 0
0 0 0 4 3202369951072 1 0
4.702182 -6.986166 -1.6842552 3 3202369955680 1 0
29.58613 -39.630253 0 106 3202369955680 1 0
29.344059 -48.577084 -0.66070133 25 3202369957984 1 0
6.3261194 -8.47633 -1.6454986 7 3202369957984 1 0
21.350838 -25.87609 0.19497807 29 3202369960288 1 0
6.4136453 -9.534923 -1.4626911 3 3202369960288 1 0
25.527441 -37.962593 -0.26588342 69 3202369962592 1 0
0 0 0 6 3202369962592 1 0
9.218876 -15.276277 -1.6655577 32 3202369964896 1 0
29.39491 -39.421936 1.1442673 24 3202369964896 1 0
29.061663 -48.1729 0.6549739 29 3202369967200 1 0
13.464415 -18.062801 -1.5753802 4 3202369967200 1 0
11.124885 -16.559736 -1.6285913 35 3202369969504 1 0
29.319265 -43.656353 0.9179268 43 3202369971808 1 0
28.284422 -34.31988 1.294296 38 3202369969504 1 0
15.227245 -18.481981 -1.5347251 4 3202369971808 1 0
13.781489 -22.866886 -1.55487 49 3202369974112 1 0
32.06361 -43.053215 3.1262515 63 3202369974112 1 0
41.064682 -61.183712 3.0020804 58 3202369976416 1 0
18.86244 -25.335114 -1.4713141 15 3202369976416 1 0
17.03035 -25.382095 -1.6018989 15 3202369978720 1 0
0 0 0 1 3202369978720 1 0
0 0 0 8 3202369981024 1 0
21.932 -26.651417 -1.4061923 16 3202369981024 1 0
15.898197 -26.413773 -1.0765797 31 3202369983328 1 0
9.664368 -12.992541 4.3388424 4 3202369983328 1 0
18.372301 -27.407982 6.0160317 28 3202369985632 1 0
19.235277 -25.867296 -0.7500967 54 3202369985632 1 0
0 0 0 4 3202370006368 1 0
28.311043 -34.515526 -0.77921504 15 3202370006368 1 0
17.583057 -26.31242 -0.9210063 44 3202370008672 1 0
3.5718272 -4.8178086 -1.6789154 2 3202370008672 1 0
4.677971 -7.002401 -1.6842552 2 3202370010976 1 0
29.579771 -39.909172 0 114 3202370010976 1 0
18.940317 -31.600012 -0.42890406 46 3202370013280 1 0
6.303923 -8.507612 -1.6473434 7 3202370013280 1 0
6.372066 -9.54368 -1.4606708 3 3202370015584 1 0
29.52128 -44.227657 -0.30905432 29 3202370017888 1 0
7.0082784 -9.46337 -1.2684574 2 3202370017888 1 0
28.312008 -34.553585 0.25962982 16 3202370015584 1 0
9.166832 -15.307564 -1.6655577 22 3202370020192 1 0
29.391445 -39.698517 1.1493852 24 3202370020192 1 0
18.925825 -31.613356 0.42895064 43 3202370022496 1 0
13.407873 -18.11474 -1.5759382 4 3202370022496 1 0
11.073368 -16.603815 -1.6292422 30 3202370024800 1 0
28.290012 -34.56364 1.2998815 38 3202370024800 1 0
29.321072 -43.977562 0.922604 33 3202370027104 1 0
15.175176 -18.545395 -1.5357485 4 3202370027104 1 0
13.698769 -22.902578 -1.5541723 42 3202370029408 1 0
32.09037 -43.3914 3.1429954 64 3202370029408 1 0
40.811916 -61.246975 2.9984982 29 3202370031712 1 0
18.732819 -25.336754 -1.4677777 14 3202370031712 1 0
16.948301 -25.441755 -1.6021082 15 3202370034016 1 0
0 0 0 1 3202370034016 1 0
0 0 0 8 3202370036320 1 0
20.141602 -24.641115 -1.2966083 14 3202370036320 1 0
15.825641 -26.48991 -1.0775568 27 3202370038624 1 0
18.254166 -27.425373 6.0067043 28 3202370040928 1 0
9.605538 -13.002485 4.3315954 4 3202370038624 1 0
19.176657 -25.965488 -0.75112027 54 3202370040928 1 0
0 0 0 4 3202370061664 1 0
20.119715 -24.686796 -0.5558941 45 3202370061664 1 0
17.479834 -26.337929 -0.91995907 44 3202370063968 1 0
3.5588527 -4.8321853 -1.6799936 2 3202370063968 1 0
4.6534743 -7.013997 -1.6834708 2 3202370066272 1 0
29.580566 -40.17713 0 114 3202370066272 1 0
18.818426 -31.626219 -0.42843843 62 3202370068576 1 0
6.274264 -8.524602 -1.6467284 5 3202370068576 1 0
20.087152 -24.67761 0.1849351 36 3202370070880 1 0
29.43039 -44.403404 -0.30961227 29 3202370073184 1 0
6.9798355 -9.4893055 -1.2688859 1 3202370073184 1 0
9.120759 -15.344327 -1.6663013 15 3202370075488 1 0
0 0 0 43 3202370070880 1 0
29.386929 -39.96524 1.154317 25 3202370075488 1 0
18.788887 -31.620516 0.4282056 73 3202370077792 1 0
13.343398 -18.152382 -1.5753802 4 3202370077792 1 0
0 0 0 102 3202370080096 1 0
29.615404 -36.428753 1.3663242 21 3202370080096 1 0
29.304356 -44.271954 0.92672276 33 3202370082400 1 0
15.1006 -18.580456 -1.5344692 4 3202370082400 1 0
13.619706 -22.94504 -1.5539397 21 3202370084704 1 0
32.07204 -43.67277 3.1555536 65 3202370084704 1 0
40.49653 -61.2213 2.9905198 29 3202370087008 1 0
18.559544 -25.280783 -1.4608911 14 3202370087008 1 0
0 0 0 1 3202370089312 1 0
16.861616 -25.499289 -1.6021082 15 3202370089312 1 0
0 0 0 8 3202370091616 1 0
20.049526 -24.700651 -1.2961198 14 3202370091616 1 0
15.754619 -26.578693 -1.0789528 27 3202370093920 1 0
9.546951 -13.016825 4.3253837 4 3202370093920 1 0
18.132893 -27.44913 5.9980946 34 3202370096224 1 0
19.103024 -26.054428 -0.7517716 58 3202370096224 1 0
0 0 0 4 3202370116960 1 0
0 0 0 7 3202370116960 1 0
17.352785 -26.354813 -0.91832995 44 3202370119264 1 0
3.5411885 -4.8451447 -1.6799936 1 3202370119264 1 0
4.62794 -7.0308714 -1.6834708 4 3202370121568 1 0
29.540476 -40.42976 0 108 3202370121568 1 0
18.681406 -31.656273 -0.4279262 62 3202370123872 1 0
6.248013 -8.553653 -1.6479583 6 3202370123872 1 0
6.293594 -9.567126 -1.4576404 43 3202370126176 1 0
0 0 0 3 3202370126176 1 0
29.472883 -44.81631 -0.31175104 29 3202370128480 1 0
6.933976 -9.498259 -1.2667439 1 3202370128480 1 0
9.0597315 -15.36657 -1.6651859 7 3202370130784 1 0
29.368692 -40.241325 1.1592488 25 3202370130784 1 0
13.288037 -18.212708 -1.5764964 4 3202370133088 1 0
18.64969 -31.642471 0.42760026 78 3202370133088 1 0
0 0 0 100 3202370135392 1 0
29.593918 -36.66741 1.3713278 28 3202370135392 1 0
29.303596 -44.612583 0.93167925 33 3202370137696 1 0
15.042357 -18.64303 -1.5352368 4 3202370137696 1 0
13.544939 -23.003159 -1.5546374 17 3202370140000 1 0
31.97693 -43.86606 3.1613674 21 3202370140000 1 0
40.12377 -61.12231 2.978796 29 3202370142304 1 0
16.805378 -25.608086 -1.6052485 15 3202370144608 1 0
22.765675 -31.248165 4.7470546 7 3202370144608 1 0
0 0 0 8 3202370146912 1 0
21.65894 -26.873795 -1.4061923 16 3202370146912 1 0
15.579435 -26.491789 -1.0732293 49 3202370149216 1 0
18.482582 -25.361828 -1.4618218 14 3202370142304 1 0
9.495012 -13.040423 4.322278 4 3202370149216 1 0
18.012276 -27.47198 5.9894853 28 3202370151520 1 0
19.02722 -26.13952 -0.75232995 67 3202370151520 1 0
0 0 0 4 3202370172256 1 0
28.651566 -35.660843 -0.7984825 7 3202370172256 1 0
17.241037 -26.375523 -0.91705 44 3202370174560 1 0
3.5295918 -4.8631215 -1.6821502 1 3202370174560 1 0
4.6066427 -7.04953 -1.6842552 3 3202370176864 1 0
29.534851 -40.705994 0 97 3202370176864 1 0
18.5534 -31.680489 -0.427414 50 3202370179168 1 0
6.214785 -8.568061 -1.6467284 6 3202370179168 1 0
6.2485366 -9.568192 -1.45461 40 3202370181472 1 0
19.95516 -24.866577 0.18530706 9 3202370181472 1 0
29.473347 -45.14597 -0.31335515 29 3202370183776 1 0
9.028164 -15.431297 -1.6689037 5 3202370186080 1 0
29.357693 -40.511387 1.1641806 17 3202370186080 1 0
18.518812 -31.663656 0.4270415 71 3202370188384 1 0
0 0 0 72 3202370183776 1 0
13.231321 -18.26381 -1.5770544 4 3202370188384 1 0
10.935449 -16.766415 -1.634124 26 3202370190688 1 0
29.590052 -36.916813 1.3769132 28 3202370190688 1 0
29.28363 -44.91243 0.93586785 34 3202370192992 1 0
14.999197 -18.71871 -1.5372834 4 3202370192992 1 0
13.519284 -23.138573 -1.5606838 37 3202370195296 1 0
36.328136 -50.191498 3.6083403 28 3202370195296 1 0
39.955235 -61.318497 2.981727 29 3202370197600 1 0
18.461927 -25.515089 -1.4670333 43 3202370197600 1 0
16.691963 -25.624968 -1.6027364 15 3202370199904 1 0
22.659195 -31.325464 4.7470546 7 3202370199904 1 0
0 0 0 8 3202370202208 1 0
21.579643 -26.963112 -1.4070065 16 3202370202208 1 0
15.446489 -26.472376 -1.0702977 39 3202370204512 1 0
9.497921 -13.1385565 4.344019 4 3202370204512 1 0
17.892317 -27.493935 5.9808755 33 3202370206816 1 0
18.946943 -26.217503 -0.7527022 54 3202370206816 1 0
0 0 0 4 3202370227552 1 0
28.918476 -36.251495 -0.80944264 24 3202370227552 1 0
17.127104 -26.402002 -0.9158864 44 3202370229856 1 0
3.5058398 -4.866037 -1.6789154 1 3202370229856 1 0
4.5841413 -7.068858 -1.6850398 3 3202370232160 1 0
29.584278 -41.074993 0 110 3202370232160 1 0
18.416582 -31.700098 -0.42680869 58 3202370234464 1 0
6.1848392 -8.589703 -1.6467284 6 3202370234464 1 0
6.2064676 -9.576626 -1.4525896 39 3202370236768 1 0
29.624138 -37.180447 0.27629837 19 3202370236768 1 0
29.483047 -45.507065 -0.3151452 30 3202370239072 1 0
6.8595247 -9.532574 -1.2650304 33 3202370239072 1 0
8.986239 -15.483385 -1.6711344 3 3202370241376 1 0
29.372562 -40.831116 1.1704152 25 3202370241376 1 0
18.386093 -31.69005 0.4265293 71 3202370243680 1 0
13.160499 -18.300165 -1.5762173 4 3202370243680 1 0
10.872524 -16.79779 -1.6334732 37 3202370245984 1 0
29.580515 -37.170048 1.3824985 29 3202370245984 1 0
29.254866 -45.212486 0.9399866 34 3202370248288 1 0
14.938736 -18.7772 -1.5377951 4 3202370248288 1 0
13.462462 -23.227081 -1.5634745 59 3202370250592 1 0
36.280865 -50.496365 3.6211307 28 3202370250592 1 0
38.1198 -58.950558 2.8600936 29 3202370252896 1 0
18.382074 -25.59236 -1.4677777 14 3202370252896 1 0
0 0 0 1 3202370255200 1 0
0 0 0 8 3202370257504 1 0
21.492853 -27.047663 -1.4074949 16 3202370257504 1 0
16.585066 -25.65624 -1.6010616 15 3202370255200 1 0
9.560126 -13.322307 4.393712 3 3202370259808 1 0
17.777021 -27.526472 5.974418 33 3202370262112 1 0
18.811024 -26.221745 -0.7509342 45 3202370262112 1 0
0 0 0 4 3202370282296 1 0
15.4481125 -26.688742 -1.0768589 40 3202370259808 1 0
0 0 0 50 3202370282296 1 0
17.013103 -26.437576 -0.9149555 44 3202370284600 1 0
3.4857767 -4.8756948 -1.677837 1 3202370284600 1 0
29.529491 -41.316143 0 114 3202370286904 1 0
4.558305 -7.085546 -1.6850398 4 3202370286904 1 0
18.284992 -31.73926 -0.42643616 58 3202370289208 1 0
6.167313 -9.592455 -1.4515795 38 3202370291512 1 0
6.162694 -8.625043 -1.649188 6 3202370289208 1 0
29.67732 -37.52636 0.2780652 29 3202370291512 1 0
29.458292 -45.832466 -0.3166563 30 3202370293816 1 0
6.7994647 -9.521802 -1.260318 38 3202370293816 1 0
8.949973 -15.550345 -1.6748521 2 3202370296120 1 0
29.32673 -41.08043 1.1745094 17 3202370296120 1 0
13.0989065 -18.354107 -1.5767753 4 3202370298424 1 0
18.25149 -31.721626 0.42606366 71 3202370298424 1 0
10.814017 -16.840254 -1.6337986 37 3202370300728 1 0
29.580086 -37.445927 1.3887821 36 3202370300728 1 0
29.215075 -45.509342 0.94396573 34 3202370303032 1 0
14.866098 -18.824589 -1.5372834 4 3202370303032 1 0
36.208187 -50.77919 3.632061 28 3202370305336 1 0
0 0 0 24 3202370305336 1 0
36.23347 -56.476463 2.7337382 29 3202370307640 1 0
16.46944 -25.67843 -1.5987588 15 3202370309944 1 0
0 0 0 1 3202370309944 1 0
18.19743 -25.527954 -1.4603328 39 3202370307640 1 0
0 0 0 8 3202370312248 1 0
21.393663 -27.121096 -1.4073321 11 3202370312248 1 0
15.231506 -26.532139 -1.0683434 39 3202370314552 1 0
9.523801 -13.372024 4.3988886 4 3202370314552 1 0
