# .PCD v.7 - Point Cloud Data file format
VERSION .7
FIELDS x y z rgb timestamp_ns device_id active
SIZE 4 4 4 4 8 1 1
TYPE F F F F F U U
COUNT 1 1 1 1 1 1 1
WIDTH 978
HEIGHT 1
VIEWPOINT 0 0 0 1 0 0 0
POINTS 978               
DATA ascii
-16.643723 13.962441 -2.765274 6 3206115545400 1 0
-44.364185 30.369211 0.31247172 36 3206115545400 1 0
-20.672573 15.692285 -2.7956614 15 3206115547704 1 0
-18.956268 17.559843 -2.4120846 2 3206115550008 1 0
-39.6512 30.10781 1.1585044 25 3206115550008 1 0
-31.923231 29.580215 0.5066665 12 3206115552312 1 0
-28.314898 23.760424 -0.21483158 20 3206115547704 1 0
-24.47377 18.58895 -2.1490574 4 3206115552312 1 0
-21.607897 18.148323 -2.303591 67 3206115554616 1 0
-28.517853 19.546083 1.0061834 4 3206115554616 1 0
-28.60345 24.030935 0.65209174 44 3206115556920 1 0
-31.030102 21.274607 -2.4111993 13 3206115556920 1 0
-21.11896 19.58606 -1.677427 34 3206115559224 1 0
-28.406681 21.595726 2.0781212 14 3206115559224 1 0
-27.867443 21.192175 -1.6308228 5 3206115561528 1 0
-35.426926 29.781202 1.8855612 30 3206115561528 1 0
-24.063913 20.235 -1.6477453 5 3206115563832 1 0
-28.41342 21.613894 4.3833966 13 3206115563832 1 0
-26.744713 22.495888 2.852964 7 3206115566136 1 0
-46.59492 31.985899 -2.3025665 11 3206115566136 1 0
-23.761131 22.06218 -1.1322793 5 3206115568440 1 0
0 0 0 9 3206115568440 1 0
0 0 0 29 3206115570744 1 0
-27.92231 21.25955 -0.8166293 5 3206115570744 1 0
-3.139056 2.6489537 -1.915306 5 3206115591480 1 0
-47.164764 32.488216 -0.99967384 10 3206115591480 1 0
-24.625854 20.787142 -0.93787885 11 3206115593784 1 0
-8.562099 7.22956 -2.2412283 3 3206115596088 1 0
-5.788941 4.420912 -2.039068 4 3206115593784 1 0
-28.586342 26.643208 -0.45493352 12 3206115598392 1 0
-37.171104 28.395477 0 8 3206115596088 1 0
-12.235446 9.34963 -2.3956885 3 3206115598392 1 0
-16.594883 14.020453 -2.765274 6 3206115600696 1 0
-44.099857 30.41488 0.31135583 36 3206115600696 1 0
-20.617672 15.76435 -2.7956614 18 3206115603000 1 0
-28.338713 23.949482 -0.21564524 46 3206115603000 1 0
-18.856997 17.590588 -2.4072514 2 3206115605304 1 0
-39.313988 30.068687 1.1517116 16 3206115605304 1 0
-31.688187 29.568674 0.5045711 19 3206115607608 1 0
-24.564022 18.79307 -2.1627297 4 3206115607608 1 0
-21.498758 18.185017 -2.2987092 71 3206115609912 1 0
-28.47248 19.661413 1.006998 4 3206115609912 1 0
-28.540766 24.148718 0.6525804 19 3206115612216 1 0
-30.995064 21.410019 -2.4142692 4 3206115612216 1 0
-21.032951 19.643305 -1.6760317 11 3206115614520 1 0
-26.73005 20.468718 1.9606804 19 3206115614520 1 0
-35.20684 29.806551 1.8793737 20 3206115616824 1 0
-26.613306 20.385462 -1.5615845 10 3206115616824 1 0
-24.069342 20.383413 -1.6529789 5 3206115619128 1 0
-28.369314 21.737091 4.3882713 13 3206115619128 1 0
-26.687319 22.607147 2.855242 7 3206115621432 1 0
-46.617756 32.24156 -2.3092427 11 3206115621432 1 0
-21.520267 20.121878 -1.0288372 12 3206115623736 1 0
0 0 0 9 3206115623736 1 0
0 0 0 29 3206115626040 1 0
-26.619905 20.415102 -0.78061795 14 3206115626040 1 0
-3.12979 2.659895 -1.915306 4 3206115646776 1 0
-46.771786 32.458836 -0.99374 10 3206115646776 1 0
-24.485973 20.81618 -0.9353188 5 3206115649080 1 0
-5.7764945 4.443483 -2.0401464 4 3206115649080 1 0
-8.54567 7.2671504 -2.2435818 3 3206115651384 1 0
-36.811394 28.32557 0 16 3206115651384 1 0
-28.410925 26.666807 -0.45362973 8 3206115653688 1 0
-12.211926 9.399782 -2.3975334 3 3206115653688 1 0
-16.54241 14.076205 -2.764769 6 3206115655992 1 0
-43.756027 30.40557 0.309682 24 3206115655992 1 0
-28.159643 23.968912 -0.21492457 25 3206115658296 1 0
-20.55564 15.832117 -2.7948046 18 3206115658296 1 0
-38.890694 29.963385 1.1424063 16 3206115660600 1 0
0 0 0 50 3206115660600 1 0
-31.45211 29.557457 0.50247574 18 3206115662904 1 0
-24.472027 18.86046 -2.1604974 4 3206115662904 1 0
-21.44926 18.274126 -2.3003364 97 3206115665208 1 0
-28.43863 19.787455 1.0082779 4 3206115665208 1 0
-28.122921 23.967297 0.64497113 31 3206115667512 1 0
-30.175003 21.002455 -2.3561957 4 3206115667512 1 0
-21.131525 19.876816 -1.68952 56 3206115669816 1 0
-28.294743 21.827278 2.0811443 15 3206115669816 1 0
-34.954216 29.807592 1.871558 19 3206115672120 1 0
-26.483406 20.436419 -1.5582342 10 3206115672120 1 0
-23.996256 20.4694 -1.6529789 5 3206115674424 1 0
-28.401358 21.923363 4.405333 13 3206115674424 1 0
-26.648554 22.738909 2.8597984 7 3206115676728 1 0
-45.295216 31.56754 -2.2493215 11 3206115676728 1 0
-21.40419 20.157948 -1.0267432 28 3206115679032 1 0
0 0 0 9 3206115679032 1 0
0 0 0 29 3206115681336 1 0
-26.53675 20.50346 -0.78033876 9 3206115681336 1 0
-3.1200202 2.6713483 -1.915306 4 3206115702072 1 0
-47.930656 33.524017 -1.0209658 10 3206115702072 1 0
-24.31583 20.824629 -0.9317116 5 3206115704376 1 0
-5.760267 4.464499 -2.0401464 4 3206115704376 1 0
-8.519295 7.2980514 -2.2435818 3 3206115706680 1 0
-36.55367 28.338608 0 24 3206115706680 1 0
-28.082232 26.549084 -0.4499046 28 3206115708984 1 0
-12.181134 9.446102 -2.3981483 2 3206115708984 1 0
-16.488928 14.13272 -2.7642639 6 3206115711288 1 0
-28.004385 24.00902 -0.21438988 45 3206115713592 1 0
-43.378284 30.3738 0.3077757 23 3206115711288 1 0
-20.474073 15.885612 -2.7913775 21 3206115713592 1 0
-18.729294 17.720703 -2.4068797 38 3206115715896 1 0
-38.771915 30.090841 1.142034 24 3206115715896 1 0
-31.197035 29.524784 0.50005436 6 3206115718200 1 0
-24.411932 18.951195 -2.1610556 8 3206115718200 1 0
-21.391392 18.354078 -2.3009872 102 3206115720504 1 0
-28.457785 19.948568 1.0114197 4 3206115720504 1 0
-27.94553 23.983961 0.642807 50 3206115722808 1 0
-21.086077 19.971506 -1.6913804 72 3206115725112 1 0
-28.27925 21.97123 2.085563 22 3206115725112 1 0
-30.095432 21.102417 -2.355684 4 3206115722808 1 0
-34.68818 29.786541 1.8627652 29 3206115727416 1 0
-25.441526 19.771835 -1.5009079 5 3206115727416 1 0
-24.0416 20.649855 -1.6609339 5 3206115729720 1 0
-26.668276 22.91203 2.8702133 7 3206115732024 1 0
-28.35479 22.041826 4.4097204 13 3206115729720 1 0
-47.154194 33.10058 -2.3471818 11 3206115732024 1 0
-21.371155 20.262753 -1.0284184 33 3206115734328 1 0
0 0 0 9 3206115734328 1 0
0 0 0 29 3206115736632 1 0
-27.56022 21.44153 -0.812535 5 3206115736632 1 0
-3.1116126 2.6811368 -1.915306 4 3206115757368 1 0
-24.21667 20.872555 -0.93043166 5 3206115759672 1 0
-42.668163 30.04335 -0.910876 9 3206115757368 1 0
-5.7461476 4.482657 -2.0401464 4 3206115759672 1 0
-8.507996 7.3352714 -2.2467196 3 3206115761976 1 0
-36.27127 28.304256 0 23 3206115761976 1 0
-27.696163 26.351665 -0.4450619 24 3206115764280 1 0
-12.166563 9.497014 -2.4012227 3 3206115764280 1 0
-16.434608 14.177633 -2.7627487 6 3206115766584 1 0
-43.04549 30.346504 0.30610186 23 3206115766584 1 0
-28.005804 24.166853 -0.21499431 51 3206115768888 1 0
-20.372757 15.912171 -2.7845232 20 3206115768888 1 0
0 0 0 28 3206115771192 1 0
-38.331074 29.947517 1.1318914 24 3206115771192 1 0
-24.362913 19.040102 -2.1621716 8 3206115773496 1 0
0 0 0 14 3206115775800 1 0
-29.667545 28.26025 0.47700503 5 3206115773496 1 0
-28.431839 20.068846 1.0128161 4 3206115775800 1 0
-28.096897 24.273994 0.6481126 31 3206115778104 1 0
-29.015339 20.487036 -2.2763767 13 3206115778104 1 0
-21.057888 20.07653 -1.6944036 68 3206115780408 1 0
-28.26349 22.10835 2.0897489 22 3206115780408 1 0
-34.435444 29.767605 1.8544608 29 3206115782712 1 0
-25.190447 19.710451 -1.4899266 5 3206115782712 1 0
-23.99414 20.747755 -1.6623993 5 3206115785016 1 0
-28.33469 22.177332 4.4180074 13 3206115785016 1 0
-26.63403 23.03724 2.8747694 7 3206115787320 1 0
-42.54655 30.078209 -2.1228032 10 3206115787320 1 0
-21.346626 20.375532 -1.0305123 16 3206115789624 1 0
0 0 0 9 3206115789624 1 0
0 0 0 29 3206115791928 1 0
-27.488028 21.534004 -0.812535 5 3206115791928 1 0
-3.0967584 2.68723 -1.911925 4 3206115812664 1 0
-42.38362 30.06484 -0.9070365 9 3206115812664 1 0
-24.237265 21.038208 -0.9340389 5 3206115814968 1 0
-5.7304654 4.5026875 -2.0401464 4 3206115814968 1 0
-8.479377 7.3623533 -2.2459352 3 3206115817272 1 0
-35.98356 28.282387 0 23 3206115817272 1 0
-27.586681 26.43158 -0.4447825 40 3206115819576 1 0
-12.145766 9.549197 -2.4036825 3 3206115819576 1 0
-16.402992 14.250528 -2.7657793 6 3206115821880 1 0
-42.7045 30.329815 0.30442804 23 3206115821880 1 0
-27.788431 24.14902 -0.21397142 40 3206115824184 1 0
-20.282707 15.95614 -2.779811 11 3206115824184 1 0
0 0 0 28 3206115826488 1 0
-38.11003 29.989635 1.1284484 24 3206115826488 1 0
-27.859943 26.724504 0.44943893 10 3206115828792 1 0
-24.324522 19.14724 -2.1646829 4 3206115828792 1 0
0 0 0 9 3206115831096 1 0
-28.377905 20.179554 1.0133978 4 3206115831096 1 0
-27.960701 24.327295 0.6469258 31 3206115833400 1 0
0 0 0 12 3206115835704 1 0
0 0 0 27 3206115833400 1 0
-28.23947 22.248886 2.0937023 15 3206115835704 1 0
-34.17759 29.75379 1.8461566 19 3206115838008 1 0
-24.952026 19.664707 -1.4798758 5 3206115838008 1 0
-23.900484 20.81302 -1.6609339 5 3206115840312 1 0
-28.341286 22.342468 4.4311695 13 3206115840312 1 0
-26.535416 23.114357 2.8728168 7 3206115842616 1 0
-42.24597 30.08743 -2.1130335 10 3206115842616 1 0
-27.463158 26.39763 -1.3302292 7 3206115844920 1 0
0 0 0 9 3206115844920 1 0
0 0 0 29 3206115847224 1 0
-27.547684 21.73634 -0.81653625 5 3206115847224 1 0
-3.0955486 2.70518 -1.9169965 4 3206115867960 1 0
-42.11247 30.094013 -0.9034762 27 3206115867960 1 0
-5.7237744 4.5298343 -2.0433812 4 3206115870264 1 0
-24.181742 21.138472 -0.934737 5 3206115870264 1 0
-35.70899 28.268785 0 23 3206115872568 1 0
-27.517277 26.549932 -0.44515502 40 3206115874872 1 0
-8.465437 7.4022346 -2.249073 3 3206115872568 1 0
-12.127852 9.603805 -2.4067569 2 3206115874872 1 0
-16.365093 14.31815 -2.7677994 6 3206115877176 1 0
-42.39017 30.329735 0.3029402 23 3206115877176 1 0
-27.526377 24.09045 -0.2125998 25 3206115879480 1 0
-20.223768 16.024372 -2.7793827 11 3206115879480 1 0
0 0 0 28 3206115881784 1 0
-37.854687 30.003254 1.1239818 16 3206115881784 1 0
-27.775118 26.82993 0.44957864 15 3206115884088 1 0
-24.576468 19.48489 -2.1931436 4 3206115884088 1 0
-21.364285 18.713997 -2.318562 7 3206115886392 1 0
-28.424305 20.362312 1.0175868 4 3206115886392 1 0
-27.88163 24.43002 0.6470654 25 3206115888696 1 0
0 0 0 4 3206115888696 1 0
-28.224195 22.396969 2.0983536 7 3206115891000 1 0
-33.917248 29.735903 1.8376895 29 3206115893304 1 0
-24.711105 19.615057 -1.4696391 4 3206115893304 1 0
-22.671442 19.88232 -1.5803366 4 3206115895608 1 0
-19.674126 19.021215 -1.5937068 3 3206115891000 1 0
-28.300434 22.470886 4.437019 13 3206115895608 1 0
-25.831192 22.659994 2.8051217 6 3206115897912 1 0
-29.359173 21.064346 -1.472138 6 3206115897912 1 0
-27.416803 26.537819 -1.3324628 7 3206115900216 1 0
0 0 0 9 3206115900216 1 0
0 0 0 29 3206115902520 1 0
-3.086087 2.715969 -1.9169965 4 3206115923256 1 0
-26.714018 21.230265 -0.7940175 9 3206115902520 1 0
-42.130505 30.329622 -0.90612894 27 3206115923256 1 0
-24.122814 21.235964 -0.9353188 5 3206115925560 1 0
-5.7049155 4.5473857 -2.0423028 4 3206115925560 1 0
-8.451322 7.442108 -2.2522109 3 3206115927864 1 0
-35.43495 28.253613 0 22 3206115927864 1 0
-12.106615 9.655938 -2.4092166 3 3206115930168 1 0
-27.501886 26.721079 -0.44641227 41 3206115930168 1 0
-16.326923 14.38568 -2.7698197 6 3206115932472 1 0
-27.79621 24.49847 -0.21534303 35 3206115934776 1 0
-41.966045 30.248314 0.30066192 11 3206115932472 1 0
-20.14906 16.079985 -2.7768123 11 3206115934776 1 0
0 0 0 28 3206115937080 1 0
-37.543457 29.970549 1.1178404 16 3206115937080 1 0
-27.621088 26.86815 0.44860077 15 3206115939384 1 0
-24.305628 19.408716 -2.1750069 4 3206115939384 1 0
-21.31079 18.799007 -2.3198638 11 3206115941688 1 0
-28.362782 20.468428 1.017936 4 3206115941688 1 0
-27.93113 24.646273 0.65020686 19 3206115943992 1 0
-25.821547 18.640219 -2.041013 7 3206115943992 1 0
-19.433079 18.919853 -1.579521 3 3206115946296 1 0
-28.20823 22.545216 2.1030047 7 3206115946296 1 0
-33.675426 29.732433 1.8301994 28 3206115948600 1 0
-24.489563 19.578936 -1.460519 4 3206115948600 1 0
-22.470163 19.844992 -1.5711254 4 3206115950904 1 0
-25.757912 22.755304 2.8057725 7 3206115953208 1 0
-28.25593 22.596813 4.4423814 13 3206115950904 1 0
-29.016613 20.972383 -1.4586233 6 3206115953208 1 0
-20.27043 19.758074 -0.9884933 3 3206115955512 1 0
0 0 0 9 3206115955512 1 0
-26.621017 21.308392 -0.7934592 9 3206115957816 1 0
0 0 0 29 3206115957816 1 0
-3.0793006 2.7291296 -1.9186869 4 3206115978552 1 0
-41.96286 30.431889 -0.90480256 9 3206115978552 1 0
-24.04854 21.320038 -0.9353188 5 3206115980856 1 0
-5.6950145 4.5720944 -2.0444596 4 3206115980856 1 0
-26.481812 21.26657 0 33 3206115983160 1 0
-8.425292 7.4715633 -2.2522109 3 3206115983160 1 0
-20.223986 19.78751 -0.3293961 31 3206115985464 1 0
-12.08208 9.7055645 -2.4110613 3 3206115985464 1 0
-16.291449 14.455752 -2.772345 6 3206115987768 1 0
-41.546246 30.166653 0.2984069 11 3206115987768 1 0
-27.79728 24.67235 -0.2160172 25 3206115990072 1 0
-20.086607 16.145237 -2.7759554 11 3206115990072 1 0
-26.493437 21.30127 0.7910398 14 3206115992376 1 0
-18.424742 18.04284 -2.4072514 4 3206115992376 1 0
-20.215326 19.80207 0.32944265 10 3206115994680 1 0
-24.163105 19.433422 -2.1683102 4 3206115994680 1 0
-20.005148 17.77181 -2.1844733 3 3206115996984 1 0
-41.37275 30.077454 1.4886208 16 3206115996984 1 0
-27.755241 24.663921 0.6481126 25 3206115999288 1 0
-25.468992 18.521292 -2.018244 3 3206115999288 1 0
-19.25571 18.878544 -1.5704513 3 3206116001592 1 0
0 0 0 9 3206116001592 1 0
-33.31457 29.621414 1.8161961 28 3206116003896 1 0
-24.40551 19.651772 -1.4595883 4 3206116003896 1 0
-22.2157 19.758717 -1.5581461 4 3206116006200 1 0
-25.717047 22.879526 2.8100035 7 3206116008504 1 0
-28.901226 21.04296 -1.4565065 6 3206116008504 1 0
-28.263454 22.76504 4.456031 6 3206116006200 1 0
-20.207045 19.834312 -0.9887725 11 3206116010808 1 0
0 0 0 9 3206116010808 1 0
0 0 0 29 3206116013112 1 0
0 0 0 19 3206116013112 1 0
-3.067051 2.7374475 -1.9169965 4 3206116034296 1 0
-28.531836 20.843935 -0.61676806 5 3206116034296 1 0
-24.096258 21.51303 -0.9400897 5 3206116036600 1 0
-5.682016 4.594368 -2.045538 4 3206116036600 1 0
-8.410862 7.5113783 -2.255349 3 3206116038904 1 0
-26.426077 21.373972 0 23 3206116038904 1 0
-27.454277 27.049976 -0.4486939 16 3206116041208 1 0
-12.060418 9.757624 -2.413521 2 3206116041208 1 0
-16.229053 14.501956 -2.770325 6 3206116043512 1 0
-28.51388 20.856272 0.2053233 5 3206116043512 1 0
-27.758703 24.81188 -0.21638916 35 3206116045816 1 0
-19.999216 16.190231 -2.7716715 11 3206116045816 1 0
-18.404184 18.14899 -2.412828 7 3206116048120 1 0
-26.422028 21.396135 0.79113287 14 3206116048120 1 0
-27.404366 27.032238 0.44813514 10 3206116050424 1 0
-22.817656 18.482868 -2.0533516 3 3206116050424 1 0
-19.74689 17.666096 -2.1629932 3 3206116052728 1 0
-28.428871 20.81949 1.0254995 4 3206116052728 1 0
-25.3108 18.541672 -2.0108252 3 3206116055032 1 0
-28.068338 25.118036 0.65746707 19 3206116055032 1 0
-19.067505 18.825006 -1.5604513 3 3206116057336 1 0
-26.434078 21.43137 1.981843 6 3206116057336 1 0
-33.065075 29.606884 1.8082174 28 3206116059640 1 0
-24.346073 19.744394 -1.4601467 4 3206116059640 1 0
-22.039474 19.7402 -1.5506097 4 3206116061944 1 0
-25.749859 23.070248 2.8223708 7 3206116064248 1 0
-28.23315 22.903578 4.4638305 13 3206116061944 1 0
-28.415083 20.841156 -1.4356644 5 3206116064248 1 0
-26.284472 25.980404 -1.2905834 19 3206116066552 1 0
0 0 0 9 3206116066552 1 0
0 0 0 29 3206116068856 1 0
-26.356745 21.400455 -0.79001623 29 3206116068856 1 0
-3.0574768 2.748137 -1.9169965 4 3206116089592 1 0
-28.442797 20.93155 -0.616419 11 3206116089592 1 0
-24.02978 21.605206 -0.9404388 5 3206116091896 1 0
-5.6599364 4.60935 -2.0433812 4 3206116091896 1 0
-8.390314 7.5460596 -2.2569177 3 3206116094200 1 0
-34.637432 28.216898 0 22 3206116094200 1 0
-26.257463 26.05318 -0.43062696 3 3206116096504 1 0
-12.04139 9.812409 -2.4165955 2 3206116096504 1 0
-16.169062 14.551025 -2.7688096 6 3206116098808 1 0
-28.34369 20.885319 0.20462586 10 3206116098808 1 0
-27.98911 25.19598 -0.21887667 41 3206116101112 1 0
-19.948154 16.265694 -2.7725284 11 3206116101112 1 0
-36.575478 29.832888 1.0982994 15 3206116103416 1 0
-18.37101 18.244795 -2.4169176 16 3206116103416 1 0
-26.250057 26.077673 0.43076664 4 3206116105720 1 0
0 0 0 10 3206116105720 1 0
-19.663338 17.71738 -2.1607149 10 3206116108024 1 0
-28.329067 20.901258 1.0245686 4 3206116108024 1 0
-28.02934 25.26321 0.6586538 26 3206116110328 1 0
-25.045572 18.484594 -1.9949635 11 3206116110328 1 0
-18.963491 18.856228 -1.5574281 3 3206116112632 1 0
-32.914627 29.684608 1.8057749 28 3206116114936 1 0
-24.160925 19.737667 -1.4532601 4 3206116114936 1 0
-36.58261 29.87594 2.7506733 44 3206116112632 1 0
-21.90049 19.75739 -1.5457948 4 3206116117240 1 0
-36.835815 30.101482 5.840954 33 3206116117240 1 0
-25.69954 23.191797 2.8259509 7 3206116119544 1 0
-28.295181 20.909641 -1.4333848 11 3206116119544 1 0
-27.284502 27.163338 -1.3444682 7 3206116121848 1 0
0 0 0 9 3206116121848 1 0
0 0 0 29 3206116124152 1 0
-3.0473838 2.7593248 -1.9169965 4 3206116144888 1 0
-27.567204 22.548433 -0.8287261 5 3206116124152 1 0
-26.512306 19.661074 -0.57613885 4 3206116144888 1 0
-23.965563 21.706205 -0.9410206 5 3206116147192 1 0
-5.6430717 4.629982 -2.0433812 4 3206116147192 1 0
-8.365727 7.579151 -2.2577024 3 3206116149496 1 0
-34.392372 28.225925 0 14 3206116149496 1 0
-29.95102 29.934036 -0.49297658 4 3206116151800 1 0
-12.017995 9.865985 -2.4190552 3 3206116151800 1 0
-16.11941 14.6119175 -2.7693148 6 3206116154104 1 0
-28.377367 21.06849 0.20541628 5 3206116154104 1 0
-27.892487 25.290993 -0.21883017 25 3206116156408 1 0
-19.883444 16.332203 -2.7716715 11 3206116156408 1 0
-18.339403 18.344206 -2.4213789 14 3206116158712 1 0
-36.39435 29.902634 1.0960661 31 3206116158712 1 0
-29.137123 29.152807 0.47984543 17 3206116161016 1 0
-22.303503 18.330357 -2.0187523 21 3206116161016 1 0
-19.370058 17.578075 -2.1353292 6 3206116163320 1 0
-28.070175 25.480392 0.66172546 13 3206116165624 1 0
-24.864765 18.487253 -1.9857537 3 3206116165624 1 0
-28.306057 21.039824 1.0264304 4 3206116163320 1 0
-18.843393 18.869173 -1.5530095 3 3206116167928 1 0
-36.29836 29.857386 2.737185 43 3206116167928 1 0
-32.570732 29.582146 1.7925858 28 3206116170232 1 0
-24.057653 19.79431 -1.4512126 4 3206116170232 1 0
-21.680603 19.696728 -1.5351182 4 3206116172536 1 0
-36.466885 30.012907 5.799031 11 3206116172536 1 0
-25.736786 23.38824 2.8389692 7 3206116174840 1 0
-26.455826 19.692942 -1.343666 5 3206116174840 1 0
-27.308886 27.376492 -1.3503313 7 3206116177144 1 0
0 0 0 9 3206116177144 1 0
0 0 0 29 3206116179448 1 0
0 0 0 19 3206116179448 1 0
-28.360065 21.177465 -0.6178152 5 3206116200184 1 0
-3.0435753 2.7742994 -1.9203774 4 3206116200184 1 0
-24.026247 21.90696 -0.9462569 5 3206116202488 1 0
-5.636563 4.65607 -2.046616 3 3206116202488 1 0
-8.354927 7.620188 -2.2616246 3 3206116204792 1 0
-28.815641 23.810148 0 21 3206116204792 1 0
-29.718414 29.90051 -0.49078807 4 3206116207096 1 0
-11.994136 9.9136 -2.4208999 3 3206116207096 1 0
-16.07044 14.665758 -2.7693148 6 3206116209400 1 0
-40.034992 29.93184 0.29052594 21 3206116209400 1 0
-27.978884 25.540771 -0.22017854 10 3206116211704 1 0
-19.813255 16.386097 -2.7695296 11 3206116211704 1 0
-18.339407 18.46789 -2.429558 4 3206116214008 1 0
-36.02561 29.802979 1.0879705 30 3206116214008 1 0
-28.785187 28.995283 0.47565466 16 3206116216312 1 0
-19.27826 17.613756 -2.1317492 6 3206116218616 1 0
-28.314924 21.195118 1.0293394 13 3206116218616 1 0
-27.921856 25.518509 0.6602594 32 3206116220920 1 0
-22.115618 18.301048 -2.0073123 32 3206116216312 1 0
-24.715834 18.50663 -1.9788463 7 3206116220920 1 0
-18.67248 18.825188 -1.5441724 3 3206116223224 1 0
-35.96939 29.791733 2.719976 29 3206116223224 1 0
-32.32261 29.557732 1.7844443 28 3206116225528 1 0
-24.261053 20.100225 -1.4675916 4 3206116225528 1 0
-21.527967 19.692213 -1.5290473 4 3206116227832 1 0
-36.217796 30.015244 5.775632 11 3206116227832 1 0
-25.698044 23.513561 2.8435256 7 3206116230136 1 0
0 0 0 10 3206116230136 1 0
0 0 0 43 3206116232440 1 0
0 0 0 9 3206116232440 1 0
0 0 0 29 3206116234744 1 0
-24.419897 20.255796 -0.73827904 48 3206116234744 1 0
-3.0285313 2.7800035 -1.9169965 5 3206116255480 1 0
-28.23483 21.237865 -0.6166982 11 3206116255480 1 0
-23.996592 22.034134 -0.9481187 5 3206116257784 1 0
-8.322389 7.6441207 -2.2600555 3 3206116260088 1 0
-5.6172805 4.673294 -2.045538 4 3206116257784 1 0
-28.58135 23.785631 0 25 3206116260088 1 0
-29.554205 29.94493 -0.48981023 9 3206116262392 1 0
-11.974428 9.968311 -2.4239745 2 3206116262392 1 0
-16.007034 14.711491 -2.7672944 6 3206116264696 1 0
-39.63544 29.851181 0.28838715 21 3206116264696 1 0
-27.976967 25.720509 -0.22087596 10 3206116267000 1 0
-18.282412 18.5411 -2.4306734 21 3206116269304 1 0
-19.746172 16.44824 -2.7682445 14 3206116267000 1 0
-35.877045 29.894278 1.0866678 22 3206116269304 1 0
-28.555964 28.968864 0.47355926 16 3206116271608 1 0
-21.955645 18.300058 -1.9986625 32 3206116271608 1 0
-19.074812 17.55248 -2.1161273 3 3206116273912 1 0
-28.28422 21.329172 1.0309685 13 3206116273912 1 0
-28.01043 25.782862 0.6645178 19 3206116276216 1 0
-18.596874 18.883068 -1.5434747 3 3206116278520 1 0
-35.688225 29.773903 2.7067204 42 3206116278520 1 0
-24.547888 18.517479 -1.9706597 7 3206116276216 1 0
-32.084576 29.551113 1.777117 28 3206116280824 1 0
-24.207535 20.202085 -1.4687084 4 3206116280824 1 0
-21.425056 19.73934 -1.5267445 4 3206116283128 1 0
-35.966927 30.025055 5.7527204 10 3206116283128 1 0
-25.716185 23.700106 2.8549166 7 3206116285432 1 0
-27.98856 21.139757 -1.4289883 5 3206116285432 1 0
-26.908852 27.356369 -1.3400011 14 3206116287736 1 0
0 0 0 9 3206116287736 1 0
-24.414333 20.39998 -0.74032617 35 3206116290040 1 0
0 0 0 29 3206116290040 1 0
-3.01566 2.7886236 -1.915306 5 3206116310776 1 0
-28.06118 21.268734 -0.61460394 10 3206116310776 1 0
-23.880772 22.08901 -0.9467223 5 3206116313080 1 0
-5.6001825 4.69377 -2.045538 4 3206116313080 1 0
-8.300297 7.6796584 -2.2616246 3 3206116315384 1 0
-28.369 23.784033 0 30 3206116315384 1 0
-11.953392 10.024311 -2.427049 2 3206116317688 1 0
-15.942219 14.75835 -2.765274 6 3206116319992 1 0
-27.130564 27.689106 -0.45130152 12 3206116317688 1 0
-39.307648 29.827118 0.28678307 21 3206116319992 1 0
-31.996166 29.628344 -0.25344592 14 3206116322296 1 0
-19.674768 16.508846 -2.766531 11 3206116322296 1 0
0 0 0 28 3206116324600 1 0
-28.694296 24.083775 0.8717164 16 3206116324600 1 0
-28.346243 28.961815 0.4717898 16 3206116326904 1 0
-21.81695 18.3166 -1.9919659 47 3206116326904 1 0
-19.000706 17.609224 -2.1148255 3 3206116329208 1 0
-28.313414 21.50923 1.0348085 8 3206116329208 1 0
-27.916199 25.878979 0.664448 13 3206116331512 1 0
-24.495 18.613785 -1.971683 3 3206116331512 1 0
-18.435368 18.85134 -1.5355679 3 3206116333816 1 0
-35.433403 29.773457 2.695325 42 3206116333816 1 0
-31.948563 29.633497 1.7753259 28 3206116336120 1 0
-24.14575 20.294525 -1.4692668 4 3206116336120 1 0
0 0 0 42 3206116338424 1 0
-35.67957 29.997126 5.7234716 10 3206116338424 1 0
-25.677479 23.830034 2.8597984 7 3206116340728 1 0
-27.135237 27.778206 -1.3560549 14 3206116343032 1 0
0 0 0 9 3206116343032 1 0
0 0 0 29 3206116345336 1 0
-27.841747 21.181265 -1.4252433 5 3206116340728 1 0
0 0 0 1 3206116345336 1 0
-3.0090494 2.8010788 -1.9169965 5 3206116366072 1 0
0 0 0 50 3206116366072 1 0
-23.936142 22.287968 -0.95184225 5 3206116368376 1 0
-5.5875306 4.714799 -2.046616 4 3206116368376 1 0
-8.283395 7.715161 -2.263978 3 3206116370680 1 0
-28.308313 23.893457 0 51 3206116370680 1 0
-26.968851 27.707268 -0.4501374 37 3206116372984 1 0
-11.932164 10.074094 -2.4295087 2 3206116372984 1 0
-15.893191 14.811135 -2.765274 6 3206116375288 1 0
-28.091194 26.185917 -0.22320074 5 3206116377592 1 0
0 0 0 5 3206116375288 1 0
-19.619915 16.574 -2.766531 11 3206116377592 1 0
-18.23468 18.749496 -2.441455 2 3206116379896 1 0
-28.48904 24.072975 0.8679012 16 3206116379896 1 0
-28.02699 28.826239 0.46806467 16 3206116382200 1 0
-21.685999 18.329603 -1.9855483 35 3206116382200 1 0
-18.834349 17.57151 -2.1027834 3 3206116384504 1 0
-31.727861 29.608717 0.7575042 56 3206116386808 1 0
-24.854784 19.017529 -2.0057085 3 3206116386808 1 0
-18.453445 18.995432 -1.5423119 3 3206116389112 1 0
-35.279602 29.844372 2.691139 28 3206116389112 1 0
-26.65088 20.385965 0.97651106 12 3206116384504 1 0
-24.212528 20.488049 -1.4774562 5 3206116391416 1 0
-31.706978 29.605625 1.7673473 28 3206116391416 1 0
0 0 0 8 3206116393720 1 0
-35.42838 29.98703 5.699098 10 3206116393720 1 0
-25.700277 24.010311 2.8711896 7 3206116396024 1 0
0 0 0 12 3206116396024 1 0
-44.027653 45.37091 -2.2077422 18 3206116398328 1 0
0 0 0 9 3206116398328 1 0
0 0 0 29 3206116400632 1 0
-27.638294 23.413074 -0.8428701 10 3206116400632 1 0
-2.9997442 2.8110416 -1.9169965 4 3206116421368 1 0
0 0 0 7 3206116421368 1 0
-27.572498 25.84555 -1.099855 7 3206116423672 1 0
-5.5659595 4.728355 -2.0444596 3 3206116423672 1 0
-8.257652 7.7427073 -2.263978 3 3206116425976 1 0
-28.228575 23.987612 0 35 3206116425976 1 0
-28.86684 29.855968 -0.48347747 9 3206116428280 1 0
-11.913528 10.126665 -2.432583 2 3206116428280 1 0
-15.826193 14.847929 -2.7622437 6 3206116430584 1 0
-38.550125 29.659021 0.28269148 10 3206116430584 1 0
0 0 0 66 3206116432888 1 0
-19.56727 16.64226 -2.7669594 28 3206116432888 1 0
-19.162207 19.836117 -2.5745506 2 3206116435192 1 0
-28.5542 24.292936 0.87236774 16 3206116435192 1 0
-27.815853 28.802483 0.46615553 10 3206116437496 1 0
-18.838879 17.695011 -2.1099436 3 3206116439800 1 0
-28.298744 21.798212 1.0395793 8 3206116439800 1 0
-31.49931 29.595343 0.7544326 48 3206116442104 1 0
-21.630238 18.40769 -1.9861063 10 3206116437496 1 0
-24.828278 19.130705 -2.0087783 3 3206116442104 1 0
-18.37233 19.040617 -1.5409166 3 3206116444408 1 0
-35.026264 29.834291 2.6795113 27 3206116444408 1 0
-31.472301 29.58721 1.7598572 27 3206116446712 1 0
-24.164099 20.588299 -1.478759 5 3206116446712 1 0
-21.210762 19.946115 -1.5259072 4 3206116449016 1 0
-35.16597 29.970943 5.6732616 21 3206116449016 1 0
-25.655987 24.133335 2.8754206 7 3206116451320 1 0
0 0 0 1 3206116451320 1 0
-28.265259 29.327522 -1.4223639 7 3206116453624 1 0
0 0 0 9 3206116453624 1 0
0 0 0 29 3206116455928 1 0
-27.749609 23.671103 -0.8487324 10 3206116455928 1 0
-2.9925501 2.8239837 -1.9186869 4 3206116476664 1 0
-27.61673 21.375448 -0.60957766 5 3206116476664 1 0
-27.490835 25.949873 -1.100204 7 3206116478968 1 0
-5.561128 4.757771 -2.0487728 4 3206116478968 1 0
-8.233427 7.7741776 -2.2647624 3 3206116481272 1 0
-28.08085 24.031384 0 41 3206116481272 1 0
-28.194567 29.365093 -0.4739318 9 3206116483576 1 0
-11.884112 10.17333 -2.433813 2 3206116483576 1 0
-15.7656145 14.894907 -2.7607284 6 3206116485880 1 0
-38.168133 29.577795 0.2806457 20 3206116485880 1 0
-27.882273 26.35006 -0.22296825 26 3206116488184 1 0
-19.44563 16.65613 -2.7579632 20 3206116488184 1 0
-19.134205 19.945995 -2.5801272 8 3206116490488 1 0
-28.04105 24.025599 0.8592473 32 3206116490488 1 0
-26.928898 28.079561 0.45293126 15 3206116492792 1 0
-21.535553 18.457113 -1.9833161 3 3206116492792 1 0
-18.66404 17.65382 -2.0972507 3 3206116495096 1 0
-28.279343 21.940977 1.0416739 8 3206116495096 1 0
-31.26508 29.581425 0.7512912 55 3206116497400 1 0
-24.868568 19.300468 -2.0174766 11 3206116497400 1 0
-17.883059 18.66349 -1.5053356 3 3206116499704 1 0
-34.75218 29.810778 2.6664882 41 3206116499704 1 0
-31.252737 29.58698 1.7533439 27 3206116502008 1 0
-24.025372 20.615278 -1.4746643 5 3206116502008 1 0
-21.199017 20.074966 -1.530094 4 3206116504312 1 0
-34.82615 29.89182 5.6352386 31 3206116504312 1 0
-25.594744 24.244678 2.878024 7 3206116506616 1 0
-28.11849 29.3798 -1.4201304 15 3206116508920 1 0
-27.500797 21.368986 -1.418893 5 3206116506616 1 0
0 0 0 9 3206116508920 1 0
0 0 0 29 3206116511224 1 0
-27.688046 23.786064 -0.8493838 5 3206116511224 1 0
-2.9879303 2.839407 -1.9220679 4 3206116531960 1 0
-27.586105 21.506144 -0.610555 5 3206116531960 1 0
-27.487024 26.128317 -1.1036949 7 3206116534264 1 0
-5.5444865 4.777154 -2.0487728 4 3206116534264 1 0
-8.209083 7.805573 -2.265547 4 3206116536568 1 0
-28.045273 24.17104 0 41 3206116536568 1 0
-27.98701 29.353329 -0.47216234 13 3206116538872 1 0
-11.854516 10.2199135 -2.4350429 2 3206116538872 1 0
-15.702026 14.938909 -2.7587082 6 3206116541176 1 0
-37.768257 29.4795 0.2784604 19 3206116541176 1 0
-27.77274 26.430681 -0.22282878 15 3206116543480 1 0
-19.30004 16.648573 -2.74554 17 3206116543480 1 0
-17.754126 18.637154 -2.40279 4 3206116545784 1 0
-27.938848 24.107658 0.858689 21 3206116545784 1 0
-27.2693 28.633919 0.460335 15 3206116548088 1 0
0 0 0 22 3206116548088 1 0
-18.599417 17.716112 -2.0969253 3 3206116550392 1 0
-28.278193 22.098644 1.0444665 9 3206116550392 1 0
-31.031332 29.566233 0.74814975 55 3206116552696 1 0
-18.010487 18.928303 -1.5216144 3 3206116555000 1 0
-24.700407 19.308489 -2.00929 7 3206116552696 1 0
-34.51495 29.817041 2.6562555 27 3206116555000 1 0
-31.019094 29.571793 1.7460166 27 3206116557304 1 0
-24.007685 20.746042 -1.4780146 5 3206116557304 1 0
-21.094122 20.11576 -1.5275819 4 3206116559608 1 0
-25.590733 24.410923 2.887137 7 3206116561912 1 0
-34.526363 29.844444 5.6035523 20 3206116559608 1 0
-25.484121 19.94502 -1.3184274 5 3206116561912 1 0
0 0 0 9 3206116564216 1 0
0 0 0 86 3206116564216 1 0
0 0 0 29 3206116566520 1 0
-24.913315 21.553967 -0.766567 4 3206116566520 1 0
-2.9727623 2.8448067 -1.9186869 4 3206116587256 1 0
-27.633543 21.698635 -0.61327755 5 3206116587256 1 0
-27.421648 26.248987 -1.1047422 7 3206116589560 1 0
-5.5306864 4.799003 -2.049851 4 3206116589560 1 0
-8.184619 7.836893 -2.2663314 4 3206116591864 1 0
-28.018126 24.318607 0 41 3206116591864 1 0
-27.826628 29.38985 -0.4711845 13 3206116594168 1 0
-11.830708 10.271596 -2.4375024 2 3206116594168 1 0
-15.635458 14.979902 -2.756183 6 3206116596472 1 0
-37.47331 29.460356 0.2770423 28 3206116596472 1 0
-27.726515 26.571747 -0.22320074 15 3206116598776 1 0
-19.121716 16.611515 -2.7284045 8 3206116598776 1 0
-17.305788 18.29396 -2.3507414 2 3206116601080 1 0
-28.041672 24.367662 0.86445826 16 3206116601080 1 0
-27.235142 28.798676 0.46145254 36 3206116603384 1 0
-21.351965 18.55989 -1.9782935 70 3206116603384 1 0
-18.523077 17.76713 -2.0952978 3 3206116605688 1 0
-28.25115 22.236788 1.0463283 9 3206116605688 1 0
-30.80673 29.558079 0.74521774 47 3206116607992 1 0
-24.576403 19.350142 -2.0046852 3 3206116607992 1 0
-18.032064 19.083937 -1.5290563 3 3206116610296 1 0
-34.229897 29.780079 2.6423023 26 3206116610296 1 0
-30.783056 29.552567 1.7385266 27 3206116612600 1 0
-23.962248 20.853327 -1.4796897 5 3206116612600 1 0
-21.167835 20.32761 -1.5380491 4 3206116614904 1 0
-34.275246 29.837051 5.579666 20 3206116614904 1 0
-24.792332 23.81517 2.8064234 7 3206116617208 1 0
-25.232298 19.89035 -1.3089833 4 3206116617208 1 0
-18.446579 19.545397 -0.9385173 33 3206116619512 1 0
0 0 0 9 3206116619512 1 0
0 0 0 29 3206116621816 1 0
-24.654007 21.480555 -0.7608908 9 3206116621816 1 0
-2.9628139 2.8551662 -1.9186869 4 3206116642552 1 0
-26.688713 21.107744 -0.5939403 5 3206116642552 1 0
-27.447878 26.458317 -1.1095129 7 3206116644856 1 0
-5.5081 4.8132105 -2.0476944 4 3206116644856 1 0
-8.165684 7.873583 -2.2686849 4 3206116647160 1 0
-27.857777 24.350449 0 35 3206116647160 1 0
-27.652634 29.411041 -0.4699738 13 3206116649464 1 0
-15.574507 15.026124 -2.7546675 6 3206116651768 1 0
-11.803707 10.320635 -2.4393473 2 3206116649464 1 0
-37.109966 29.384886 0.27511275 19 3206116651768 1 0
-27.630716 26.66559 -0.2231775 15 3206116654072 1 0
-17.097301 18.20041 -2.3310373 2 3206116656376 1 0
-19.018715 16.63888 -2.7219787 8 3206116654072 1 0
-27.96547 24.473297 0.86473745 16 3206116656376 1 0
-27.211115 28.975206 0.46275634 36 3206116658680 1 0
-21.299059 18.644823 -1.9794097 59 3206116658680 1 0
-18.446608 17.81783 -2.0936706 3 3206116660984 1 0
-28.210957 22.365072 1.0477247 9 3206116660984 1 0
-30.57106 29.537601 0.74200654 38 3206116663288 1 0
-24.292896 19.26467 -1.9870329 3 3206116663288 1 0
-17.623793 18.782757 -1.4999868 6 3206116665592 1 0
-33.987576 29.778332 2.6316047 39 3206116665592 1 0
-30.492939 29.479275 1.7279426 27 3206116667896 1 0
-23.904335 20.95001 -1.4806204 5 3206116667896 1 0
-21.07952 20.384714 -1.536793 4 3206116670200 1 0
-24.812206 24.001352 2.8181398 7 3206116672504 1 0
-34.021614 29.825653 5.555292 20 3206116670200 1 0
-24.99056 19.841621 -1.3000277 4 3206116672504 1 0
0 0 0 9 3206116674808 1 0
0 0 0 29 3206116677112 1 0
-24.428583 21.434608 -0.75623816 13 3206116677112 1 0
-18.419247 19.653421 -0.94061124 33 3206116674808 1 0
-2.9554312 2.8680155 -1.9203774 4 3206116697296 1 0
-26.636768 21.21822 -0.59442896 15 3206116697296 1 0
-27.484457 26.679287 -1.1147493 7 3206116699600 1 0
-5.494157 4.834953 -2.0487728 4 3206116699600 1 0
-8.135336 7.899306 -2.2679005 4 3206116701904 1 0
-27.721565 24.40261 0 35 3206116701904 1 0
-11.785408 10.377446 -2.4430366 2 3206116704208 1 0
-27.533424 29.489845 -0.46969444 13 3206116704208 1 0
-15.513423 15.072103 -2.7531524 6 3206116706512 1 0
-26.568607 21.189203 0.19751208 4 3206116706512 1 0
-20.291672 19.72016 -0.16445391 10 3206116708816 1 0
-18.927694 16.676247 -2.7172663 8 3206116708816 1 0
-16.897831 18.114367 -2.3124485 2 3206116711120 1 0
-27.10708 29.06709 0.46270978 21 3206116713424 1 0
-27.921873 24.607782 0.86604017 16 3206116711120 1 0
-21.260786 18.742805 -1.981921 52 3206116713424 1 0
-18.498611 17.993301 -2.106689 3 3206116715728 1 0
-26.564232 21.211008 0.98931086 12 3206116715728 1 0
-20.283182 19.734867 0.4939729 37 3206116718032 1 0
-24.225502 19.34935 -1.9870329 3 3206116718032 1 0
-17.498234 18.779886 -1.4948705 6 3206116720336 1 0
-33.736702 29.76733 2.6202095 26 3206116720336 1 0
-22.734621 20.065607 -1.4124988 4 3206116722640 1 0
-20.286629 19.74971 1.1534815 12 3206116722640 1 0
-20.289932 19.758677 -1.4842477 4 3206116724944 1 0
-33.7536 29.79971 5.528481 20 3206116724944 1 0
-20.341784 19.814936 2.3182366 13 3206116727248 1 0
-24.7682 19.806425 -1.292049 4 3206116727248 1 0
-18.377766 19.746859 -0.94200724 11 3206116729552 1 0
0 0 0 29 3206116731856 1 0
0 0 0 9 3206116729552 1 0
-24.230753 21.411184 -0.752423 9 3206116731856 1 0
-2.942809 2.8757808 -1.9186869 4 3206116752592 1 0
-26.475193 21.240993 -0.5924743 46 3206116752592 1 0
-20.237436 19.782244 -0.8236112 13 3206116754896 1 0
-5.4801292 4.8566566 -2.049851 4 3206116754896 1 0
-8.107713 7.927655 -2.2679005 4 3206116757200 1 0
-27.6871 24.544336 0 15 3206116757200 1 0
-27.318825 29.46552 -0.4677853 13 3206116759504 1 0
-11.752069 10.4211445 -2.4436514 2 3206116759504 1 0
-15.449371 15.115063 -2.751132 6 3206116761808 1 0
0 0 0 8 3206116761808 1 0
-20.234146 19.802061 -0.1645469 7 3206116764112 1 0
-18.82772 16.705263 -2.711269 8 3206116764112 1 0
-16.63151 17.95411 -2.2845652 2 3206116766416 1 0
-27.99731 24.84844 0.871065 16 3206116766416 1 0
-27.135899 29.302395 0.46494487 10 3206116768720 1 0
0 0 0 5 3206116768720 1 0
-18.486956 18.107979 -2.1125472 6 3206116771024 1 0
-26.477568 21.293583 0.9888454 20 3206116771024 1 0
-30.095575 29.487204 0.7354444 23 3206116773328 1 0
-17.329517 18.729471 -1.4860333 6 3206116775632 1 0
-24.369314 19.603937 -2.0044293 3 3206116773328 1 0
-29.981016 29.39206 1.7105199 27 3206116777936 1 0
-22.416563 19.924522 -1.3970505 4 3206116777936 1 0
-20.229393 19.83777 -1.4848758 13 3206116780240 1 0
-33.37289 29.654152 2.599977 38 3206116775632 1 0
-33.501022 29.785452 5.504107 20 3206116780240 1 0
-24.678196 24.20749 2.8220453 7 3206116782544 1 0
-24.533941 19.759893 -1.2834191 4 3206116782544 1 0
-26.581293 28.762194 -1.3676414 22 3206116784848 1 0
0 0 0 9 3206116784848 1 0
0 0 0 29 3206116787152 1 0
-24.146904 21.487661 -0.75214386 4 3206116787152 1 0
-2.9353368 2.8885784 -1.9203774 4 3206116807888 1 0
-26.363297 25.950136 -1.0765824 7 3206116810192 1 0
-26.422663 21.350876 -0.592963 10 3206116807888 1 0
-8.085812 7.961177 -2.2694693 4 3206116812496 1 0
-5.463214 4.8756766 -2.049851 4 3206116810192 1 0
-28.154013 25.132832 0 52 3206116812496 1 0
-27.19542 29.535975 -0.46741277 30 3206116814800 1 0
-11.72787 10.472122 -2.4461112 2 3206116814800 1 0
-15.380438 15.151296 -2.7481017 6 3206116817104 1 0
-26.34902 25.963263 -0.21499431 15 3206116819408 1 0
0 0 0 1 3206116817104 1 0
-18.72306 16.727123 -2.7044146 8 3206116819408 1 0
-16.605364 18.048712 -2.2893982 2 3206116821712 1 0
-28.04676 25.06349 0.87525237 16 3206116821712 1 0
-27.18266 29.553154 0.46745932 16 3206116824016 1 0
-21.238441 18.984356 -1.9919659 36 3206116824016 1 0
-18.439941 18.184254 -2.1141744 6 3206116826320 1 0
-36.699944 29.71903 1.3743532 14 3206116826320 1 0
-26.340399 25.981962 0.6458089 25 3206116828624 1 0
-24.325026 19.70329 -2.00622 3 3206116828624 1 0
-17.158682 18.669733 -1.4767312 6 3206116830928 1 0
-33.133625 29.640491 2.589047 38 3206116830928 1 0
-26.347067 26.002153 1.5081233 14 3206116833232 1 0
-22.210127 19.873846 -1.3883026 4 3206116833232 1 0
-33.245277 29.756046 5.4782705 19 3206116835536 1 0
-24.643528 24.333654 2.8272526 7 3206116837840 1 0
-24.338184 19.735062 -1.2765803 4 3206116837840 1 0
-19.623379 19.371557 -1.4451004 4 3206116835536 1 0
-27.13816 29.55909 -1.4012846 23 3206116840144 1 0
0 0 0 29 3206116842448 1 0
-24.079435 21.569235 -0.7522369 4 3206116842448 1 0
0 0 0 9 3206116840144 1 0
-2.9262476 2.8977857 -1.9203774 4 3206116863184 1 0
-36.92991 30.033533 -0.83087415 16 3206116863184 1 0
-26.269712 26.02215 -1.076117 14 3206116865488 1 0
-5.4506283 4.8955083 -2.0509293 3 3206116865488 1 0
-8.065985 7.992413 -2.2710383 4 3206116867792 1 0
-27.9786 25.136835 0 36 3206116867792 1 0
-26.957468 29.46663 -0.46494487 17 3206116870096 1 0
-11.705984 10.520247 -2.4485707 2 3206116870096 1 0
-15.320166 15.189703 -2.7460814 6 3206116872400 1 0
-35.883686 29.21912 0.26895213 18 3206116872400 1 0
-27.28121 27.057152 -0.22331697 10 3206116874704 1 0
-18.633102 16.755985 -2.699274 8 3206116874704 1 0
-16.667124 18.235245 -2.3061283 2 3206116877008 1 0
-28.065676 25.246067 0.8784162 16 3206116877008 1 0
-27.109436 29.669115 0.4678784 16 3206116879312 1 0
-21.21138 19.086248 -1.9953141 72 3206116879312 1 0
0 0 0 85 3206116881616 1 0
-36.461742 29.726875 1.3691169 49 3206116881616 1 0
-29.647669 29.440123 0.72930115 53 3206116883920 1 0
-22.8918 18.669266 -1.8931432 3 3206116883920 1 0
-17.06086 18.688938 -1.4737079 6 3206116886224 1 0
-32.88846 29.620699 2.5776517 37 3206116886224 1 0
-29.587433 29.398262 1.6992847 36 3206116888528 1 0
-21.991398 19.812439 -1.3788103 4 3206116888528 1 0
-19.410011 19.291803 -1.4342146 4 3206116890832 1 0
-33.0052 29.744102 5.4553595 29 3206116890832 1 0
-24.675951 24.533165 2.8405964 7 3206116893136 1 0
-24.369509 19.8992 -1.2817909 4 3206116893136 1 0
-26.928373 29.534298 -1.3957007 15 3206116895440 1 0
0 0 0 9 3206116895440 1 0
0 0 0 29 3206116897744 1 0
-23.989622 21.63924 -0.7517716 4 3206116897744 1 0
-2.915607 2.9084914 -1.9203774 4 3206116918480 1 0
-36.65253 30.03181 -0.82710445 16 3206116918480 1 0
-27.317978 27.25884 -1.1231273 15 3206116920784 1 0
-5.435577 4.9179583 -2.0520077 3 3206116920784 1 0
-8.039647 8.02446 -2.2718227 4 3206116923088 1 0
-27.857357 25.211561 0 31 3206116923088 1 0
-26.783348 29.490046 -0.46378076 8 3206116925392 1 0
-11.688319 10.5811405 -2.4528751 2 3206116925392 1 0
-15.256853 15.236452 -2.7445662 6 3206116927696 1 0
-28.878511 23.688738 0.2170866 11 3206116927696 1 0
-27.209301 27.180428 -0.2235262 31 3206116930000 1 0
-18.531519 16.785439 -2.6932766 8 3206116930000 1 0
-16.526833 18.21218 -2.2957184 2 3206116932304 1 0
-27.96924 25.340952 0.8782301 16 3206116932304 1 0
0 0 0 1 3206116934608 1 0
-26.82617 29.570015 0.46480516 15 3206116934608 1 0
-36.17371 29.706371 1.3622515 21 3206116936912 1 0
-29.427488 29.428772 0.72643894 68 3206116939216 1 0
-18.368242 18.363968 -2.1203582 9 3206116936912 1 0
-22.640602 18.598028 -1.8777933 10 3206116939216 1 0
-16.9762 18.72816 -1.47208 6 3206116941520 1 0
-32.64794 29.612865 2.5669541 37 3206116941520 1 0
-29.351418 29.368925 1.6916318 35 3206116943824 1 0
-21.809366 19.787378 -1.3717375 4 3206116943824 1 0
-19.198563 19.215324 -1.423538 4 3206116946128 1 0
-32.76005 29.73106 5.4319606 19 3206116946128 1 0
-24.694767 24.723158 2.8526385 7 3206116948432 1 0
-25.445435 20.92561 -1.3422004 5 3206116948432 1 0
0 0 0 64 3206116950736 1 0
0 0 0 9 3206116950736 1 0
0 0 0 29 3206116953040 1 0
-2.9110622 2.9232817 -1.9237583 4 3206116973776 1 0
-36.39231 30.02085 -0.82347435 16 3206116973776 1 0
-27.320124 27.443184 -1.1269673 8 3206116976080 1 0
-23.94449 21.74869 -0.7527022 4 3206116953040 1 0
-5.413471 4.9308476 -2.049851 2 3206116976080 1 0
-8.012758 8.05131 -2.2718227 4 3206116978384 1 0
-27.731468 25.266893 0 15 3206116978384 1 0
-26.847546 29.761026 -0.4666212 35 3206116980688 1 0
-11.661467 10.628338 -2.45472 2 3206116980688 1 0
-15.202557 15.285033 -2.744061 6 3206116982992 1 0
0 0 0 7 3206116982992 1 0
-29.283012 29.450872 -0.2413804 12 3206116985296 1 0
-18.442207 16.818665 -2.6885643 8 3206116985296 1 0
-16.443422 18.244654 -2.2927442 2 3206116987600 1 0
-27.950783 25.497982 0.88037026 16 3206116987600 1 0
-26.797232 29.741762 0.4660624 16 3206116989904 1 0
-19.651026 17.932062 -1.8602656 3 3206116989904 1 0
-18.338818 18.46085 -2.1242638 6 3206116992208 1 0
-35.954445 29.733536 1.3578298 35 3206116992208 1 0
-29.193419 29.396658 0.72315794 52 3206116994512 1 0
-22.456404 18.576727 -1.867816 10 3206116994512 1 0
-16.825779 18.69184 -1.4646382 6 3206116996816 1 0
-32.39192 29.585663 2.554861 36 3206116996816 1 0
-29.167503 29.388512 1.6869097 17 3206116999120 1 0
-21.666704 19.795692 -1.3670844 4 3206116999120 1 0
-19.016022 19.165962 -1.4149549 4 3206117001424 1 0
-32.50661 29.708635 5.4070992 28 3206117001424 1 0
-24.62761 24.82938 2.8549166 7 3206117003728 1 0
-24.229994 20.068846 -1.2817909 4 3206117003728 1 0
-26.74024 29.742382 -1.3966779 23 3206117006032 1 0
0 0 0 9 3206117006032 1 0
0 0 0 29 3206117008336 1 0
-23.961895 21.919554 -0.75567985 4 3206117008336 1 0
-2.9003282 2.9339316 -1.9237583 4 3206117029072 1 0
0 0 0 36 3206117029072 1 0
-27.034065 27.35524 -1.1192874 23 3206117031376 1 0
-5.401075 4.955825 -2.0520077 2 3206117031376 1 0
-7.9915824 8.088878 -2.2741761 4 3206117033680 1 0
-30.57711 28.06461 0 12 3206117033680 1 0
-27.15519 30.323462 -0.4738852 49 3206117035984 1 0
-11.6284895 10.676101 -2.4559498 4 3206117035984 1 0
-15.149666 15.343034 -2.7445662 6 3206117038288 1 0
0 0 0 38 3206117040592 1 0
-28.610271 23.806177 0.21631943 16 3206117038288 1 0
-18.345907 16.853191 -2.6834238 8 3206117040592 1 0
-16.377241 18.304085 -2.2927442 2 3206117042896 1 0
-28.182156 25.896671 0.89060605 16 3206117042896 1 0
-27.137543 30.339256 0.4738852 33 3206117045200 1 0
-19.412756 17.84365 -1.8438032 3 3206117045200 1 0
-18.398085 18.65461 -2.1389093 3 3206117047504 1 0
-35.757874 29.788815 1.3544552 13 3206117047504 1 0
-28.966667 29.379095 0.7201561 52 3206117049808 1 0
-22.217657 18.514338 -1.8534895 10 3206117049808 1 0
-16.747877 18.740255 -1.463708 6 3206117052112 1 0
-32.15024 29.577473 2.5441635 36 3206117052112 1 0
-28.913277 29.342012 1.6782798 26 3206117054416 1 0
-21.483868 19.770428 -1.3600117 4 3206117054416 1 0
-18.905277 19.191193 -1.4118148 4 3206117056720 1 0
-32.256977 29.692997 5.3832126 28 3206117056720 1 0
-24.687057 25.067705 2.872166 7 3206117059024 1 0
-24.15818 20.155235 -1.2817909 4 3206117059024 1 0
-27.118586 30.380249 -1.4220847 78 3206117061328 1 0
0 0 0 9 3206117061328 1 0
0 0 0 29 3206117063632 1 0
-23.904383 22.023592 -0.7563312 4 3206117063632 1 0
-2.8875296 2.9414506 -1.9220679 4 3206117084368 1 0
-28.126078 23.542084 -0.6402241 28 3206117084368 1 0
-26.97482 27.486536 -1.1208001 15 3206117086672 1 0
-5.3809137 4.972034 -2.0509293 4 3206117086672 1 0
-7.9632983 8.116725 -2.2741761 4 3206117088976 1 0
-30.355587 28.057142 0 12 3206117088976 1 0
-27.131569 30.510723 -0.4753287 45 3206117091280 1 0
-11.646293 10.767607 -2.467633 9 3206117091280 1 0
-15.096016 15.395823 -2.7445662 10 3206117093584 1 0
-28.45955 23.849379 0.21580797 16 3206117093584 1 0
-18.257774 16.890121 -2.6791399 7 3206117095888 1 0
0 0 0 9 3206117095888 1 0
-16.421703 18.483212 -2.3079872 2 3206117098192 1 0
-31.9923 29.604458 1.0142729 20 3206117098192 1 0
-19.294714 17.859806 -1.8385016 3 3206117100496 1 0
-27.111158 30.523512 0.47528213 33 3206117100496 1 0
-17.953478 18.331356 -2.094647 3 3206117102800 1 0
-28.60258 23.997578 1.0865896 13 3206117102800 1 0
-28.743626 29.35715 0.71715426 45 3206117105104 1 0
-22.045876 18.501965 -1.8445355 9 3206117105104 1 0
-16.653202 18.765747 -1.4611499 6 3206117107408 1 0
-31.903263 29.55654 2.5327682 36 3206117107408 1 0
-28.701664 29.331354 1.6719295 61 3206117109712 1 0
-21.379557 19.812708 -1.3577782 4 3206117109712 1 0
-18.75158 19.168549 -1.405325 4 3206117112016 1 0
-32.013374 29.67586 5.3598137 28 3206117112016 1 0
-24.641216 25.196482 2.8770478 7 3206117114320 1 0
-24.197836 20.331999 -1.2876527 4 3206117114320 1 0
-27.097225 30.570456 -1.4265518 47 3206117116624 1 0
0 0 0 9 3206117116624 1 0
-23.839085 22.11778 -0.75670344 4 3206117118928 1 0
0 0 0 29 3206117118928 1 0
-2.874714 2.9489162 -1.9203774 4 3206117139664 1 0
-28.554394 24.070597 -0.6518823 18 3206117139664 1 0
-34.84324 35.752495 -1.4528977 10 3206117141968 1 0
-5.372021 4.9986196 -2.0541642 4 3206117141968 1 0
-7.94051 8.149976 -2.2757452 4 3206117144272 1 0
-30.129044 28.042582 0 12 3206117144272 1 0
-11.588622 10.789088 -2.4633286 31 3206117146576 1 0
-15.050937 15.456514 -2.7460814 8 3206117148880 1 0
-28.376823 23.94775 0.21580797 16 3206117148880 1 0
-27.126175 30.718582 -0.47709817 9 3206117146576 1 0
-18.161491 16.917847 -2.6735706 7 3206117151184 1 0
-27.02525 27.761173 -0.22517678 21 3206117151184 1 0
-31.866657 29.69275 1.0135285 27 3206117153488 1 0
-16.307829 18.482965 -2.3009233 4 3206117153488 1 0
-19.131002 17.830847 -1.8287357 3 3206117155792 1 0
-17.68475 18.181395 -2.070563 3 3206117158096 1 0
-28.672749 24.224632 1.0924077 9 3206117158096 1 0
-27.09861 30.721571 0.4769119 39 3206117155792 1 0
-28.52301 29.332136 0.71415246 44 3206117160400 1 0
-21.900053 18.5078 -1.837628 9 3206117160400 1 0
-16.586325 18.819563 -1.4609174 6 3206117162704 1 0
-31.667732 29.540112 2.5220706 35 3206117162704 1 0
-28.554104 29.380352 1.6691613 26 3206117165008 1 0
-21.291407 19.86643 -1.3564754 13 3206117165008 1 0
-18.647263 19.192148 -1.4023943 4 3206117167312 1 0
-31.781582 29.66274 5.3378773 28 3206117167312 1 0
-24.624949 25.351513 2.8851843 7 3206117169616 1 0
-24.21713 20.488922 -1.2923747 4 3206117169616 1 0
-27.091208 30.773127 -1.4317169 47 3206117171920 1 0
0 0 0 9 3206117171920 1 0
0 0 0 29 3206117174224 1 0
-23.863514 22.291079 -0.7598672 4 3206117174224 1 0
-28.331099 24.043526 -0.64860123 29 3206117194960 1 0
-2.8649192 2.958433 -1.9203774 4 3206117194960 1 0
-34.57127 35.7101 -1.4464977 10 3206117197264 1 0
-5.3581905 5.0190783 -2.0552425 4 3206117197264 1 0
-7.9187765 8.182014 -2.277314 4 3206117199568 1 0
-27.113161 30.911192 -0.47868133 63 3206117201872 1 0
-11.552544 10.827711 -2.4633286 42 3206117201872 1 0
-29.909964 28.025171 0 12 3206117199568 1 0
-15.010182 15.518185 -2.7481017 10 3206117204176 1 0
-28.305698 24.050312 0.21587773 33 3206117204176 1 0
-26.970957 27.891874 -0.22550225 10 3206117206480 1 0
-18.064058 16.940552 -2.6675732 7 3206117206480 1 0
-16.222015 18.510693 -2.2975774 4 3206117208784 1 0
-31.617975 29.660116 1.0087829 27 3206117208784 1 0
-27.089901 30.920944 0.47858822 39 3206117211088 1 0
-17.570667 18.186487 -2.0643795 6 3206117213392 1 0
-19.03012 17.856936 -1.8248293 3 3206117211088 1 0
-28.514708 24.25648 1.0894986 13 3206117213392 1 0
-28.312521 29.313354 0.7113601 29 3206117215696 1 0
-21.81302 18.561054 -1.8355814 22 3206117215696 1 0
-16.43303 18.773502 -1.4530104 6 3206117218000 1 0
-31.535425 29.61719 2.5195127 35 3206117218000 1 0
-28.379215 29.399515 1.664765 26 3206117220304 1 0
-21.264585 19.976925 -1.359081 4 3206117220304 1 0
-18.495848 19.166395 -1.3959047 4 3206117222608 1 0
-31.54157 29.640232 5.3144784 27 3206117222608 1 0
