# .PCD v.7 - Point Cloud Data file format
VERSION .7
FIELDS x y z rgb timestamp_ns device_id active
SIZE 4 4 4 4 8 1 1
TYPE F F F F F U U
COUNT 1 1 1 1 1 1 1
WIDTH 1006
HEIGHT 1
VIEWPOINT 0 0 0 1 0 0 0
POINTS 1006               
DATA ascii
38.793446 -17.392775 -1.2372786 9 3205161019264 1 0
32.651447 -10.950375 -0.60113066 10 3205161016960 1 1
0 0 0 1 3205161019264 1 0
7.4868917 -3.3580697 -1.6411095 2 3205161021568 1 0
32.365448 -12.656194 0 68 3205161021568 1 1
41.662445 -21.197172 -0.5441974 40 3205161023872 1 0
11.457262 -5.14309 -1.5985557 3 3205161026176 1 0
9.518558 -3.7238154 -1.5901568 5 3205161023872 1 0
32.266228 -10.843114 0.19783755 15 3205161026176 1 1
42.020546 -18.870459 -0.26771998 63 3205161028480 1 1
13.039021 -5.1056705 -1.5083548 3 3205161028480 1 0
14.539578 -7.405888 -1.5231674 3 3205161030784 1 0
32.393635 -12.690036 0.80955726 35 3205161030784 1 1
19.084568 -7.479641 -1.433356 5 3205161033088 1 0
41.824112 -21.311598 0.546479 15 3205161033088 1 0
16.533339 -7.433846 -1.4798571 4 3205161035392 1 0
32.29575 -10.874995 0.9917545 12 3205161035392 1 1
82.325195 -37.030796 1.5756731 29 3205161037696 1 0
20.616777 -6.945824 -1.3942744 5 3205161037696 1 0
21.641562 -11.040013 -1.4148712 6 3205161040000 1 0
59.575947 -23.38055 3.7271764 28 3205161040000 1 0
75.70551 -34.080997 3.3824494 58 3205161042304 1 0
26.239424 -10.302273 -1.3131083 4 3205161042304 1 0
24.930813 -11.227895 -1.4329585 4 3205161044608 1 0
0 0 0 1 3205161044608 1 0
55.46416 -24.98915 4.966162 57 3205161046912 1 0
29.430494 -9.935202 -1.2655079 4 3205161046912 1 0
31.554716 -16.121311 -1.2373966 6 3205161049216 1 0
0 0 0 9 3205161049216 1 0
43.574936 -19.648521 8.715175 28 3205161051520 1 0
41.694542 -16.399754 -1.0425609 7 3205161051520 1 0
0 0 0 4 3205161072256 1 0
33.63362 -11.417076 -0.61997926 11 3205161072256 1 1
38.729694 -17.534279 -1.2372786 9 3205161074560 1 0
0 0 0 1 3205161074560 1 0
7.4710593 -3.3836524 -1.6403251 17 3205161076864 1 0
32.389896 -12.801729 0 68 3205161076864 1 1
41.43596 -21.271196 -0.54224163 46 3205161079168 1 0
11.435022 -5.182745 -1.5980506 4 3205161081472 1 0
32.226906 -10.959428 0.19783755 55 3205161081472 1 1
41.89784 -18.99652 -0.26737127 63 3205161083776 1 1
9.505009 -3.7582629 -1.5901568 4 3205161079168 1 0
13.020595 -5.1524796 -1.5083548 3 3205161083776 1 0
14.520072 -7.4615026 -1.523911 3 3205161086080 1 0
32.407516 -12.829407 0.8110461 35 3205161086080 1 1
19.061504 -7.5490685 -1.433635 5 3205161088384 1 0
41.737232 -21.455011 0.54633933 22 3205161088384 1 0
32.309937 -11.00759 0.9933835 57 3205161090688 1 1
16.546787 -7.5105987 -1.4834371 4 3205161090688 1 0
81.46913 -36.992477 1.5617809 29 3205161092992 1 0
20.588322 -7.0173583 -1.3940185 5 3205161092992 1 0
21.60967 -11.119772 -1.4153364 6 3205161095296 1 0
58.936478 -23.369314 3.692293 28 3205161095296 1 0
75.74569 -34.4189 3.3896139 58 3205161097600 1 0
26.20315 -10.394184 -1.3131083 8 3205161097600 1 0
24.895103 -11.3165045 -1.4331678 4 3205161099904 1 0
0 0 0 1 3205161099904 1 0
55.424137 -25.20325 4.9703927 28 3205161102208 1 0
29.482773 -10.067149 -1.269253 4 3205161102208 1 0
31.527151 -16.245092 -1.2385134 6 3205161104512 1 0
0 0 0 9 3205161104512 1 0
42.783443 -19.469364 8.570244 27 3205161106816 1 0
33.13852 -13.166486 -0.8297497 5 3205161106816 1 1
0 0 0 4 3205161127552 1 0
32.66121 -11.207912 -0.6027363 5 3205161127552 1 1
38.653152 -17.65431 -1.2366968 9 3205161129856 1 0
7.4597974 -3.4084086 -1.6403251 17 3205161132160 1 0
0 0 0 1 3205161129856 1 0
32.42528 -12.940203 0 78 3205161132160 1 1
41.20179 -21.32392 -0.5400997 73 3205161134464 1 0
9.496164 -3.7912273 -1.5907717 5 3205161134464 1 0
11.417772 -5.2206364 -1.5980506 4 3205161136768 1 0
32.262257 -11.090943 0.19827925 40 3205161136768 1 1
41.8528 -19.143671 -0.26748753 15 3205161139072 1 1
12.999743 -5.194154 -1.5079265 3 3205161139072 1 0
14.495249 -7.5096116 -1.523911 3 3205161141376 1 0
32.424206 -12.960552 0.812535 15 3205161141376 1 1
41.76529 -21.64483 0.5476431 22 3205161143680 1 0
19.051186 -7.618163 -1.4347512 5 3205161143680 1 0
16.525414 -7.567088 -1.4837625 4 3205161145984 1 0
32.31106 -11.127693 0.9945472 49 3205161145984 1 1
80.586075 -36.91433 1.5471908 29 3205161148288 1 0
20.583809 -7.092095 -1.3952976 5 3205161148288 1 0
21.576221 -11.19321 -1.4155688 6 3205161150592 1 0
58.38414 -23.374647 3.6625257 28 3205161150592 1 0
75.71107 -34.70653 3.393196 58 3205161152896 1 0
26.168537 -10.48102 -1.3131083 8 3205161152896 1 0
24.871964 -11.405658 -1.4340053 4 3205161155200 1 0
0 0 0 1 3205161155200 1 0
29.468117 -10.171382 -1.2700671 4 3205161157504 1 0
55.38374 -25.406853 4.9742985 28 3205161157504 1 0
31.476654 -16.351393 -1.238653 6 3205161159808 1 0
42.82951 -19.66203 8.592486 18 3205161162112 1 0
0 0 0 9 3205161159808 1 0
41.445354 -16.626276 -1.0391179 7 3205161162112 1 0
0 0 0 4 3205161182296 1 0
32.455643 -11.264155 -0.5996647 10 3205161182296 1 1
38.609318 -17.797777 -1.2372786 9 3205161184600 1 0
0 0 0 1 3205161184600 1 0
7.444243 -3.4328933 -1.6395406 20 3205161186904 1 0
32.43537 -13.076215 0 68 3205161186904 1 1
40.924534 -21.363007 -0.53744555 22 3205161189208 1 0
9.479124 -3.8230808 -1.5901568 4 3205161189208 1 0
11.384915 -5.254141 -1.5960304 3 3205161191512 1 0
32.272133 -11.221507 0.19858147 50 3205161191512 1 1
41.371017 -19.100033 -0.2648373 23 3205161193816 1 1
12.977654 -5.238483 -1.507498 3 3205161193816 1 0
14.472147 -7.5626397 -1.5242827 3 3205161196120 1 0
32.437523 -13.099026 0.8140238 10 3205161196120 1 1
41.77344 -21.83708 0.54876065 22 3205161198424 1 0
18.905695 -7.637757 -1.4258224 4 3205161198424 1 0
16.509312 -7.6307044 -1.484739 4 3205161200728 1 0
32.339333 -11.265965 0.9966417 46 3205161200728 1 1
79.909775 -36.94889 1.5367193 29 3205161203032 1 0
20.55469 -7.163934 -1.3950418 5 3205161203032 1 0
21.539738 -11.271874 -1.4158014 6 3205161205336 1 0
57.859955 -23.404354 3.6348517 28 3205161205336 1 0
75.71361 -35.035393 3.398895 58 3205161207640 1 0
26.145763 -10.580387 -1.3138528 8 3205161207640 1 0
24.827372 -11.492896 -1.4337958 4 3205161209944 1 0
0 0 0 1 3205161209944 1 0
55.418915 -25.663887 4.9856896 28 3205161212248 1 0
29.439007 -10.279601 -1.2703928 4 3205161212248 1 0
31.438953 -16.4755 -1.2394905 6 3205161214552 1 0
43.140484 -19.993124 8.669256 28 3205161216856 1 0
0 0 0 9 3205161214552 1 0
41.385235 -16.77536 -1.0391179 7 3205161216856 1 0
0 0 0 4 3205161237592 1 0
32.416126 -11.377378 -0.5996647 5 3205161237592 1 1
38.546955 -17.93244 -1.2372786 9 3205161239896 1 0
0 0 0 1 3205161239896 1 0
7.425102 -3.4555476 -1.6379716 18 3205161242200 1 0
32.441395 -13.210475 0 68 3205161242200 1 1
40.87095 -21.516909 -0.5377249 16 3205161244504 1 0
9.473042 -3.859128 -1.5913866 3 3205161244504 1 0
11.366506 -5.2938495 -1.5960304 3 3205161246808 1 0
32.240314 -11.336743 0.19862796 45 3205161246808 1 1
41.21345 -19.202097 -0.2642561 7 3205161249112 1 1
12.966655 -5.2867546 -1.5083548 3 3205161249112 1 0
14.445661 -7.613111 -1.5242827 3 3205161251416 1 0
32.447144 -13.234828 0.8154196 10 3205161251416 1 1
41.79603 -22.034992 0.55006444 22 3205161253720 1 0
18.87892 -7.7037034 -1.4258224 4 3205161253720 1 0
16.486189 -7.6899714 -1.4850644 4 3205161256024 1 0
32.352604 -11.397382 0.99827075 46 3205161256024 1 1
79.09896 -36.909664 1.5235951 29 3205161258328 1 0
20.67262 -7.2860627 -1.4047633 5 3205161258328 1 0
21.50026 -11.346993 -1.4158014 6 3205161260632 1 0
75.732086 -35.36542 3.4052455 58 3205161262936 1 0
26.108671 -10.671588 -1.3138528 8 3205161262936 1 0
57.249294 -23.390205 3.601596 28 3205161260632 1 0
24.812437 -11.591325 -1.4352612 4 3205161265240 1 0
0 0 0 1 3205161265240 1 0
55.45902 -25.917944 4.997406 57 3205161267544 1 0
29.406713 -10.383631 -1.2705556 4 3205161267544 1 0
31.398924 -16.594482 -1.2401885 6 3205161269848 1 0
0 0 0 9 3205161269848 1 0
43.2344 -20.220276 8.70226 18 3205161272152 1 0
41.463356 -16.97578 -1.0425609 7 3205161272152 1 0
32.413906 -11.5038395 -0.6003628 10 3205161292888 1 1
38.50946 -18.07878 -1.2380931 9 3205161295192 1 0
0 0 0 1 3205161295192 1 0
7.412995 -3.481445 -1.6379716 18 3205161297496 1 0
0 0 0 4 3205161292888 1 0
0 0 0 3 3205161297496 1 0
41.117065 -21.830124 -0.54196227 23 3205161299800 1 0
9.455858 -3.8906677 -1.5907717 4 3205161299800 1 0
32.27592 -11.476014 0.19909291 40 3205161302104 1 1
44.961433 -21.139675 -0.2887591 9 3205161304408 1 0
11.340775 -5.330118 -1.5950202 3 3205161302104 1 0
12.951799 -5.333499 -1.5087832 3 3205161304408 1 0
14.426031 -7.6672277 -1.5250263 3 3205161306712 1 0
55.69468 -22.944319 1.4016507 24 3205161306712 1 0
49.544895 -26.34164 0.65325105 19 3205161309016 1 0
18.855602 -7.7710767 -1.4261013 4 3205161309016 1 0
16.477282 -7.755962 -1.4866916 4 3205161311320 1 0
32.365353 -11.529028 0.99989986 51 3205161311320 1 1
43.477627 -20.472921 0.83883244 27 3205161313624 1 1
20.677143 -7.3688993 -1.40681 5 3205161313624 1 0
21.464045 -11.42385 -1.416034 6 3205161315928 1 0
56.798164 -23.43758 3.5783405 28 3205161315928 1 0
75.67325 -35.660225 3.4081764 29 3205161318232 1 0
26.08234 -10.767234 -1.3144112 8 3205161318232 1 0
24.78989 -11.686382 -1.436308 4 3205161320536 1 0
0 0 0 1 3205161320536 1 0
29.392874 -10.494279 -1.2715327 4 3205161322840 1 0
55.40787 -26.13008 5.000986 57 3205161322840 1 0
31.340807 -16.703983 -1.2401885 6 3205161325144 1 0
0 0 0 9 3205161325144 1 0
42.882416 -20.238386 8.645579 18 3205161327448 1 0
41.4408 -17.13569 -1.0434914 7 3205161327448 1 0
0 0 0 4 3205161348184 1 0
33.273235 -11.939756 -0.6170473 11 3205161348184 1 1
38.40276 -18.19255 -1.2366968 9 3205161350488 1 0
0 0 0 1 3205161350488 1 0
7.4114304 -3.5123394 -1.6403251 21 3205161352792 1 0
56.562565 -23.494549 0 13 3205161352792 1 0
41.058243 -21.982956 -0.5421951 17 3205161355096 1 0
9.445869 -3.9251678 -1.5913866 4 3205161355096 1 0
11.3256855 -5.3713727 -1.5955253 3 3205161357400 1 0
32.326004 -11.621084 0.19965085 35 3205161357400 1 1
0 0 0 112 3205161359704 1 0
12.929431 -5.3771496 -1.5083548 3 3205161359704 1 0
14.4062 -7.7213 -1.5257698 3 3205161362008 1 0
55.721317 -23.183138 1.4043492 37 3205161362008 1 0
49.516094 -26.548443 0.65408915 9 3205161364312 1 0
18.953613 -7.888981 -1.4355882 5 3205161364312 1 0
16.468113 -7.8219833 -1.4883189 4 3205161366616 1 0
32.388863 -11.664966 1.001878 51 3205161366616 1 1
0 0 0 6 3205161368920 1 0
20.54614 -7.403143 -1.3996468 5 3205161368920 1 0
21.427557 -11.500592 -1.4162666 6 3205161371224 1 0
56.306866 -23.465195 3.5525267 28 3205161371224 1 0
0 0 0 87 3205161373528 1 0
26.037222 -10.855137 -1.3140389 8 3205161373528 1 0
24.842731 -11.817457 -1.4417509 4 3205161375832 1 0
0 0 0 1 3205161375832 1 0
55.366722 -26.347313 5.0055423 57 3205161378136 1 0
29.374859 -10.6036005 -1.2723467 4 3205161378136 1 0
31.268223 -16.805712 -1.2396301 6 3205161380440 1 0
0 0 0 9 3205161380440 1 0
42.921646 -20.440401 8.667821 18 3205161382744 1 0
41.377045 -17.278702 -1.0433984 7 3205161382744 1 0
0 0 0 4 3205161403480 1 0
0 0 0 72 3205161403480 1 0
38.562675 -18.433401 -1.2439113 9 3205161405784 1 0
0 0 0 1 3205161405784 1 0
7.3955865 -3.5364964 -1.6395406 20 3205161408088 1 0
56.328976 -23.628407 0 13 3205161408088 1 0
44.060837 -23.788834 -0.5829389 19 3205161410392 1 0
9.4394 -3.961175 -1.5926164 4 3205161410392 1 0
11.310446 -5.4125867 -1.5960304 3 3205161412696 1 0
32.34539 -11.755713 0.20002282 25 3205161412696 1 1
43.463432 -20.80709 -0.2800645 93 3205161415000 1 0
12.910583 -5.422249 -1.5083548 3 3205161415000 1 0
14.386168 -7.775327 -1.5265133 3 3205161417304 1 0
55.71379 -23.40848 1.4062103 37 3205161417304 1 0
49.549786 -26.789606 0.6557655 19 3205161419608 1 0
18.863426 -7.928808 -1.4308448 4 3205161419608 1 0
16.444304 -7.881143 -1.4886444 4 3205161421912 1 0
32.39679 -11.795735 1.0033907 42 3205161421912 1 1
43.394947 -20.805346 0.8400192 18 3205161424216 1 0
20.482668 -7.4611545 -1.3970885 5 3205161424216 1 0
21.394304 -11.57912 -1.4167317 6 3205161426520 1 0
55.860233 -23.508253 3.5295036 56 3205161426520 1 0
0 0 0 29 3205161428824 1 0
26.002853 -10.947508 -1.3142251 8 3205161428824 1 0
24.700497 -11.855705 -1.4358892 4 3205161431128 1 0
0 0 0 1 3205161431128 1 0
55.403797 -26.602541 5.0172586 57 3205161433432 1 0
29.363949 -10.715664 -1.2734866 4 3205161433432 1 0
31.25506 -16.939518 -1.241445 6 3205161435736 1 0
0 0 0 9 3205161435736 1 0
44.29717 -21.285471 8.960551 19 3205161438040 1 0
41.331215 -17.429243 -1.0437706 7 3205161438040 1 0
0 0 0 4 3205161458776 1 0
32.674656 -11.983099 -0.6074834 43 3205161458776 1 1
38.498096 -18.567898 -1.2439113 9 3205161461080 1 0
0 0 0 1 3205161461080 1 0
7.383197 -3.5622904 -1.6395406 23 3205161463384 1 0
0 0 0 27 3205161463384 1 0
44.012657 -23.961615 -0.58340454 19 3205161465688 1 0
9.425515 -3.9941003 -1.5926164 4 3205161465688 1 0
11.295057 -5.4537597 -1.5965354 3 3205161467992 1 0
0 0 0 19 3205161470296 1 0
12.898899 -5.4703875 -1.5092117 3 3205161470296 1 0
14.372928 -7.8331203 -1.5280005 3 3205161472600 1 0
32.35672 -11.88786 0.20034829 30 3205161467992 1 1
76.01139 -32.249268 1.9213493 28 3205161472600 1 0
49.508648 -26.991121 0.656464 9 3205161474904 1 0
18.839308 -7.996165 -1.4311239 4 3205161474904 1 0
32.41545 -11.930846 1.0052525 34 3205161477208 1 1
51.46947 -24.89794 0.9979984 26 3205161479512 1 0
16.413105 -7.936761 -1.4883189 4 3205161477208 1 0
20.445261 -7.5284686 -1.396321 5 3205161479512 1 0
55.799885 -23.71247 3.530899 56 3205161481816 1 0
21.367777 -11.661381 -1.4176619 6 3205161481816 1 0
51.423805 -24.894312 2.3276422 23 3205161484120 1 0
25.957127 -11.035082 -1.3138528 4 3205161484120 1 0
24.766817 -11.994085 -1.4421697 4 3205161486424 1 0
0 0 0 1 3205161486424 1 0
55.375183 -26.827063 5.023117 28 3205161488728 1 0
29.420107 -10.852678 -1.2775573 4 3205161488728 1 0
31.19574 -17.048515 -1.241445 6 3205161491032 1 0
0 0 0 9 3205161491032 1 0
43.26655 -20.976456 8.766832 19 3205161493336 1 0
41.222294 -17.553043 -1.0425609 7 3205161493336 1 0
0 0 0 4 3205161514072 1 0
32.685127 -12.116544 -0.6084607 37 3205161514072 1 1
38.25329 -18.614693 -1.2380931 9 3205161516376 1 0
0 0 0 1 3205161516376 1 0
7.370717 -3.5880408 -1.6395406 12 3205161518680 1 0
0 0 0 7 3205161518680 1 0
43.921738 -24.111252 -0.5833114 19 3205161520984 1 0
9.407882 -4.0254226 -1.5920014 3 3205161520984 1 0
11.272384 -5.491416 -1.5960304 3 3205161523288 1 0
32.32628 -12.004911 0.20041803 40 3205161523288 1 1
0 0 0 9 3205161525592 1 0
12.887037 -5.518511 -1.5100684 3 3205161525592 1 0
14.359459 -7.890916 -1.5294876 3 3205161527896 1 0
75.74397 -32.44826 1.917441 57 3205161527896 1 0
49.52629 -27.225431 0.65795404 9 3205161530200 1 0
18.833286 -8.071308 -1.432798 5 3205161530200 1 0
16.3853 -7.9940047 -1.4883189 4 3205161532504 1 0
32.429817 -12.0648365 1.006998 34 3205161532504 1 1
51.44694 -25.109026 0.999255 26 3205161534808 1 0
20.418856 -7.59979 -1.396321 5 3205161534808 1 0
21.32694 -11.735898 -1.4176619 6 3205161537112 1 0
56.803 -24.373184 3.5997357 28 3205161537112 1 0
51.47306 -25.140314 2.3338299 24 3205161539416 1 0
25.951494 -11.139807 -1.3155279 4 3205161539416 1 0
24.731977 -12.083972 -1.4425883 4 3205161541720 1 0
0 0 0 1 3205161541720 1 0
55.38507 -27.070965 5.0325556 57 3205161544024 1 0
29.397024 -10.960893 -1.2782086 4 3205161544024 1 0
31.122034 -17.149588 -1.2408864 6 3205161546328 1 0
42.21743 -20.650137 8.5688095 27 3205161548632 1 0
0 0 0 9 3205161546328 1 0
41.18649 -17.707886 -1.0432123 7 3205161548632 1 0
0 0 0 4 3205161569368 1 0
0 0 0 7 3205161569368 1 0
0 0 0 1 3205161571672 1 0
38.36753 -18.83621 -1.2439113 9 3205161571672 1 0
0 0 0 18 3205161573976 1 0
55.685528 -24.047295 0 25 3205161573976 1 0
44.855637 -24.82808 -0.5968616 13 3205161576280 1 0
9.40103 -4.0613728 -1.5932313 3 3205161576280 1 0
11.253146 -5.5307307 -1.5960304 3 3205161578584 1 0
32.362816 -12.147196 0.20090623 40 3205161578584 1 1
44.208748 -21.735832 -0.28631812 9 3205161580888 1 0
12.864045 -5.561883 -1.50964 3 3205161580888 1 0
14.33531 -7.9429216 -1.5298594 3 3205161583192 1 0
75.73302 -32.75691 1.9200466 28 3205161583192 1 0
49.58138 -27.481522 0.6599563 19 3205161585496 1 0
18.823309 -8.144922 -1.4341931 5 3205161585496 1 0
16.32868 -8.037067 -1.4857153 3 3205161587800 1 0
51.55991 -25.38739 1.0031643 26 3205161590104 1 0
32.439903 -12.197665 1.0086269 34 3205161587800 1 1
20.388468 -7.6696134 -1.3960651 5 3205161590104 1 0
21.292828 -11.814146 -1.418127 6 3205161592408 1 0
55.77222 -24.161766 3.5397363 56 3205161592408 1 0
25.916117 -11.231915 -1.315714 4 3205161594712 1 0
24.703976 -12.177293 -1.4434257 4 3205161597016 1 0
51.54632 -25.39933 2.3411572 24 3205161594712 1 0
55.34745 -27.29234 5.0377626 57 3205161599320 1 0
0 0 0 1 3205161597016 1 0
29.366064 -11.066259 -1.2785343 4 3205161599320 1 0
31.075958 -17.265886 -1.241445 6 3205161601624 1 0
0 0 0 9 3205161601624 1 0
42.106274 -20.778221 8.560917 18 3205161603928 1 0
41.142765 -17.859509 -1.0436776 7 3205161603928 1 0
32.797974 -12.419496 -0.6121606 5 3205161624664 1 1
0 0 0 4 3205161624664 1 0
38.28005 -18.959375 -1.243213 9 3205161626968 1 0
0 0 0 1 3205161626968 1 0
7.3525176 -3.642893 -1.6411095 2 3205161629272 1 0
55.82858 -24.340641 0 38 3205161629272 1 0
44.695354 -24.94357 -0.5958838 27 3205161631576 1 0
9.37955 -4.0910034 -1.5920014 3 3205161631576 1 0
11.237328 -5.57174 -1.5965354 3 3205161633880 1 0
32.402496 -12.2913 0.20141768 30 3205161633880 1 1
42.892765 -21.27505 -0.27827442 8 3205161636184 1 0
12.844552 -5.6067533 -1.50964 3 3205161636184 1 0
14.317927 -7.99874 -1.5309747 3 3205161638488 1 0
0 0 0 7 3205161638488 1 0
49.516575 -27.671988 0.66037536 10 3205161640792 1 0
18.805733 -8.215371 -1.4350302 5 3205161640792 1 0
16.300526 -8.094016 -1.4857153 4 3205161643096 1 0
32.4644 -12.336392 1.0107216 46 3205161643096 1 1
51.112797 -25.389294 0.99618334 26 3205161645400 1 0
20.376497 -7.74641 -1.3970885 5 3205161645400 1 0
21.25843 -11.892299 -1.4185921 6 3205161647704 1 0
55.522903 -24.284292 3.5292711 84 3205161647704 1 0
51.500294 -25.600454 2.343111 24 3205161650008 1 0
25.86577 -11.317506 -1.3151556 4 3205161650008 1 0
24.647013 -12.256337 -1.4425883 4 3205161652312 1 0
0 0 0 1 3205161652312 1 0
55.376778 -27.54752 5.049154 57 3205161654616 1 0
29.33846 -11.172966 -1.2790228 4 3205161654616 1 0
31.029451 -17.38207 -1.2420033 6 3205161656920 1 0
0 0 0 9 3205161656920 1 0
41.219357 -18.064009 -1.0472136 7 3205161659224 1 0
0 0 0 8 3205161679960 1 0
32.705864 -12.515325 -0.6112531 5 3205161679960 1 1
40.98723 -20.404226 8.347827 27 3205161659224 1 0
38.19933 -19.085733 -1.2427477 9 3205161682264 1 0
0 0 0 1 3205161682264 1 0
7.3362484 -3.6667821 -1.6403251 2 3205161684568 1 0
55.838463 -24.577267 0 13 3205161684568 1 0
44.764874 -25.187695 -0.5979792 13 3205161686872 1 0
9.365212 -4.123719 -1.5920014 5 3205161686872 1 0
11.224907 -5.614482 -1.5975456 3 3205161689176 1 0
32.415417 -12.425806 0.2017664 30 3205161689176 1 1
42.68231 -21.356628 -0.27739102 25 3205161691480 1 0
12.821263 -5.649951 -1.5092117 3 3205161691480 1 0
14.3350315 -8.074079 -1.5358077 3 3205161693784 1 0
55.724888 -24.565987 1.4170974 25 3205161693784 1 0
44.907024 -25.302086 0.6000745 8 3205161696088 1 0
18.787893 -8.285795 -1.4358673 5 3205161696088 1 0
16.26148 -8.14551 -1.484739 4 3205161698392 1 0
32.47713 -12.471138 1.0124669 46 3205161698392 1 1
42.664097 -21.378561 0.8329685 27 3205161700696 1 0
20.345606 -7.8160586 -1.3968327 5 3205161700696 1 0
21.234179 -11.97624 -1.4197549 6 3205161703000 1 0
55.441452 -24.479568 3.5295036 56 3205161703000 1 0
42.675457 -21.399786 1.9449939 20 3205161705304 1 0
25.837072 -11.412569 -1.315714 4 3205161705304 1 0
24.611221 -12.34588 -1.443007 4 3205161707608 1 0
0 0 0 1 3205161707608 1 0
43.1581 -21.657522 3.941946 15 3205161709912 1 0
29.306742 -11.278179 -1.2793484 4 3205161709912 1 0
30.975548 -17.49421 -1.2422825 6 3205161712216 1 0
41.059937 -20.61958 8.377243 27 3205161714520 1 0
41.170677 -18.214252 -1.0475857 7 3205161714520 1 0
0 0 0 8 3205161735256 1 0
32.602295 -12.606336 -0.61013615 5 3205161735256 1 1
38.18246 -19.244152 -1.2443767 9 3205161737560 1 0
0 0 0 1 3205161737560 1 0
7.326906 -3.694134 -1.6411095 2 3205161739864 1 0
0 0 0 15 3205161739864 1 0
45.856045 -26.01282 -0.61376446 14 3205161742168 1 0
0 0 0 9 3205161712216 1 0
9.361596 -4.161201 -1.5938462 3 3205161742168 1 0
11.201698 -5.6518426 -1.5970405 3 3205161744472 1 0
32.416603 -12.556218 0.20204537 41 3205161744472 1 1
41.89333 -21.14502 -0.2727415 24 3205161746776 1 0
12.805097 -5.6962876 -1.50964 3 3205161746776 1 0
14.31715 -8.129969 -1.5369232 3 3205161749080 1 0
75.78772 -33.72702 1.9302824 28 3205161749080 1 0
51.228016 -29.099592 0.68589264 20 3205161751384 1 0
18.7625 -8.35295 -1.4361463 5 3205161751384 1 0
16.232948 -8.202223 -1.484739 3 3205161753688 1 0
32.493042 -12.60757 1.0143287 51 3205161753688 1 1
0 0 0 17 3205161755992 1 0
20.359133 -7.90292 -1.3996468 5 3205161755992 1 0
21.275557 -12.097661 -1.4253362 6 3205161758296 1 0
55.417667 -24.700583 3.533457 56 3205161758296 1 0
42.58623 -21.541405 1.9443425 20 3205161760600 1 0
25.888311 -11.543367 -1.3203672 4 3205161760600 1 0
0 0 0 1 3205161762904 1 0
24.557283 -12.426303 -1.442379 4 3205161762904 1 0
55.364517 -28.025276 5.065752 57 3205161765208 1 0
29.29327 -11.390549 -1.2804883 4 3205161765208 1 0
30.976824 -17.63783 -1.2447952 6 3205161767512 1 0
0 0 0 9 3205161767512 1 0
41.05441 -20.796566 8.390876 18 3205161769816 1 0
41.015564 -18.317087 -1.0452594 7 3205161769816 1 0
0 0 0 8 3205161790552 1 0
32.576717 -12.727339 -0.6104852 5 3205161790552 1 1
38.257618 -19.449795 -1.2490312 9 3205161792856 1 0
0 0 0 1 3205161792856 1 0
7.3069744 -3.7161312 -1.6395406 2 3205161795160 1 0
41.986374 -18.831268 0 70 3205161795160 1 1
44.896954 -25.67632 -0.6021234 13 3205161797464 1 0
9.339802 -4.1906176 -1.5926164 2 3205161797464 1 0
11.188974 -5.694509 -1.5980506 3 3205161799768 1 0
32.39865 -12.679501 0.2022081 46 3205161799768 1 1
41.822826 -21.29294 -0.27276474 24 3205161802072 1 0
12.777879 -5.737693 -1.5087832 3 3205161802072 1 0
14.312879 -8.193746 -1.5395255 3 3205161804376 1 0
75.63306 -33.974976 1.9293518 28 3205161804376 1 0
46.06558 -26.380226 0.6180018 27 3205161806680 1 0
18.751429 -8.42657 -1.4375414 5 3205161806680 1 0
16.20777 -8.260647 -1.4850644 3 3205161808984 1 0
32.504673 -12.742805 1.0160742 51 3205161808984 1 1
41.797646 -21.31075 0.8189367 26 3205161811288 1 0
21.233198 -12.171853 -1.4253362 6 3205161813592 1 0
55.41851 -24.933199 3.5390384 56 3205161813592 1 0
20.335138 -7.9753957 -1.3999026 5 3205161811288 1 0
42.51078 -21.689926 1.9443425 30 3205161815896 1 0
25.858791 -11.638584 -1.3209256 4 3205161815896 1 0
0 0 0 1 3205161818200 1 0
24.527988 -12.519212 -1.4432163 4 3205161818200 1 0
55.319614 -28.245558 5.070634 57 3205161820504 1 0
29.231012 -11.483963 -1.2795112 4 3205161820504 1 0
30.928936 -17.753815 -1.2453537 6 3205161822808 1 0
0 0 0 9 3205161822808 1 0
38.868534 -19.860083 7.9582376 17 3205161825112 1 0
40.96231 -18.465076 -1.0455385 7 3205161825112 1 0
0 0 0 4 3205161846296 1 0
32.91898 -12.993687 -0.6177454 11 3205161846296 1 1
38.175262 -19.575924 -1.2485657 9 3205161848600 1 0
0 0 0 1 3205161848600 1 0
7.290468 -3.7398243 -1.638756 2 3205161850904 1 0
41.876656 -18.957918 0 78 3205161850904 1 1
44.91447 -25.894812 -0.6035669 7 3205161853208 1 0
9.325117 -4.223194 -1.5926164 3 3205161853208 1 0
11.165498 -5.731719 -1.5975456 3 3205161855512 1 0
32.462067 -12.835168 0.20288229 51 3205161855512 1 1
41.822968 -21.47717 -0.27325293 24 3205161857816 1 0
12.7650175 -5.7855444 -1.50964 3 3205161857816 1 0
14.2945385 -8.249629 -1.5406408 3 3205161860120 1 0
75.57227 -34.265198 1.9308406 28 3205161860120 1 0
45.703026 -26.384882 0.6143698 27 3205161862424 1 0
16.182383 -8.3189945 -1.4853898 3 3205161864728 1 0
18.732801 -8.496919 -1.4383785 5 3205161862424 1 0
32.515755 -12.878274 1.0178196 51 3205161864728 1 1
41.804806 -21.498589 0.82054234 26 3205161867032 1 0
20.314598 -8.049271 -1.4004142 5 3205161867032 1 0
21.187122 -12.243898 -1.4251037 6 3205161869336 1 0
55.40386 -25.159515 3.5436895 56 3205161869336 1 0
51.482544 -26.494413 2.3589056 25 3205161871640 1 0
25.810732 -11.7254715 -1.3205533 4 3205161871640 1 0
0 0 0 1 3205161873944 1 0
24.494793 -12.610239 -1.4438443 4 3205161873944 1 0
55.34473 -28.502373 5.082025 28 3205161876248 1 0
30.877155 -17.867674 -1.2457725 6 3205161878552 1 0
0 0 0 9 3205161878552 1 0
38.80247 -19.99744 7.9589553 17 3205161880856 1 0
40.995884 -18.652664 -1.048051 7 3205161880856 1 0
29.190748 -11.585929 -1.2795112 4 3205161876248 1 0
0 0 0 8 3205161901592 1 0
32.87714 -13.109998 -0.6178152 16 3205161901592 1 1
38.142212 -19.727428 -1.2497294 9 3205161903896 1 0
0 0 0 1 3205161903896 1 0
7.2808533 -3.7670524 -1.6395406 2 3205161906200 1 0
41.846607 -19.120604 0 78 3205161906200 1 1
45.387474 -26.379038 -0.6111569 14 3205161908504 1 0
9.310318 -4.255719 -1.5926164 4 3205161908504 1 0
11.141899 -5.7688346 -1.5970405 3 3205161910808 1 0
32.472786 -12.970659 0.20323099 46 3205161910808 1 1
41.83299 -21.667181 -0.27381086 24 3205161913112 1 0
12.733895 -5.825104 -1.5083548 3 3205161913112 1 0
14.265655 -8.299477 -1.5406408 3 3205161915416 1 0
75.575836 -34.585365 1.9340044 28 3205161915416 1 0
45.389404 -26.415497 0.6113897 54 3205161917720 1 0
18.771961 -8.593815 -1.4436799 5 3205161917720 1 0
16.160322 -8.379102 -1.4860407 3 3205161920024 1 0
32.53371 -13.016947 1.0197978 56 3205161920024 1 1
41.814713 -21.688578 0.82221776 26 3205161922328 1 0
20.293789 -8.1231 -1.400926 5 3205161922328 1 0
21.171858 -12.333861 -1.4269642 6 3205161924632 1 0
55.395557 -25.38936 3.548806 56 3205161924632 1 0
51.513905 -26.738403 2.3646045 25 3205161926936 1 0
25.773277 -11.8171625 -1.3207394 4 3205161926936 1 0
24.457716 -12.699347 -1.4442631 4 3205161929240 1 0
0 0 0 1 3205161929240 1 0
42.0024 -21.816948 3.863836 15 3205161931544 1 0
29.153837 -11.68924 -1.279674 4 3205161931544 1 0
30.835316 -17.987432 -1.24661 6 3205161933848 1 0
0 0 0 9 3205161933848 1 0
40.603935 -21.105555 8.343522 18 3205161936152 1 0
40.93416 -18.797321 -1.0481441 7 3205161936152 1 0
0 0 0 8 3205161956888 1 0
48.816437 -19.66368 -0.9186249 9 3205161956888 1 0
38.05185 -19.849354 -1.2490312 9 3205161959192 1 0
0 0 0 1 3205161959192 1 0
7.274614 -3.7960734 -1.6411095 2 3205161961496 1 0
41.88858 -19.31681 0 55 3205161961496 1 1
42.900085 -25.134117 -0.5788412 12 3205161963800 1 0
9.291818 -4.2865367 -1.5920014 5 3205161963800 1 0
11.132246 -5.813202 -1.5985557 3 3205161966104 1 0
32.497787 -13.112368 0.2036727 41 3205161966104 1 1
41.85637 -21.864931 -0.2744618 25 3205161968408 1 0
12.713484 -5.8695183 -1.5083548 3 3205161968408 1 0
14.243468 -8.353251 -1.5413845 3 3205161970712 1 0
75.625275 -34.92777 1.9383779 28 3205161970712 1 0
45.365917 -26.614252 0.61232096 27 3205161973016 1 0
18.705626 -8.642552 -1.4408897 3 3205161973016 1 0
32.558506 -13.158897 1.0220087 8 3205161975320 1 1
16.138042 -8.439156 -1.4866916 3 3205161975320 1 0
41.83443 -21.88446 0.82410264 26 3205161977624 1 0
20.276413 -8.198378 -1.4016935 5 3205161977624 1 0
21.125233 -12.405667 -1.4267316 6 3205161979928 1 0
55.37908 -25.6161 3.553457 56 3205161979928 1 0
51.494614 -26.956982 2.3680239 25 3205161982232 1 0
25.750002 -11.915445 -1.32167 4 3205161982232 1 0
24.413239 -12.784642 -1.4442631 4 3205161984536 1 0
0 0 0 1 3205161984536 1 0
42.4204 -22.222435 3.9094002 15 3205161986840 1 0
29.109152 -11.789434 -1.2795112 4 3205161986840 1 0
30.786123 -18.103064 -1.2471684 6 3205161989144 1 0
0 0 0 9 3205161989144 1 0
40.610176 -21.289183 8.3600235 18 3205161991448 1 0
41.02068 -19.010715 -1.0520523 7 3205161991448 1 0
0 0 0 8 3205162012184 1 0
48.70675 -19.81738 -0.91785693 9 3205162012184 1 0
37.985867 -19.983921 -1.2491475 9 3205162014488 1 0
0 0 0 1 3205162014488 1 0
7.250906 -3.8159635 -1.638756 2 3205162016792 1 0
0 0 0 3 3205162016792 1 0
42.333378 -25.000998 -0.5723688 6 3205162019096 1 0
9.276798 -4.318945 -1.5920014 3 3205162019096 1 0
11.111886 -5.8520255 -1.5985557 3 3205162021400 1 0
0 0 0 3 3205162021400 1 0
41.871803 -22.059378 -0.27506626 25 3205162023704 1 0
12.696523 -5.9155407 -1.5087832 3 3205162023704 1 0
14.207366 -8.398867 -1.5406408 3 3205162026008 1 0
75.55727 -35.216877 1.9397737 28 3205162026008 1 0
45.276184 -26.774483 0.6123675 27 3205162028312 1 0
18.67896 -8.709481 -1.4411688 5 3205162028312 1 0
16.115538 -8.499156 -1.4873426 3 3205162030616 1 0
78.92848 -32.22083 2.4810734 40 3205162030616 1 0
41.83914 -22.073278 0.82570827 26 3205162032920 1 0
21.09211 -12.4854355 -1.4274292 6 3205162035224 1 0
20.262453 -8.275143 -1.4027168 5 3205162032920 1 0
55.37255 -25.848103 3.5588057 56 3205162035224 1 0
51.48856 -27.183216 2.3720946 25 3205162037528 1 0
25.722733 -12.01202 -1.3224145 4 3205162037528 1 0
24.389656 -12.880976 -1.4455191 4 3205162039832 1 0
0 0 0 1 3205162039832 1 0
45.687817 -24.13773 4.21826 19 3205162042136 1 0
29.093716 -11.901566 -1.2806511 4 3205162042136 1 0
30.722744 -18.210417 -1.2471684 6 3205162044440 1 0
0 0 0 9 3205162044440 1 0
40.82088 -21.581627 8.418857 9 3205162046744 1 0
40.81642 -19.089413 -1.0485163 7 3205162046744 1 0
0 0 0 8 3205162067480 1 0
48.485607 -19.924952 -0.9149948 18 3205162067480 1 0
37.89851 -20.106474 -1.2485657 9 3205162069784 1 0
0 0 0 1 3205162069784 1 0
7.2445827 -3.8447175 -1.6403251 1 3205162072088 1 0
42.02698 -25.015842 -0.5693887 6 3205162074392 1 0
9.258278 -4.349216 -1.5913866 4 3205162074392 1 0
56.00413 -26.299839 0 13 3205162072088 1 0
58.509506 -24.080046 0.3677314 38 3205162076696 1 0
11.095239 -5.891993 -1.5990608 3 3205162076696 1 0
49.69829 -26.40002 -0.32707125 10 3205162079000 1 0
12.67263 -5.95721 -1.5083548 3 3205162079000 1 0
75.5781 -35.54019 1.9434028 57 3205162081304 1 0
14.188964 -8.453286 -1.5417562 3 3205162081304 1 0
44.927498 -26.774195 0.6088752 18 3205162083608 1 0
18.674614 -8.78462 -1.4431219 5 3205162083608 1 0
16.093807 -8.557229 -1.4879935 3 3205162085912 1 0
78.10956 -32.19444 2.458732 40 3205162085912 1 0
49.58946 -26.37551 0.9804064 37 3205162088216 1 0
20.245607 -8.347738 -1.4034842 5 3205162088216 1 0
21.039936 -12.549786 -1.4267316 3 3205162090520 1 0
55.35803 -26.067215 3.5634568 56 3205162090520 1 0
51.492996 -27.405256 2.376491 25 3205162092824 1 0
25.65728 -12.085709 -1.3211117 4 3205162092824 1 0
24.346807 -12.961783 -1.4455191 4 3205162095128 1 0
0 0 0 1 3205162095128 1 0
45.614914 -24.292189 4.2189107 19 3205162097432 1 0
29.032099 -11.988403 -1.279674 4 3205162097432 1 0
30.64899 -18.303106 -1.24661 6 3205162099736 1 0
40.57987 -21.624418 8.3837 18 3205162102040 1 0
40.73203 -19.212646 -1.0479579 7 3205162102040 1 0
0 0 0 8 3205162122776 1 0
48.208496 -19.98833 -0.91094583 18 3205162122776 1 0
37.989864 -20.309202 -1.2536857 9 3205162125080 1 0
0 0 0 1 3205162125080 1 0
40.478996 -19.086817 11.991604 9 3205162099736 1 0
7.2392173 -3.871473 -1.641894 2 3205162127384 1 0
0 0 0 108 3205162127384 1 0
41.69955 -25.002407 -0.56603605 6 3205162129688 1 0
9.247854 -4.380577 -1.5920014 5 3205162129688 1 0
11.0691595 -5.9240427 -1.5980506 3 3205162131992 1 0
58.472084 -24.285715 0.36798713 19 3205162131992 1 0
44.248634 -23.689877 -0.29171157 9 3205162134296 1 0
12.66398 -6.003484 -1.50964 4 3205162134296 1 0
14.168054 -8.503773 -1.5424998 3 3205162136600 1 0
0 0 0 176 3205162136600 1 0
42.5004 -25.51789 0.57711834 8 3205162138904 1 0
18.659994 -8.852934 -1.4442381 5 3205162138904 1 0
16.068857 -8.612434 -1.4883189 3 3205162141208 1 0
77.25298 -32.141495 2.4351103 41 3205162141208 1 0
49.59631 -26.591915 0.9822912 37 3205162143512 1 0
20.232372 -8.421406 -1.4045075 5 3205162143512 1 0
21.004498 -12.624518 -1.4271967 3 3205162145816 1 0
55.36392 -26.297604 3.5695033 56 3205162145816 1 0
45.50461 -24.415976 2.103915 13 3205162148120 1 0
25.648745 -12.187835 -1.3227868 4 3205162148120 1 0
24.31311 -13.050238 -1.4461471 4 3205162150424 1 0
0 0 0 1 3205162150424 1 0
51.30585 -27.548878 4.7539635 26 3205162152728 1 0
29.00931 -12.095464 -1.2804883 4 3205162152728 1 0
30.599419 -18.416891 -1.2471684 6 3205162155032 1 0
40.405987 -19.222914 11.989533 9 3205162155032 1 0
40.84085 -21.94573 8.453296 18 3205162157336 1 0
40.679585 -19.360697 -1.0483302 7 3205162157336 1 0
0 0 0 8 3205162178072 1 0
47.939407 -20.082989 -0.9072459 9 3205162178072 1 0
37.925877 -20.453724 -1.2540348 9 3205162180376 1 0
0 0 0 1 3205162180376 1 0
7.2250357 -3.897875 -1.641894 2 3205162182680 1 0
0 0 0 123 3205162182680 1 0
41.378853 -25.015526 -0.5629162 6 3205162184984 1 0
9.2318325 -4.4142413 -1.5920014 5 3205162184984 1 0
11.047545 -5.964252 -1.5980506 3 3205162187288 1 0
55.53965 -23.304907 0.35006317 14 3205162187288 1 0
49.596443 -26.78501 -0.32760596 10 3205162189592 1 0
12.638523 -6.0476832 -1.5092117 5 3205162189592 1 0
14.143979 -8.559152 -1.5432433 3 3205162191896 1 0
0 0 0 231 3205162191896 1 0
18.631474 -8.922042 -1.444517 5 3205162194200 1 0
44.24532 -26.783606 0.6021234 8 3205162194200 1 0
16.041193 -8.6722355 -1.4886444 3 3205162196504 1 0
76.57259 -32.18291 2.417307 41 3205162196504 1 0
49.567104 -26.806423 0.9836176 50 3205162198808 1 0
20.216646 -8.500371 -1.4055309 5 3205162198808 1 0
20.962425 -12.701964 -1.4274292 6 3205162201112 1 0
55.34831 -26.534304 3.5746195 56 3205162201112 1 0
51.494144 -27.86795 2.3854465 26 3205162203416 1 0
25.601282 -12.277985 -1.3226006 4 3205162203416 1 0
24.241674 -13.123833 -1.4446818 4 3205162205720 1 0
51.38945 -27.830622 4.7708874 26 3205162208024 1 0
28.958569 -12.195867 -1.2801626 4 3205162208024 1 0
0 0 0 1 3205162205720 1 0
30.53018 -18.523737 -1.2470288 6 3205162210328 1 0
17.12617 -8.222643 5.090453 1 3205162210328 1 0
40.312786 -21.84708 8.3600235 18 3205162212632 1 0
40.6285 -19.513891 -1.0487955 7 3205162212632 1 0
0 0 0 8 3205162233368 1 0
47.662743 -20.162947 -0.9033366 9 3205162233368 1 0
0 0 0 1 3205162235672 1 0
37.71024 -20.507668 -1.2492639 9 3205162235672 1 0
7.2113853 -3.9230714 -1.641894 2 3205162237976 1 0
0 0 0 7 3205162237976 1 0
41.076096 -25.028696 -0.55998266 12 3205162240280 1 0
9.216368 -4.4464397 -1.5920014 5 3205162240280 1 0
11.030145 -6.004676 -1.5985557 3 3205162242584 1 0
55.5574 -23.54077 0.35069087 44 3205162242584 1 0
49.66072 -27.044056 -0.32865208 10 3205162244888 1 0
12.620917 -6.093492 -1.50964 4 3205162244888 1 0
14.107216 -8.604323 -1.5424998 3 3205162247192 1 0
43.35493 -20.939924 1.1203529 219 3205162247192 1 0
44.691032 -27.267033 0.60948056 9 3205162249496 1 0
18.6074 -8.990496 -1.4450752 5 3205162249496 1 0
16.031826 -8.739626 -1.4905971 3 3205162251800 1 0
75.78256 -32.162586 2.3958964 3 3205162251800 1 0
49.561012 -27.027151 0.9853629 37 3205162254104 1 0
20.205221 -8.578689 -1.40681 5 3205162254104 1 0
20.931591 -12.783384 -1.4283595 6 3205162256408 1 0
55.34522 -26.770815 3.5804334 56 3205162256408 1 0
51.203598 -27.942232 2.376491 25 3205162258712 1 0
25.56546 -12.370755 -1.3229729 4 3205162258712 1 0
24.223764 -13.223683 -1.4463565 4 3205162261016 1 0
0 0 0 1 3205162261016 1 0
51.32698 -28.028942 4.774142 27 3205162263320 1 0
28.912144 -12.295312 -1.2799997 4 3205162263320 1 0
30.482386 -18.640623 -1.2477268 6 3205162265624 1 0
0 0 0 9 3205162265624 1 0
40.201748 -21.968794 8.352849 18 3205162267928 1 0
40.55294 -19.652105 -1.0486093 7 3205162267928 1 0
0 0 0 8 3205162288664 1 0
47.42289 -20.256931 -0.9001253 18 3205162288664 1 0
37.652596 -20.646593 -1.2497294 9 3205162290968 1 0
0 0 0 1 3205162290968 1 0
7.2011437 -3.9500015 -1.6426784 1 3205162293272 1 0
0 0 0 3 3205162293272 1 0
40.869736 -25.097775 -0.5583529 6 3205162295576 1 0
9.200889 -4.478383 -1.5920014 6 3205162295576 1 0
11.005815 -6.040912 -1.5980506 3 3205162297880 1 0
55.63739 -23.802168 0.35171378 30 3205162297880 1 0
45.2018 -24.81866 -0.29970875 28 3205162300184 1 0
14.084258 -8.657071 -1.5432433 3 3205162302488 1 0
12.603369 -6.1387935 -1.5100684 5 3205162300184 1 0
41.148876 -25.300524 0.5623574 7 3205162304792 1 0
18.590714 -9.06144 -1.4461912 5 3205162304792 1 0
16.012215 -8.800364 -1.4915736 3 3205162307096 1 0
75.818726 -32.485508 2.4005508 42 3205162307096 1 0
0 0 0 42 3205162302488 1 0
45.44481 -24.984785 0.9052214 21 3205162309400 1 0
20.190395 -8.654136 -1.4078333 5 3205162309400 1 0
55.32876 -26.996597 3.5853171 56 3205162311704 1 0
20.884375 -12.852759 -1.4281269 6 3205162311704 1 0
45.40015 -24.976574 2.1110795 14 3205162314008 1 0
25.533892 -12.463137 -1.3235313 4 3205162314008 1 0
24.17862 -13.306049 -1.4463565 4 3205162316312 1 0
0 0 0 1 3205162316312 1 0
28.873894 -12.395006 -1.2801626 4 3205162318616 1 0
30.432653 -18.752205 -1.2482852 6 3205162320920 1 0
0 0 0 9 3205162320920 1 0
39.968678 -22.017273 8.319845 18 3205162323224 1 0
40.514996 -19.803173 -1.0493537 7 3205162323224 1 0
0 0 0 8 3205162343960 1 0
45.465378 -25.028828 4.2368107 19 3205162318616 1 0
47.215893 -20.353916 -0.89747256 9 3205162343960 1 0
37.667606 -20.818304 -1.252522 9 3205162346264 1 0
0 0 0 1 3205162346264 1 0
7.1844573 -3.9721708 -1.641894 2 3205162348568 1 0
50.68637 -24.872145 0 11 3205162348568 1 0
40.89062 -25.300184 -0.5597964 6 3205162350872 1 0
9.178695 -4.505787 -1.5907717 5 3205162350872 1 0
10.98884 -6.079936 -1.5985557 3 3205162353176 1 0
55.784435 -24.088081 0.35315514 46 3205162353176 1 0
45.17343 -25.002691 -0.30008072 9 3205162355480 1 0
12.589632 -6.184976 -1.5109252 6 3205162355480 1 0
14.075028 -8.717538 -1.5454739 3 3205162357784 1 0
0 0 0 3 3205162357784 1 0
18.566795 -9.12845 -1.4467492 5 3205162360088 1 0
43.975986 -27.246347 0.6022631 8 3205162360088 1 0
15.992375 -8.86107 -1.4925499 3 3205162362392 1 0
49.57699 -27.479559 0.98941183 63 3205162364696 1 0
55.853474 -24.158382 1.7710317 33 3205162362392 1 0
20.175098 -8.730022 -1.4088566 5 3205162364696 1 0
20.863514 -12.939708 -1.4297549 6 3205162367000 1 0
55.32096 -27.230284 3.5908985 28 3205162367000 1 0
45.334026 -25.14587 2.1120565 14 3205162369304 1 0
25.501167 -12.557116 -1.3240896 4 3205162369304 1 0
24.135517 -13.392306 -1.4465659 4 3205162371608 1 0
0 0 0 1 3205162371608 1 0
45.290222 -25.139668 4.2286744 19 3205162373912 1 0
28.855938 -12.507265 -1.2813023 4 3205162373912 1 0
30.383442 -18.86975 -1.2489831 6 3205162376216 1 0
0 0 0 9 3205162376216 1 0
39.897495 -22.162218 8.3212805 27 3205162378520 1 0
40.41606 -19.93209 -1.0486093 7 3205162378520 1 0
0 0 0 8 3205162399256 1 0
47.04197 -20.483725 -0.8955877 9 3205162399256 1 0
37.598186 -20.959843 -1.2527548 9 3205162401560 1 0
0 0 0 1 3205162401560 1 0
7.1767597 -4.002193 -1.6434629 2 3205162403864 1 0
50.476944 -24.998436 0 11 3205162403864 1 0
40.676003 -25.37279 -0.5581201 18 3205162406168 1 0
9.169301 -4.542708 -1.5920014 5 3205162406168 1 0
10.96666 -6.119852 -1.5985557 3 3205162408472 1 0
0 0 0 7 3205162408472 1 0
44.733143 -24.971485 -0.29775596 19 3205162410776 1 0
12.570668 -6.2323875 -1.5113535 4 3205162410776 1 0
0 0 0 1 3205162413080 1 0
14.060257 -8.779 -1.5473329 3 3205162413080 1 0
43.34462 -27.072453 0.59495246 17 3205162415384 1 0
18.551554 -9.204364 -1.4481444 5 3205162415384 1 0
15.96727 -8.922586 -1.4932008 3 3205162417688 1 0
55.79528 -24.372494 1.7719626 33 3205162417688 1 0
51.29306 -28.672598 1.0257128 27 3205162419992 1 0
20.827051 -13.020926 -1.4304525 6 3205162422296 1 0
50.870335 -25.26701 3.3078778 24 3205162422296 1 0
20.1472 -8.80419 -1.4091125 5 3205162419992 1 0
45.379616 -25.384335 2.1184068 14 3205162424600 1 0
25.470297 -12.655573 -1.3248341 4 3205162424600 1 0
24.115334 -13.49418 -1.4482406 4 3205162426904 1 0
0 0 0 1 3205162426904 1 0
45.02623 -25.203857 4.2124014 19 3205162429208 1 0
28.811094 -12.61022 -1.2813023 4 3205162429208 1 0
30.31601 -18.977896 -1.2489831 6 3205162431512 1 0
41.467396 -20.626709 12.409856 10 3205162431512 1 0
39.749767 -22.265495 8.306931 18 3205162433816 1 0
40.352085 -20.079252 -1.0487955 7 3205162433816 1 0
0 0 0 8 3205162454552 1 0
43.125866 -18.95787 -0.82228756 8 3205162454552 1 0
37.486454 -21.069408 -1.2514747 9 3205162456856 1 0
0 0 0 1 3205162456856 1 0
7.159327 -4.0252976 -1.6426784 1 3205162459160 1 0
42.79626 -21.380968 0 17 3205162459160 1 0
40.373856 -25.380512 -0.5551865 5 3205162461464 1 0
9.153388 -4.574687 -1.5920014 6 3205162461464 1 0
10.969439 -6.1717153 -1.6020912 3 3205162463768 1 0
55.724834 -24.534994 0.3538758 15 3205162463768 1 0
44.422615 -25.001923 -0.2962681 19 3205162466072 1 0
12.541722 -6.2726717 -1.5104967 4 3205162466072 1 0
14.032897 -8.830148 -1.5477046 3 3205162468376 1 0
51.523376 -25.778494 1.3406082 11 3205162468376 1 0
43.337864 -27.278986 0.59616315 26 3205162470680 1 0
18.530016 -9.274423 -1.4489815 5 3205162470680 1 0
15.956867 -8.990009 -1.4951535 3 3205162472984 1 0
0 0 0 3 3205162472984 1 0
51.22402 -28.86914 1.0263411 27 3205162475288 1 0
20.138258 -8.88413 -1.4106475 3 3205162475288 1 0
20.791609 -13.099934 -1.4311502 3 3205162477592 1 0
43.12385 -21.60737 2.8090448 31 3205162477592 1 0
45.468273 -25.642714 2.1267111 14 3205162479896 1 0
25.429539 -12.746194 -1.3250203 4 3205162479896 1 0
24.144623 -13.621456 -1.4528462 4 3205162482200 1 0
43.237785 -21.680193 5.9389367 23 3205162482200 1 0
51.184086 -28.885885 4.7979 27 3205162484504 1 0
28.777868 -12.715558 -1.2817909 4 3205162484504 1 0
30.32058 -19.128395 -1.2519147 6 3205162486808 1 0
41.384785 -20.766134 12.40675 20 3205162486808 1 0
39.36342 -22.229958 8.242358 18 3205162489112 1 0
40.29247 -20.225367 -1.0490745 7 3205162489112 1 0
0 0 0 8 3205162509296 1 0
42.430294 -18.82024 -0.8102105 8 3205162509296 1 0
37.371 -21.168255 -1.2499621 18 3205162511600 1 0
0 0 0 1 3205162511600 1 0
7.149293 -4.0510545 -1.6434629 1 3205162513904 1 0
0 0 0 11 3205162513904 1 0
40.116577 -25.405996 -0.55281174 5 3205162516208 1 0
9.138066 -4.6052146 -1.5920014 6 3205162516208 1 0
10.96599 -6.218162 -1.6046166 4 3205162518512 1 0
42.45743 -18.863325 0.2700215 9 3205162518512 1 1
44.039337 -24.980984 -0.29426882 28 3205162520816 1 0
12.524174 -6.316473 -1.5109252 4 3205162520816 1 0
13.996424 -8.87298 -1.5469611 3 3205162523120 1 0
42.6394 -21.51303 1.1113267 23 3205162523120 1 0
43.313324 -27.467592 0.5970944 26 3205162525424 1 0
18.50937 -9.3421545 -1.4498185 5 3205162525424 1 0
15.936842 -9.049707 -1.49613 3 3205162527728 1 0
75.75058 -33.71049 2.4130015 41 3205162527728 1 0
46.19154 -26.239115 0.92728126 11 3205162530032 1 0
20.111748 -8.953801 -1.4109033 3 3205162530032 1 0
20.726868 -13.157476 -1.4297549 3 3205162532336 1 0
45.433044 -25.826607 2.1291535 15 3205162534640 1 0
49.83637 -25.18235 3.2518318 23 3205162532336 1 0
24.046038 -13.673932 -1.449706 4 3205162536944 1 0
43.14958 -21.820057 5.936987 11 3205162536944 1 0
0 0 0 8 3205162539248 1 0
25.46812 -12.873941 -1.3293011 4 3205162534640 1 0
28.814638 -12.849446 -1.2853731 4 3205162539248 1 0
30.288761 -19.253363 -1.2533107 6 3205162541552 1 0
41.2653 -20.883038 12.392256 10 3205162541552 1 0
41.47916 -23.612543 8.70226 9 3205162543856 1 0
40.208687 -20.356033 -1.0487024 7 3205162543856 1 0
0 0 0 8 3205162564592 1 0
42.021587 -18.823576 -0.8037182 7 3205162564592 1 0
37.203053 -21.253248 -1.2469367 18 3205162566896 1 0
0 0 0 1 3205162566896 1 0
7.1310506 -4.075181 -1.6426784 2 3205162569200 1 0
41.86506 -21.28225 0 24 3205162569200 1 0
39.83159 -25.429306 -0.5501576 5 3205162571504 1 0
9.121227 -4.638478 -1.5920014 6 3205162571504 1 0
10.9260845 -6.2481456 -1.6020912 3 3205162573808 1 0
56.059467 -25.151014 0.35710722 16 3205162573808 1 0
43.72619 -25.013517 -0.29278097 19 3205162576112 1 0
12.511804 -6.367291 -1.5122104 4 3205162576112 1 0
13.977622 -8.932189 -1.5484482 3 3205162578416 1 0
41.844906 -21.30265 1.0926231 23 3205162578416 1 0
44.416862 -28.393028 0.6137179 9 3205162580720 1 0
18.503931 -9.423478 -1.4520508 5 3205162580720 1 0
15.914475 -9.113076 -1.4971063 3 3205162583024 1 0
75.67591 -34.00481 2.4145143 83 3205162583024 1 0
45.864273 -26.272032 0.922604 33 3205162585328 1 0
20.119436 -9.044144 -1.4137175 3 3205162585328 1 0
20.689558 -13.238309 -1.4304525 3 3205162587632 1 0
49.425396 -25.197987 3.2309017 23 3205162587632 1 0
45.36443 -26.00324 2.1302934 15 3205162589936 1 0
25.329256 -12.917968 -1.3244619 4 3205162589936 1 0
24.05587 -13.793658 -1.4532648 4 3205162592240 1 0
0 0 0 1 3205162592240 1 0
51.09876 -29.309954 4.8089657 27 3205162594544 1 0
28.775862 -12.955533 -1.2856988 4 3205162594544 1 0
30.230059 -19.36764 -1.2537295 6 3205162596848 1 0
0 0 0 9 3205162596848 1 0
39.394978 -22.611963 8.281819 18 3205162599152 1 0
40.659557 -20.766268 -1.062381 16 3205162599152 1 0
41.72604 -18.866337 -0.7993202 15 3205162619888 1 0
0 0 0 8 3205162619888 1 0
37.104385 -21.369013 -1.2461221 18 3205162622192 1 0
0 0 0 1 3205162622192 1 0
41.77984 -21.422781 0 24 3205162624496 1 0
7.120181 -4.102006 -1.6434629 2 3205162624496 1 0
38.9521 -25.059639 -0.53921497 5 3205162626800 1 0
9.101464 -4.668484 -1.5913866 6 3205162626800 1 0
10.90077 -6.2842646 -1.6015861 3 3205162629104 1 0
0 0 0 8 3205162629104 1 0
43.430706 -25.046103 -0.2913861 19 3205162631408 1 0
12.496577 -6.4145584 -1.5130671 4 3205162631408 1 0
13.993236 -9.011113 -1.553653 3 3205162633712 1 0
41.731163 -21.428493 1.0915996 23 3205162633712 1 0
44.35111 -28.56956 0.61418355 18 3205162636016 1 0
18.48867 -9.497128 -1.4534459 5 3205162636016 1 0
75.69876 -34.333168 2.4190524 83 3205162638320 1 0
15.889473 -9.172559 -1.4977572 3 3205162638320 1 0
45.484825 -26.265968 0.9168098 43 3205162640624 1 0
20.105919 -9.122565 -1.4149966 3 3205162640624 1 0
20.65329 -13.31694 -1.4311502 3 3205162642928 1 0
42.37319 -21.78933 2.7748592 45 3205162642928 1 0
45.2457 -26.145437 2.128991 15 3205162645232 1 0
25.38705 -13.05931 -1.3298595 4 3205162645232 1 0
24.052532 -13.903533 -1.4559863 4 3205162647536 1 0
0 0 0 1 3205162647536 1 0
51.172153 -29.589922 4.8255644 27 3205162649840 1 0
28.755934 -13.067474 -1.2868385 4 3205162649840 1 0
40.175777 -20.688927 12.10859 28 3205162652144 1 0
39.455452 -22.830143 8.311235 18 3205162654448 1 0
30.185778 -19.488222 -1.2547067 6 3205162652144 1 0
40.44107 -20.832985 -1.058566 16 3205162654448 1 0
0 0 0 8 3205162675184 1 0
37.01919 -21.492378 -1.2457731 18 3205162677488 1 0
41.594437 -18.981985 -0.79806364 23 3205162675184 1 0
0 0 0 1 3205162677488 1 0
7.1092105 -4.128805 -1.6442474 2 3205162679792 1 0
41.790073 -21.612589 0 33 3205162679792 1 0
9.081602 -4.69841 -1.5907717 6 3205162682096 1 0
39.166443 -25.391273 -0.5434058 11 3205162682096 1 0
10.878768 -6.322277 -1.6015861 3 3205162684400 1 0
41.901882 -19.151752 0.26776648 17 3205162684400 1 1
43.080204 -25.044765 -0.2896193 18 3205162686704 1 0
12.484706 -6.463626 -1.5143523 5 3205162686704 1 0
41.751984 -21.623686 1.094112 23 3205162689008 1 0
13.924946 -9.0360565 -1.5495635 3 3205162689008 1 0
39.000694 -25.31606 0.54131037 7 3205162691312 1 0
18.45895 -9.563443 -1.4537249 5 3205162691312 1 0
15.867695 -9.233983 -1.4987336 3 3205162693616 1 0
45.420513 -26.440678 0.9173683 96 3205162695920 1 0
20.08484 -9.197679 -1.4157641 3 3205162695920 1 0
75.72387 -34.663765 2.423707 83 3205162693616 1 0
20.613377 -13.393304 -1.4316152 6 3205162698224 1 0
48.415245 -25.110374 3.176251 22 3205162698224 1 0
44.964222 -26.19257 2.1200352 14 3205162700528 1 0
25.34131 -13.147847 -1.3298595 4 3205162700528 1 0
24.014206 -13.993441 -1.4566144 4 3205162702832 1 0
0 0 0 1 3205162702832 1 0
51.178772 -29.832613 4.835979 27 3205162705136 1 0
28.71741 -13.171104 -1.2871642 4 3205162705136 1 0
30.137672 -19.60655 -1.2555443 6 3205162707440 1 0
40.103313 -20.82904 12.10859 19 3205162707440 1 0
38.05666 -22.198439 8.032855 17 3205162709744 1 0
40.314877 -20.94637 -1.0571702 16 3205162709744 1 0
0 0 0 8 3205162730480 1 0
41.444374 -19.088581 -0.796458 7 3205162730480 1 0
36.906143 -21.598986 -1.244493 18 3205162732784 1 0
0 0 0 1 3205162732784 1 0
7.0914307 -4.1515107 -1.6434629 2 3205162735088 1 0
41.82109 -21.813221 0 33 3205162735088 1 0
38.950882 -25.443861 -0.5416363 23 3205162737392 1 0
9.068753 -4.7317123 -1.5913866 6 3205162737392 1 0
10.853394 -6.357891 -1.6010811 3 3205162739696 1 0
56.09887 -25.875786 0.35906002 17 3205162739696 1 0
42.769115 -25.061981 -0.2881082 9 3205162742000 1 0
12.451728 -6.501191 -1.5130671 4 3205162742000 1 0
13.940384 -9.114515 -1.5547683 3 3205162744304 1 0
41.776447 -21.819313 1.0967175 23 3205162744304 1 0
38.72928 -25.329653 0.53874934 7 3205162746608 1 0
