# .PCD v.7 - Point Cloud Data file format
VERSION .7
FIELDS x y z rgb timestamp_ns device_id active
SIZE 4 4 4 4 8 1 1
TYPE F F F F F U U
COUNT 1 1 1 1 1 1 1
WIDTH 1005
HEIGHT 1
VIEWPOINT 0 0 0 1 0 0 0
POINTS 1005               
DATA ascii
27.293573 11.056653 -1.3717375 4 3205949121120 1 0
26.22559 9.155818 -1.4557769 4 3205949123424 1 0
68.81822 27.867258 9.116314 28 3205949123424 1 0
31.417198 14.541467 -1.4104259 5 3205949125728 1 0
42.971325 14.995391 3.7154274 41 3205949125728 1 0
33.07888 9.753944 -1.2043118 5 3205949128032 1 0
55.361195 22.400164 16.002264 15 3205949128032 1 0
49.22269 17.161627 9.504397 46 3205949130336 1 0
65.13137 26.342886 -1.6348405 20 3205949130336 1 0
0 0 0 8 3205949151072 1 0
0 0 0 7 3205949151072 1 0
42.3429 14.697038 -1.3044195 19 3205949153376 1 0
0 0 0 1 3205949153376 1 0
8.08572 2.805201 -1.7117118 1 3205949155680 1 0
69.01857 27.79194 0 23 3205949155680 1 0
0 0 0 100 3205949157984 1 0
9.995112 4.0230765 -1.6762441 3 3205949157984 1 0
105.80345 48.701443 0.6769485 43 3205949160288 1 0
12.364746 4.2857056 -1.6657304 3 3205949160288 1 0
48.20427 16.700077 -0.2965006 28 3205949162592 1 0
13.718616 5.517166 -1.5927473 3 3205949162592 1 0
16.116093 4.712675 -1.5674088 2 3205949164896 1 0
69.04573 27.756205 1.7316151 23 3205949164896 1 0
46.226894 13.510392 0.5606811 15 3205949167200 1 0
20.156523 8.099465 -1.519017 6 3205949167200 1 0
17.828485 6.167859 -1.5400667 4 3205949169504 1 0
81.84742 37.616764 2.6215227 36 3205949169504 1 0
21.626081 9.935456 -1.5252594 4 3205949171808 1 0
42.06907 14.547168 0.7769811 220 3205949171808 1 0
23.32994 6.807421 -1.4153364 6 3205949174112 1 0
56.23383 22.567862 3.528806 28 3205949174112 1 0
49.70205 17.17041 2.1423428 62 3205949176416 1 0
27.301298 10.951996 -1.3702486 4 3205949176416 1 0
26.226393 9.056079 -1.4541022 4 3205949178720 1 0
60.03188 24.071829 7.941494 28 3205949178720 1 0
43.04483 14.856547 3.71738 41 3205949181024 1 0
33.01607 9.612887 -1.2008219 5 3205949183328 1 0
31.332201 14.372572 -1.4044012 5 3205949181024 1 0
49.089226 19.667425 14.169826 12 3205949183328 1 0
54.04723 21.644709 -1.3547522 11 3205949185632 1 0
0 0 0 8 3205949206368 1 0
49.28118 16.992928 9.504397 46 3205949185632 1 0
86.32235 39.430374 -1.6565126 29 3205949206368 1 0
42.295616 14.515399 -1.3013941 28 3205949208672 1 0
0 0 0 1 3205949208672 1 0
8.095463 2.7769594 -1.7117118 1 3205949210976 1 0
56.641663 22.578634 0 13 3205949210976 1 0
45.48984 13.151473 -0.55127513 29 3205949213280 1 0
9.99808 3.9837735 -1.6743994 2 3205949213280 1 0
86.26235 39.342327 0.55103916 32 3205949215584 1 0
0 0 0 94 3205949217888 1 0
13.723011 5.4633613 -1.5910337 3 3205949217888 1 0
16.14775 4.6608086 -1.5688958 2 3205949220192 1 0
12.372123 4.2399454 -1.6647203 2 3205949215584 1 0
64.50522 25.669744 1.6154855 19 3205949220192 1 0
46.2584 13.344513 0.5604949 7 3205949222496 1 0
20.166134 8.021682 -1.5176219 6 3205949222496 1 0
17.831045 6.0991373 -1.5384395 4 3205949224800 1 0
83.455574 38.003582 2.6687655 35 3205949224800 1 0
42.096886 14.3924675 0.7765623 218 3205949227104 1 0
21.631565 9.846676 -1.5232128 4 3205949227104 1 0
23.345888 6.723733 -1.4148712 6 3205949229408 1 0
49.735207 16.98777 2.141203 46 3205949231712 1 0
27.302227 10.841883 -1.3683873 4 3205949231712 1 0
26.242723 8.959314 -1.4532648 4 3205949234016 1 0
49.303524 19.570435 6.513185 17 3205949234016 1 0
55.99311 22.244638 3.5088062 28 3205949229408 1 0
49.71446 16.964535 4.2882333 60 3205949236320 1 0
31.334879 14.241617 -1.4022844 5 3205949236320 1 0
33.034058 9.493165 -1.2002635 5 3205949238624 1 0
49.14321 19.490253 14.165684 37 3205949238624 1 0
49.280605 16.800484 9.492918 46 3205949240928 1 0
60.639156 24.039352 -1.5178734 16 3205949240928 1 0
0 0 0 8 3205949261664 1 0
86.18255 39.00349 -1.6512071 29 3205949261664 1 0
42.205936 14.320139 -1.2970887 28 3205949263968 1 0
0 0 0 1 3205949263968 1 0
8.101393 2.7474244 -1.7109272 1 3205949266272 1 0
0 0 0 11 3205949266272 1 0
45.66624 13.029917 -0.5528583 17 3205949268576 1 0
10.008248 3.9473991 -1.6737845 4 3205949268576 1 0
12.371815 4.19164 -1.6626999 3 3205949270880 1 0
83.3701 37.67224 0.53172034 35 3205949270880 1 0
0 0 0 19 3205949273184 1 0
13.727198 5.4095936 -1.5893202 3 3205949273184 1 0
16.056673 4.5738635 -1.5584861 2 3205949275488 1 0
44.833992 17.660578 1.1212834 24 3205949275488 1 0
46.874035 13.34505 0.5673864 16 3205949277792 1 0
20.1903 7.9497786 -1.5173428 6 3205949277792 1 0
17.840897 6.0330267 -1.5374631 4 3205949280096 1 0
80.78871 36.449215 2.5793996 37 3205949280096 1 0
0 0 0 43 3205949282400 1 0
21.636694 9.757979 -1.5211661 4 3205949282400 1 0
55.99609 22.019823 3.5041552 84 3205949284704 1 0
23.342327 6.6345572 -1.4132433 6 3205949284704 1 0
49.767696 16.805107 2.140063 46 3205949287008 1 0
27.321312 10.739206 -1.3674567 4 3205949287008 1 0
26.167864 8.831889 -1.4474032 4 3205949289312 1 0
49.319805 19.377888 6.5063605 35 3205949289312 1 0
49.743153 16.7807 4.2856297 60 3205949291616 1 0
31.337025 14.110818 -1.4001676 5 3205949291616 1 0
32.982384 9.353802 -1.1971923 5 3205949293920 1 0
49.19656 19.312946 14.161543 37 3205949293920 1 0
49.297928 16.614536 9.485025 45 3205949296224 1 0
0 0 0 8 3205949316960 1 0
49.599636 19.462854 -1.2398323 21 3205949296224 1 0
80.00114 35.870056 -1.5303667 29 3205949316960 1 0
41.857635 14.039225 -1.2848707 18 3205949319264 1 0
0 0 0 1 3205949319264 1 0
8.107215 2.7178817 -1.7101427 1 3205949321568 1 0
0 0 0 3 3205949321568 1 0
45.780746 12.889944 -0.55369645 17 3205949323872 1 0
10.007238 3.9066904 -1.6713248 2 3205949323872 1 0
12.375084 4.144648 -1.6611848 3 3205949326176 1 0
94.66889 42.380493 0.60283494 43 3205949326176 1 0
46.56343 15.587438 -0.2853882 18 3205949328480 1 0
13.742292 5.3601985 -1.5888919 3 3205949328480 1 0
16.076374 4.518865 -1.5588579 2 3205949330784 1 0
44.779865 17.45894 1.1183988 16 3205949330784 1 0
46.535267 13.073171 0.56272995 23 3205949333088 1 0
20.221643 7.8807015 -1.5176219 6 3205949333088 1 0
83.339226 37.250347 2.656664 35 3205949335392 1 0
17.842941 5.964394 -1.5358357 4 3205949335392 1 0
42.090126 14.062741 0.7746076 112 3205949337696 1 0
21.648758 9.672623 -1.5196311 4 3205949337696 1 0
23.276913 6.5282354 -1.4078945 6 3205949340000 1 0
54.23429 21.108727 3.3892725 26 3205949340000 1 0
49.795727 16.62116 2.1387606 46 3205949342304 1 0
27.261814 10.606105 -1.3626174 4 3205949342304 1 0
26.198534 8.740492 -1.4474032 4 3205949344608 1 0
49.361244 19.19554 6.5029483 35 3205949344608 1 0
49.808987 16.609486 4.2862806 60 3205949346912 1 0
31.280241 13.954126 -1.3954456 5 3205949346912 1 0
32.984035 9.229997 -1.1960756 5 3205949349216 1 0
49.130424 19.089325 14.123238 25 3205949349216 1 0
49.29589 16.422453 9.473546 45 3205949351520 1 0
55.240112 21.453962 -1.378946 12 3205949351520 1 0
0 0 0 8 3205949372256 1 0
0 0 0 7 3205949372256 1 0
42.18333 13.985184 -1.2933651 18 3205949374560 1 0
8.120337 2.6909175 -1.7109272 2 3205949376864 1 0
0 0 0 1 3205949374560 1 0
52.983288 20.480858 0 11 3205949376864 1 0
46.461056 12.907718 -0.5613796 48 3205949379168 1 0
10.017043 3.870529 -1.67071 2 3205949379168 1 0
12.38559 4.100539 -1.6606797 3 3205949381472 1 0
94.5993 41.956856 0.6014633 43 3205949381472 1 0
0 0 0 90 3205949383776 1 0
13.749596 5.3083997 -1.5876067 3 3205949383776 1 0
43.798904 16.902786 1.092437 23 3205949386080 1 0
46.545273 12.903407 0.5623109 23 3205949388384 1 0
20.241186 7.8082256 -1.5170637 6 3205949388384 1 0
16.068829 4.4570355 -1.5566273 2 3205949386080 1 0
84.72055 37.519398 2.696576 34 3205949390688 1 0
17.851954 5.8993607 -1.5348594 4 3205949390688 1 0
42.17602 13.931035 0.7753057 157 3205949392992 1 0
21.66716 9.591951 -1.5186079 6 3205949392992 1 0
52.46909 20.215456 3.2746222 24 3205949395296 1 0
23.287544 6.4454427 -1.4071969 6 3205949395296 1 0
49.825558 16.44246 2.1376207 46 3205949397600 1 0
27.271729 10.50301 -1.3613145 4 3205949397600 1 0
26.21675 8.647524 -1.4467752 4 3205949399904 1 0
49.389236 19.013168 6.4980736 35 3205949399904 1 0
49.868893 16.44148 4.286606 60 3205949402208 1 0
31.221441 13.800955 -1.3907236 5 3205949402208 1 0
32.934204 9.095818 -1.193144 5 3205949404512 1 0
49.184013 18.91856 14.1201315 37 3205949404512 1 0
49.313766 16.243351 9.466372 30 3205949406816 1 0
0 0 0 8 3205949427552 1 0
78.59992 34.60117 -1.4990221 29 3205949427552 1 0
53.04297 20.394487 -1.3223699 11 3205949406816 1 0
0 0 0 1 3205949429856 1 0
8.118033 2.6603105 -1.7085738 1 3205949432160 1 0
46.326626 17.731348 0 27 3205949432160 1 0
47.437073 13.009579 -0.57264817 18 3205949434464 1 0
42.240875 13.848959 -1.2937143 28 3205949429856 1 0
10.026132 3.8358777 -1.670095 3 3205949434464 1 0
12.391577 4.0569754 -1.6596695 2 3205949436768 1 0
85.81412 37.72039 0.5448088 33 3205949436768 1 0
0 0 0 9 3205949439072 1 0
13.763409 5.261355 -1.5871782 3 3205949439072 1 0
16.087362 4.4047766 -1.5569991 2 3205949441376 1 0
43.74265 16.71463 1.0896455 22 3205949441376 1 0
46.479786 12.719426 0.5610071 7 3205949443680 1 0
20.151413 7.6969233 -1.508414 6 3205949443680 1 0
17.841103 5.830222 -1.5322558 4 3205949445984 1 0
80.670746 35.406384 2.5639234 38 3205949445984 1 0
42.27141 13.8072405 0.7762132 125 3205949448288 1 0
21.59284 9.473538 -1.5111887 4 3205949448288 1 0
23.28953 6.362921 -1.4060341 6 3205949450592 1 0
50.655426 19.324013 3.157414 21 3205949450592 1 0
49.857014 16.269703 2.1366436 61 3205949452896 1 0
27.295206 10.408245 -1.3607562 4 3205949452896 1 0
26.203506 8.546913 -1.4444724 4 3205949455200 1 0
49.824593 16.243889 4.278144 40 3205949457504 1 0
31.105959 13.626781 -1.3835591 5 3205949457504 1 0
49.288784 18.787066 6.4766245 51 3205949455200 1 0
32.92176 8.974988 -1.1916084 5 3205949459808 1 0
49.34491 16.072418 9.462067 45 3205949462112 1 0
49.210373 18.741604 14.109779 24 3205949459808 1 0
49.858887 18.9807 -1.2414142 10 3205949462112 1 0
0 0 0 8 3205949482296 1 0
64.61709 28.176805 -1.2304645 20 3205949482296 1 0
42.346214 13.7192955 -1.2954596 18 3205949484600 1 0
0 0 0 1 3205949484600 1 0
8.123615 2.6305122 -1.7077894 1 3205949486904 1 0
45.83886 17.35993 0 27 3205949486904 1 0
48.25882 13.05173 -0.5820076 19 3205949489208 1 0
10.032233 3.7976198 -1.6688652 3 3205949489208 1 0
12.398346 4.0105314 -1.6586593 3 3205949491512 1 0
82.25796 35.809464 0.5214217 36 3205949491512 1 0
43.08352 13.929092 -0.26316345 7 3205949493816 1 0
13.770909 5.208057 -1.5858932 3 3205949493816 1 0
16.072258 4.3388853 -1.5540248 2 3205949496120 1 0
43.43934 16.420856 1.0806193 22 3205949496120 1 0
50.158993 13.532761 0.6048241 17 3205949498424 1 0
20.167736 7.6202493 -1.507577 6 3205949498424 1 0
17.854427 5.763382 -1.5316049 4 3205949500728 1 0
83.13745 36.131943 2.6381624 36 3205949500728 1 0
0 0 0 43 3205949503032 1 0
23.297089 6.2740426 -1.4051038 6 3205949505336 1 0
49.944504 18.845066 3.1088097 62 3205949505336 1 0
49.897057 16.081455 2.1358297 61 3205949507640 1 0
21.60138 9.384143 -1.509398 4 3205949503032 1 0
26.238459 8.45204 -1.4446818 4 3205949509944 1 0
27.280682 10.288791 -1.3581505 4 3205949507640 1 0
49.271866 18.574076 6.4654126 34 3205949509944 1 0
49.857464 16.051886 4.2758656 40 3205949512248 1 0
30.994558 13.442258 -1.3763945 5 3205949512248 1 0
32.962414 8.855379 -1.1918876 5 3205949514552 1 0
49.15272 18.512018 14.0735445 37 3205949514552 1 0
49.34799 15.871224 9.451304 29 3205949516856 1 0
47.593605 17.916521 -1.1833494 9 3205949516856 1 0
63.904774 27.58788 -1.2149668 58 3205949537592 1 0
0 0 0 8 3205949537592 1 0
0 0 0 1 3205949539896 1 0
41.253574 13.199089 -1.260551 18 3205949539896 1 0
8.125654 2.5985672 -1.7062204 1 3205949542200 1 0
44.264744 16.580002 0 16 3205949542200 1 0
48.626545 12.962382 -0.5858724 32 3205949544504 1 0
10.042219 3.759877 -1.6682503 3 3205949544504 1 0
12.397613 3.9609542 -1.6566391 2 3205949546808 1 0
79.06967 34.082775 0.50042903 39 3205949546808 1 0
13.782081 5.155765 -1.5850363 3 3205949549112 1 0
0 0 0 100 3205949549112 1 0
43.58396 16.297543 1.0827596 22 3205949551416 1 0
16.106922 4.2864733 -1.5558836 2 3205949551416 1 0
50.191433 13.349828 0.60463786 26 3205949553720 1 0
20.176073 7.5413504 -1.5061818 6 3205949553720 1 0
17.851978 5.692716 -1.5296521 4 3205949556024 1 0
81.524345 35.08744 2.5830066 37 3205949556024 1 0
0 0 0 43 3205949558328 1 0
21.616076 9.29985 -1.5081187 4 3205949558328 1 0
23.28815 6.183805 -1.4032434 5 3205949560632 1 0
49.838436 18.604916 3.098112 61 3205949560632 1 0
49.918842 15.895543 2.1343641 45 3205949562936 1 0
27.237963 10.163769 -1.3542418 4 3205949562936 1 0
49.295483 18.386711 6.46005 34 3205949565240 1 0
26.218319 8.344649 -1.4419602 4 3205949565240 1 0
49.886368 15.870019 4.2735877 40 3205949567544 1 0
30.886864 13.268182 -1.3695557 5 3205949567544 1 0
32.93877 8.7268915 -1.1899332 5 3205949569848 1 0
49.187542 18.330967 14.065262 37 3205949569848 1 0
49.36115 15.687916 9.443412 44 3205949572152 1 0
45.81888 17.06834 -1.1377536 9 3205949572152 1 0
0 0 0 8 3205949592888 1 0
64.047386 27.397833 -1.215944 11 3205949592888 1 0
41.1371 13.011272 -1.2556638 18 3205949595192 1 0
0 0 0 1 3205949595192 1 0
8.145484 2.5750358 -1.7085738 1 3205949597496 1 0
45.028564 16.695297 0 17 3205949597496 1 0
50.201344 13.202859 -0.6043119 14 3205949599800 1 0
10.047301 3.7235887 -1.6670204 2 3205949599800 1 0
12.403226 3.9170694 -1.6556289 3 3205949602104 1 0
0 0 0 21 3205949602104 1 0
41.195717 13.003453 -0.25107467 81 3205949604408 1 0
13.784369 5.104008 -1.5833228 3 3205949604408 1 0
42.685894 15.798462 1.0591242 22 3205949606712 1 0
50.243835 13.182786 0.60473096 26 3205949609016 1 0
16.101973 4.2272773 -1.5540248 2 3205949606712 1 0
20.193865 7.4706054 -1.5056237 5 3205949609016 1 0
17.855877 5.627652 -1.5283502 4 3205949611320 1 0
81.59078 34.7902 2.5813777 37 3205949611320 1 0
21.621696 9.215745 -1.506328 4 3205949613624 1 0
46.156677 14.539861 0.84469646 18 3205949613624 1 0
23.316698 6.1068735 -1.4037086 5 3205949615928 1 0
49.695183 18.359802 3.0853217 20 3205949615928 1 0
49.94585 15.717523 2.1332242 45 3205949618232 1 0
27.246086 10.061518 -1.352939 4 3205949618232 1 0
26.242758 8.254171 -1.4417509 4 3205949620536 1 0
49.301907 18.19821 6.452738 34 3205949620536 1 0
49.90978 15.690216 4.2709837 39 3205949622840 1 0
30.865742 13.134591 -1.3666248 5 3205949622840 1 0
32.96454 8.613248 -1.1897936 5 3205949625144 1 0
49.239033 18.15873 14.062157 37 3205949625144 1 0
49.369545 15.504603 9.434802 44 3205949627448 1 0
44.61261 16.445194 -1.106395 17 3205949627448 1 0
0 0 0 8 3205949648184 1 0
64.13527 27.170979 -1.2158045 7 3205949648184 1 0
40.8159 12.753124 -1.244493 27 3205949650488 1 0
0 0 0 1 3205949650488 1 0
8.1469345 2.5442486 -1.7070049 2 3205949652792 1 0
42.720707 15.670205 0 22 3205949652792 1 0
47.498207 12.314833 -0.5712512 18 3205949655096 1 0
10.063949 3.6898549 -1.6676353 4 3205949655096 1 0
12.413035 3.8725686 -1.6551238 3 3205949657400 1 0
41.31341 12.882197 -0.25151637 55 3205949659704 1 0
0 0 0 3 3205949657400 1 0
16.101208 4.1670537 -1.5525377 2 3205949662008 1 0
42.71825 15.641115 1.058566 22 3205949662008 1 0
13.790899 5.051757 -1.5820376 3 3205949659704 1 0
20.216072 7.398699 -1.5053447 5 3205949664312 1 0
17.8678 5.562919 -1.5276994 3 3205949666616 1 0
50.347633 13.022346 0.6054295 8 3205949664312 1 0
81.332344 34.344975 2.5693924 37 3205949666616 1 0
46.172783 14.36796 0.84406817 18 3205949668920 1 0
21.653732 9.140215 -1.506328 4 3205949668920 1 0
23.314674 6.0194564 -1.4023132 5 3205949671224 1 0
42.68537 15.600919 2.646721 40 3205949671224 1 0
49.96606 15.532406 2.131759 45 3205949673528 1 0
27.228498 9.947155 -1.3503332 4 3205949673528 1 0
49.320377 18.009663 6.4468884 50 3205949675832 1 0
26.183674 8.135258 -1.436936 4 3205949675832 1 0
49.95282 15.512356 4.2700076 39 3205949678136 1 0
30.745668 12.956925 -1.3592975 5 3205949678136 1 0
32.98279 8.495136 -1.1893748 5 3205949680440 1 0
49.305748 17.988068 14.063191 37 3205949680440 1 0
49.400814 15.325181 9.430497 43 3205949682744 1 0
0 0 0 4 3205949682744 1 0
64.24448 26.953129 -1.2160836 100 3205949703480 1 0
0 0 0 4 3205949703480 1 0
0 0 0 1 3205949705784 1 0
40.711166 12.564587 -1.239955 27 3205949705784 1 0
8.1557665 2.515795 -1.7070049 1 3205949708088 1 0
0 0 0 81 3205949708088 1 0
54.52401 13.933472 -0.6551602 8 3205949710392 1 0
10.073052 3.6533551 -1.6670204 2 3205949710392 1 0
12.418893 3.8268783 -1.6541138 3 3205949712696 1 0
79.284584 33.208828 0.4995921 39 3205949712696 1 0
42.279404 13.021653 -0.25711906 87 3205949715000 1 0
13.789754 4.9968123 -1.5798956 3 3205949715000 1 0
16.123375 4.1127934 -1.5532813 2 3205949717304 1 0
42.648514 15.446965 1.0554951 88 3205949717304 1 0
68.21358 17.389536 0.8195323 19 3205949719608 1 0
20.223017 7.321295 -1.5039495 5 3205949719608 1 0
17.875677 5.4969993 -1.526723 4 3205949721912 1 0
45.70274 14.046903 0.8345741 36 3205949724216 1 0
21.571333 9.0168495 -1.4983972 4 3205949724216 1 0
23.335545 5.938036 -1.4023132 5 3205949726520 1 0
83.49162 34.913887 2.6337407 36 3205949721912 1 0
42.649437 15.419239 2.6411395 40 3205949726520 1 0
50.004692 15.353205 2.1311076 45 3205949728824 1 0
27.248024 9.846617 -1.3495888 4 3205949728824 1 0
26.192818 8.0379505 -1.4358892 4 3205949731128 1 0
49.323196 17.815811 6.439089 50 3205949731128 1 0
49.979984 15.32971 4.2677293 39 3205949733432 1 0
30.64686 12.789494 -1.3529471 5 3205949733432 1 0
32.938625 8.361265 -1.1867225 5 3205949735736 1 0
49.208332 17.75814 14.017639 24 3205949735736 1 0
49.435196 15.146883 9.42691 43 3205949738040 1 0
42.736404 15.415549 -1.0571702 32 3205949738040 1 0
64.382484 26.747122 -1.2169214 59 3205949758776 1 0
0 0 0 8 3205949758776 1 0
41.179306 12.551802 -1.2528712 27 3205949761080 1 0
0 0 0 1 3205949761080 1 0
8.160747 2.4861677 -1.7062204 1 3205949763384 1 0
52.892868 13.320124 -0.6349978 7 3205949765688 1 0
10.067142 3.611498 -1.6639459 3 3205949765688 1 0
12.42838 3.7823498 -1.6536087 3 3205949767992 1 0
42.719883 15.332394 0 68 3205949763384 1 0
79.366776 32.91808 0.49938288 39 3205949767992 1 0
42.4241 12.904256 -0.2577235 72 3205949770296 1 0
13.792136 4.9432793 -1.5781821 3 3205949770296 1 0
16.110594 4.049691 -1.5506788 2 3205949772600 1 0
42.713467 15.302046 1.0557743 44 3205949772600 1 0
69.48418 17.455366 0.8340603 21 3205949774904 1 0
20.240936 7.247968 -1.5033915 5 3205949774904 1 0
17.85661 5.422983 -1.5234684 3 3205949777208 1 0
69.10613 28.615276 2.1767864 34 3205949777208 1 0
43.65814 13.251873 0.7963882 59 3205949779512 1 0
21.56948 8.927756 -1.4960947 6 3205949779512 1 0
23.255424 5.8312917 -1.3962667 5 3205949781816 1 0
42.71052 15.272961 2.6416047 40 3205949781816 1 0
43.930775 13.320673 1.8702554 19 3205949784120 1 0
26.201601 7.9406786 -1.4348426 4 3205949786424 1 0
27.184402 9.716477 -1.3447495 4 3205949784120 1 0
49.34396 17.62884 6.4337263 50 3205949786424 1 0
49.99885 15.1447525 4.2648 39 3205949788728 1 0
30.528793 12.615279 -1.3457826 5 3205949788728 1 0
32.940464 8.239447 -1.1857454 5 3205949791032 1 0
49.284573 17.59146 14.021781 37 3205949791032 1 0
42.767357 15.258215 -1.0566118 32 3205949793336 1 0
49.431267 14.957134 9.416148 43 3205949793336 1 0
0 0 0 8 3205949814072 1 0
64.51614 26.538958 -1.2176893 59 3205949814072 1 0
41.085037 12.366496 -1.2486821 27 3205949816376 1 0
0 0 0 1 3205949816376 1 0
8.161863 2.4554062 -1.7046515 1 3205949818680 1 0
53.11373 13.178758 -0.6370932 7 3205949820984 1 0
42.78445 15.187194 0 61 3205949818680 1 0
10.075962 3.5750136 -1.663331 3 3205949820984 1 0
12.4149065 3.7309494 -1.6500732 3 3205949823288 1 0
68.9582 28.319317 0.43326655 35 3205949823288 1 0
13.794313 4.8897905 -1.5764686 3 3205949825592 1 0
0 0 0 107 3205949825592 1 0
16.120766 3.9924724 -1.550307 2 3205949827896 1 0
42.781696 15.158197 1.0561466 36 3205949827896 1 0
69.62621 17.232895 0.8350382 42 3205949830200 1 0
20.160795 7.1399717 -1.4955788 3 3205949830200 1 0
17.84488 5.3514576 -1.5208647 3 3205949832504 1 0
68.94293 28.266188 2.1685247 34 3205949832504 1 0
43.765427 13.117769 0.79750514 59 3205949834808 1 0
21.589432 8.84787 -1.4953272 4 3205949834808 1 0
23.256254 5.7452908 -1.3951039 5 3205949837112 1 0
42.771103 15.126443 2.6420696 40 3205949837112 1 0
43.86214 13.1328535 1.8653704 19 3205949839416 1 0
27.172947 9.605547 -1.342516 4 3205949839416 1 0
26.236813 7.85146 -1.4352612 4 3205949841720 1 0
49.352787 17.437973 6.426902 49 3205949841720 1 0
50.020855 14.960993 4.2621965 39 3205949844024 1 0
30.502361 12.479881 -1.3426889 5 3205949844024 1 0
32.922447 8.112935 -1.1840701 5 3205949846328 1 0
49.291027 17.400024 14.006251 24 3205949846328 1 0
49.449245 14.774357 9.409691 43 3205949848632 1 0
42.782646 15.0955305 -1.0556813 15 3205949848632 1 0
0 0 0 8 3205949869368 1 0
64.6195 26.31812 -1.2178987 19 3205949869368 1 0
40.23495 11.957612 -1.2215697 17 3205949871672 1 0
0 0 0 1 3205949871672 1 0
8.170384 2.426901 -1.7046515 1 3205949873976 1 0
50.008186 17.55509 0 20 3205949873976 1 0
54.861195 13.409227 -0.6574884 16 3205949876280 1 0
10.077191 3.5358944 -1.6614863 2 3205949876280 1 0
12.420246 3.6853333 -1.649063 3 3205949878584 1 0
69.03069 28.06789 0.4331038 35 3205949878584 1 0
13.78878 4.833716 -1.5738982 3 3205949880888 1 0
16.126865 3.9342883 -1.5495635 2 3205949883192 1 0
0 0 0 250 3205949883192 1 0
72.137955 17.58756 0.8644203 23 3205949885496 1 0
0 0 0 19 3205949880888 1 0
20.17053 7.064278 -1.4944627 5 3205949885496 1 0
17.825224 5.277816 -1.5176102 4 3205949887800 1 0
69.037476 28.023855 2.1684084 34 3205949887800 1 0
43.86464 12.980807 0.7984825 34 3205949890104 1 0
21.616488 8.770953 -1.4950714 4 3205949890104 1 0
23.249006 5.6574674 -1.393476 5 3205949892408 1 0
49.683872 17.376333 3.0653217 60 3205949892408 1 0
50.078407 14.803799 2.1275253 29 3205949894712 1 0
26.225752 7.7485104 -1.4331678 4 3205949897016 1 0
27.191223 9.5053625 -1.3417715 4 3205949894712 1 0
49.37213 17.251188 6.4215393 49 3205949897016 1 0
50.061302 14.782908 4.26122 39 3205949899320 1 0
30.393862 12.3118105 -1.336013 5 3205949899320 1 0
32.911716 7.9885354 -1.1826742 5 3205949901624 1 0
49.347816 17.226587 14.005217 36 3205949901624 1 0
49.477867 14.594976 9.405386 43 3205949903928 1 0
42.744465 14.914481 -1.0534481 23 3205949903928 1 0
0 0 0 8 3205949924664 1 0
68.89868 27.780937 -1.2967138 23 3205949924664 1 0
0 0 0 74 3205949926968 1 0
0 0 0 1 3205949926968 1 0
42.855423 14.876329 0 15 3205949929272 1 0
8.1825695 2.39947 -1.705436 1 3205949929272 1 0
55.2382 13.297213 -0.66144633 8 3205949931576 1 0
10.085738 3.4994013 -1.6608714 2 3205949931576 1 0
12.429227 3.6408405 -1.6485579 3 3205949933880 1 0
68.76832 27.681873 0.43084878 34 3205949933880 1 0
0 0 0 28 3205949936184 1 0
13.809326 4.786857 -1.5743266 3 3205949936184 1 0
16.132755 3.8761103 -1.5488199 2 3205949938488 1 0
42.08165 14.580303 1.0363264 220 3205949938488 1 0
73.18287 17.571903 0.87620103 24 3205949940792 1 0
20.187527 6.991215 -1.4939046 5 3205949940792 1 0
17.828232 5.211088 -1.5163083 4 3205949943096 1 0
65.34702 26.260502 2.0496027 27 3205949943096 1 0
46.378117 13.548731 0.8433701 18 3205949945400 1 0
21.632154 8.689493 -1.4940481 4 3205949945400 1 0
23.25308 5.572556 -1.3925458 5 3205949947704 1 0
49.687614 17.183222 3.0618334 59 3205949947704 1 0
47.977413 14.000797 2.036178 21 3205949950008 1 0
27.167591 9.390809 -1.3389796 4 3205949950008 1 0
26.24497 7.654681 -1.4327492 4 3205949952312 1 0
49.387016 17.063185 6.41569 49 3205949952312 1 0
50.085808 14.600263 4.258942 39 3205949954616 1 0
30.29569 12.149113 -1.3298254 5 3205949954616 1 0
32.958843 7.87825 -1.1833721 5 3205949956920 1 0
49.27982 17.010103 13.968982 36 3205949956920 1 0
49.498287 14.413377 9.399646 43 3205949959224 1 0
42.71688 14.737795 -1.0514939 23 3205949959224 1 0
0 0 0 8 3205949979960 1 0
64.33736 25.68102 -1.2091725 19 3205949979960 1 0
40.693817 11.785431 -1.2329732 18 3205949982264 1 0
0 0 0 1 3205949982264 1 0
8.18336 2.3687117 -1.7038671 1 3205949984568 1 0
49.993324 17.158794 0 30 3205949984568 1 0
56.74763 13.4511795 -0.67895454 8 3205949986872 1 0
10.10163 3.4654567 -1.6614863 4 3205949986872 1 0
12.426612 3.5930235 -1.6465377 3 3205949989176 1 0
49.360405 19.669508 0.30882186 12 3205949989176 1 0
45.735775 13.216808 -0.27669358 25 3205949991480 1 0
13.810903 4.7334666 -1.5726131 3 3205949991480 1 0
16.068674 3.801435 -1.5413845 2 3205949993784 1 0
42.105804 14.42425 1.035675 222 3205949993784 1 0
74.46209 17.60438 0.8907757 25 3205949996088 1 0
20.196707 6.9155345 -1.4927886 5 3205949996088 1 0
53.910244 21.446226 1.6885309 28 3205949998392 1 0
17.8195 5.1410885 -1.5140301 4 3205949998392 1 0
46.379013 13.373462 0.8425324 18 3205950000696 1 0
21.651228 8.609505 -1.4932806 4 3205950000696 1 0
23.252958 5.4867687 -1.391383 5 3205950003000 1 0
49.709507 16.996756 3.0595078 39 3205950003000 1 0
27.117025 9.267491 -1.3348849 4 3205950005304 1 0
26.27153 7.5630226 -1.4327492 4 3205950007608 1 0
46.823902 13.486994 1.9852127 10 3205950005304 1 0
49.40119 16.875286 6.40984 32 3205950007608 1 0
0 0 0 17 3205950009912 1 0
30.31934 12.035913 -1.3290113 5 3205950009912 1 0
32.955013 7.7558284 -1.1822554 5 3205950012216 1 0
49.32427 16.832989 13.96484 36 3205950012216 1 0
49.521824 14.232899 9.394624 42 3205950014520 1 0
42.745354 14.58085 -1.0509356 31 3205950014520 1 0
0 0 0 8 3205950035256 1 0
56.176613 22.19654 -1.0543348 11 3205950035256 1 0
40.653976 11.620235 -1.2305295 8 3205950037560 1 0
8.153864 2.329358 -1.6960223 1 3205950039864 1 0
0 0 0 1 3205950037560 1 0
46.992317 15.945644 0 9 3205950039864 1 0
57.11753 13.328452 -0.68281937 8 3205950042168 1 0
10.102436 3.4263659 -1.6596415 3 3205950042168 1 0
12.435263 3.5485358 -1.6460326 3 3205950044472 1 0
47.985046 18.927616 0.29980177 34 3205950044472 1 0
45.958572 13.107544 -0.27776298 25 3205950046776 1 0
13.819808 4.6826763 -1.5717562 3 3205950046776 1 0
16.077967 3.7444181 -1.5410126 2 3205950049080 1 0
42.140747 14.272055 1.0353028 211 3205950049080 1 0
75.98005 17.683441 0.9081907 26 3205950051384 1 0
20.213163 6.842434 -1.4922305 5 3205950051384 1 0
17.822 5.074488 -1.5127283 3 3205950053688 1 0
44.605984 17.56477 1.395182 14 3205950053688 1 0
21.677433 8.5324135 -1.4930248 4 3205950055992 1 0
0 0 0 14 3205950055992 1 0
23.271969 5.405567 -1.391383 5 3205950058296 1 0
49.72692 16.809067 3.0569496 59 3205950058296 1 0
46.824562 13.310352 1.9832587 21 3205950060600 1 0
26.278557 7.4658136 -1.4317024 4 3205950062904 1 0
27.111355 9.159989 -1.3330237 4 3205950060600 1 0
49.418423 16.688768 6.4044776 49 3205950062904 1 0
46.382065 13.169988 3.9360878 89 3205950065208 1 0
30.31281 11.911005 -1.3268945 5 3205950065208 1 0
32.896206 7.620898 -1.1791842 5 3205950067512 1 0
49.3571 16.652067 13.957594 24 3205950067512 1 0
49.563633 14.057801 9.393188 42 3205950069816 1 0
42.364014 14.285882 -1.0403277 23 3205950069816 1 0
49.6797 19.429262 -0.9311208 9 3205950090552 1 0
0 0 0 8 3205950090552 1 0
39.69377 11.196048 -1.2002754 8 3205950092856 1 0
0 0 0 1 3205950092856 1 0
8.169496 2.30301 -1.6975913 1 3205950095160 1 0
47.22593 15.841302 0 9 3205950095160 1 0
57.350822 13.171968 -0.6850545 9 3205950097464 1 0
10.10684 3.388568 -1.6584117 2 3205950097464 1 0
12.439935 3.5029562 -1.6450224 3 3205950099768 1 0
46.66474 18.218847 0.29115364 21 3205950099768 1 0
46.493042 13.084659 -0.28071544 17 3205950102072 1 0
13.824757 4.630618 -1.5704712 3 3205950102072 1 0
16.083176 3.6864932 -1.5402691 3 3205950104376 1 0
76.0842 17.427937 0.90870297 53 3205950106680 1 0
42.038628 14.074087 1.0315807 224 3205950104376 1 0
17.820414 5.006855 -1.511101 3 3205950108984 1 0
43.664906 17.018383 1.3638806 21 3205950108984 1 0
0 0 0 21 3205950111288 1 0
21.584341 8.408874 -1.4845824 4 3205950111288 1 0
23.294588 5.3251896 -1.3916156 5 3205950113592 1 0
49.751205 16.623995 3.0548568 59 3205950113592 1 0
46.482075 13.037806 1.966813 10 3205950115896 1 0
20.225574 6.7680364 -1.4913934 5 3205950106680 1 0
27.112844 9.055171 -1.3315346 4 3205950115896 1 0
26.208302 7.347083 -1.4264688 4 3205950118200 1 0
49.431183 16.50108 6.398628 48 3205950118200 1 0
46.389366 12.997248 3.9328332 113 3205950120504 1 0
30.335579 11.797877 -1.3260803 5 3205950120504 1 0
32.899223 7.500691 -1.1783466 5 3205950122808 1 0
49.400265 16.474789 13.953452 24 3205950122808 1 0
49.631348 13.890009 9.396776 28 3205950125112 1 0
41.89009 13.963406 -1.0274863 22 3205950125112 1 0
0 0 0 8 3205950146296 1 0
39.9752 11.125248 -1.2076062 8 3205950148600 1 0
52.872738 20.465528 -0.9896213 10 3205950146296 1 0
0 0 0 1 3205950148600 1 0
8.166116 2.2714448 -1.6952379 1 3205950150904 1 0
42.341164 14.039219 0 14 3205950150904 1 0
57.80581 13.065537 -0.68994373 9 3205950153208 1 0
10.114782 3.3522453 -1.6577969 3 3205950153208 1 0
12.448163 3.4588113 -1.6445173 3 3205950155512 1 0
45.36943 17.532387 0.28269148 30 3205950155512 1 0
46.549526 12.927191 -0.28078517 17 3205950157816 1 0
13.814241 4.574085 -1.5674725 3 3205950157816 1 0
16.076363 3.62665 -1.5384102 2 3205950160120 1 0
42.12106 13.940404 1.0324181 225 3205950160120 1 0
76.1515 17.167883 0.9087961 26 3205950162424 1 0
20.233582 6.693413 -1.4902773 5 3205950162424 1 0
17.818287 4.940332 -1.5094737 3 3205950164728 1 0
43.305267 16.707218 1.3508481 20 3205950164728 1 0
21.579496 8.321967 -1.4822799 4 3205950167032 1 0
46.75848 12.957388 0.8469304 83 3205950167032 1 0
23.29707 5.242033 -1.3906854 5 3205950169336 1 0
46.483902 12.867467 1.9650218 10 3205950171640 1 0
49.788776 16.447588 3.053694 59 3205950169336 1 0
27.117012 8.9538765 -1.3302318 4 3205950171640 1 0
26.237005 7.2589083 -1.4266782 4 3205950173944 1 0
49.445587 16.319063 6.3932657 48 3205950173944 1 0
30.252388 11.647398 -1.320707 5 3205950176248 1 0
46.379444 12.824754 3.9282768 117 3205950176248 1 0
32.90105 7.383905 -1.1775091 5 3205950178552 1 0
49.617348 13.705334 9.385297 14 3205950180856 1 0
49.320045 16.262516 13.915147 24 3205950178552 1 0
42.31307 13.945594 -1.0366986 15 3205950180856 1 0
0 0 0 8 3205950201592 1 0
49.818268 19.09352 -0.9312604 9 3205950201592 1 0
39.83846 10.944669 -1.2023699 8 3205950203896 1 0
0 0 0 1 3205950203896 1 0
8.177418 2.2452722 -1.6960223 1 3205950206200 1 0
0 0 0 11 3205950206200 1 0
58.481586 13.013252 -0.6974871 9 3205950208504 1 0
10.122159 3.317233 -1.6571819 2 3205950208504 1 0
12.444357 3.4129522 -1.6424971 3 3205950210808 1 0
44.31081 16.953152 0.27574044 28 3205950210808 1 0
50.268932 13.778747 -0.3029402 29 3205950213112 1 0
13.825719 4.5265102 -1.567044 3 3205950213112 1 0
16.088455 3.572617 -1.5384102 2 3205950215416 1 0
42.224667 13.817464 1.033814 224 3205950215416 1 0
76.2323 16.91658 0.90907544 26 3205950217720 1 0
20.25221 6.624007 -1.4899982 5 3205950217720 1 0
17.819473 4.8759704 -1.5081719 3 3205950220024 1 0
43.32031 16.545305 1.349568 20 3205950220024 1 0
47.372974 12.955337 0.8572622 18 3205950222328 1 0
21.618702 8.253218 -1.4830474 4 3205950222328 1 0
23.217232 5.141468 -1.3848715 5 3205950224632 1 0
49.821453 16.27133 3.0522985 59 3205950224632 1 0
46.758656 12.772717 1.9747916 31 3205950226936 1 0
26.215317 7.1569476 -1.4241661 4 3205950229240 1 0
27.0599 8.833214 -1.3259509 4 3205950226936 1 0
49.463097 16.13837 6.388391 32 3205950229240 1 0
30.228447 11.519955 -1.3179389 5 3205950231544 1 0
46.36907 12.651803 3.9237204 116 3205950231544 1 0
32.89877 7.265374 -1.1765318 5 3205950233848 1 0
49.645016 13.53013 9.381709 14 3205950236152 1 0
42.56971 13.8687105 -1.0418165 31 3205950236152 1 0
49.364323 16.090258 13.912042 24 3205950233848 1 0
0 0 0 8 3205950256888 1 0
47.080006 17.855814 -0.8789032 8 3205950256888 1 0
39.93037 10.820471 -1.203999 8 3205950259192 1 0
0 0 0 1 3205950259192 1 0
0 0 0 3 3205950261496 1 0
8.17003 2.2127314 -1.6928844 1 3205950261496 1 0
58.893654 12.890701 -0.7018642 9 3205950263800 1 0
10.122325 3.2784476 -1.6553372 3 3205950263800 1 0
12.448436 3.3677824 -1.6414869 3 3205950266104 1 0
44.37671 16.802498 0.27578694 28 3205950266104 1 0
13.833705 4.4762764 -1.5661873 3 3205950268408 1 0
16.096785 3.5162888 -1.5380385 2 3205950270712 1 0
50.154057 13.561171 -0.30196378 19 3205950268408 1 0
42.336727 13.692753 1.0353959 218 3205950270712 1 0
79.7757 17.415188 0.9506109 28 3205950273016 1 0
17.82071 4.810621 -1.50687 3 3205950275320 1 0
20.263485 6.5506234 -1.4891613 5 3205950273016 1 0
43.829388 16.567574 1.3636478 14 3205950275320 1 0
47.687366 12.865922 0.8621489 18 3205950277624 1 0
21.628174 8.172067 -1.4817683 4 3205950277624 1 0
23.21516 5.057833 -1.3837087 5 3205950279928 1 0
49.853977 16.093588 3.0509033 59 3205950279928 1 0
50.182434 13.524209 2.11743 14 3205950282232 1 0
27.070856 8.7347355 -1.3250203 4 3205950282232 1 0
26.25495 7.071841 -1.4250034 4 3205950284536 1 0
49.47617 15.956531 6.3830285 48 3205950284536 1 0
0 0 0 17 3205950286840 1 0
30.17391 11.381965 -1.3138682 5 3205950286840 1 0
32.90367 7.1495996 -1.1758338 5 3205950289144 1 0
49.42592 15.925247 13.914112 36 3205950289144 1 0
49.709484 13.367285 9.385297 14 3205950291448 1 0
42.612556 13.723453 -1.0417234 15 3205950291448 1 0
0 0 0 8 3205950312184 1 0
45.323044 17.017757 -0.8450455 8 3205950312184 1 0
39.580006 10.583838 -1.1923628 8 3205950314488 1 0
0 0 0 1 3205950314488 1 0
8.184997 2.187295 -1.6944534 1 3205950316792 1 0
41.270332 13.220003 0 20 3205950316792 1 0
57.259476 12.330256 -0.6818881 17 3205950319096 1 0
10.129589 3.2429943 -1.6547223 3 3205950319096 1 0
12.448324 3.3223264 -1.6399717 3 3205950321400 1 0
44.317524 16.607857 0.27506626 28 3205950321400 1 0
50.16543 13.380026 -0.30175456 19 3205950323704 1 0
13.841379 4.426444 -1.5653305 3 3205950323704 1 0
16.10102 3.4591088 -1.5372949 2 3205950326008 1 0
76.1088 16.338312 0.90623504 26 3205950328312 1 0
0 0 0 8 3205950326008 1 0
20.286087 6.4802933 -1.4891613 5 3205950328312 1 0
17.81813 4.743258 -1.5052427 3 3205950330616 1 0
43.24657 16.174965 1.34375 20 3205950330616 1 0
50.174915 13.348168 0.90626854 31 3205950332920 1 0
23.221178 4.9732437 -1.383011 5 3205950335224 1 0
49.89152 15.911222 3.0497406 58 3205950335224 1 0
50.195446 13.336433 2.1159644 28 3205950337528 1 0
27.078905 8.631133 -1.3239036 4 3205950337528 1 0
21.649267 8.093252 -1.4812566 4 3205950332920 1 0
26.237617 6.9665813 -1.4227006 4 3205950339832 1 0
49.491333 15.766151 6.3776665 48 3205950339832 1 0
0 0 0 8 3205950342136 1 0
30.173496 11.257904 -1.312077 5 3205950342136 1 0
32.862885 7.016201 -1.1734607 5 3205950344440 1 0
49.66276 13.160885 9.367359 14 3205950346744 1 0
49.442772 15.733256 13.902724 24 3205950344440 1 0
41.30562 13.136644 -1.0085967 79 3205950346744 1 0
0 0 0 8 3205950367480 1 0
44.540657 16.529135 -0.8292685 16 3205950367480 1 0
39.37274 10.367203 -1.1849157 8 3205950369784 1 0
0 0 0 1 3205950369784 1 0
41.236504 13.036116 0 94 3205950372088 1 0
8.193272 2.156089 -1.6944534 1 3205950372088 1 0
10.13429 3.2021365 -1.6534925 2 3205950374392 1 0
12.453124 3.2732115 -1.6389616 3 3205950376696 1 0
58.483765 12.361779 -0.69590396 18 3205950374392 1 0
44.533794 16.497118 0.2760194 19 3205950376696 1 0
50.358616 13.2285595 -0.30261472 29 3205950379000 1 0
13.846579 4.370681 -1.5640453 3 3205950379000 1 0
16.117785 3.3994882 -1.5376667 2 3205950381304 1 0
0 0 0 1 3205950381304 1 0
83.24148 17.54426 0.9903768 57 3205950383608 1 0
20.18839 6.3660207 -1.4802324 5 3205950383608 1 0
17.820242 4.672837 -1.5039409 3 3205950385912 1 0
42.650223 15.771154 1.3233865 13 3205950385912 1 0
50.35948 13.197473 0.9087119 10 3205950388216 1 0
21.667902 8.008752 -1.4804891 4 3205950388216 1 0
23.20813 4.88085 -1.3811506 2 3205950390520 1 0
49.93092 15.720805 3.0485778 58 3205950390520 1 0
50.414303 13.196168 2.123129 44 3205950392824 1 0
27.095236 8.526634 -1.323159 4 3205950392824 1 0
26.243652 6.865314 -1.4216539 4 3205950395128 1 0
49.510914 15.572739 6.372792 47 3205950395128 1 0
50.257946 13.139621 4.2407165 19 3205950397432 1 0
30.176897 11.133842 -1.3104488 5 3205950397432 1 0
32.942955 6.9081483 -1.175415 5 3205950399736 1 0
49.355896 15.508204 13.862348 24 3205950399736 1 0
49.614914 12.956086 9.349422 13 3205950402040 1 0
41.30714 12.9725895 -1.00748 50 3205950402040 1 0
0 0 0 8 3205950422776 1 0
0 0 0 29 3205950422776 1 0
39.60212 10.280221 -1.1907338 8 3205950425080 1 0
8.185531 2.1236553 -1.6913155 2 3205950427384 1 0
41.270115 12.889117 0 81 3205950427384 1 0
0 0 0 1 3205950425080 1 0
10.145336 3.166963 -1.6534925 3 3205950429688 1 0
12.468221 3.23108 -1.6394666 3 3205950431992 1 0
0 0 0 28 3205950429688 1 0
42.66024 15.635356 0.26407012 25 3205950431992 1 0
56.068993 14.521746 -0.33662605 31 3205950434296 1 0
13.846407 4.3180885 -1.5623318 3 3205950434296 1 0
16.106009 3.3390586 -1.535436 2 3205950436600 1 0
46.22532 14.408648 1.1266804 8 3205950436600 1 0
85.12645 17.635942 1.0120758 85 3205950438904 1 0
20.202549 6.294166 -1.4796743 5 3205950438904 1 0
17.813017 4.605654 -1.5019882 3 3205950441208 1 0
42.6215 15.594441 1.3208266 53 3205950441208 1 0
55.08201 14.233638 0.99304193 25 3205950443512 1 0
21.593985 7.8974686 -1.4735817 4 3205950443512 1 0
23.212944 4.799072 -1.3804529 5 3205950445816 1 0
49.950043 15.539377 3.0464847 39 3205950445816 1 0
0 0 0 14 3205950448120 1 0
27.105083 8.42824 -1.3222284 4 3205950448120 1 0
26.262997 6.7749596 -1.4214445 4 3205950450424 1 0
49.525715 15.39236 6.367917 47 3205950450424 1 0
67.00665 17.27556 5.6489725 28 3205950452728 1 0
30.101906 10.990173 -1.3055639 4 3205950452728 1 0
32.876125 6.777905 -1.1722043 5 3205950455032 1 0
49.41924 15.344293 13.865454 36 3205950455032 1 0
49.65844 12.788236 9.349422 13 3205950457336 1 0
0 0 0 8 3205950478072 1 0
42.689983 15.512574 -0.7928279 38 3205950478072 1 0
40.92302 12.700083 -0.9970582 14 3205950457336 1 0
39.469437 10.106193 -1.1857302 8 3205950480376 1 0
0 0 0 1 3205950480376 1 0
8.188728 2.0955272 -1.690531 1 3205950482680 1 0
41.42347 12.786403 0 55 3205950482680 1 0
0 0 0 28 3205950484984 1 0
10.136898 3.1274765 -1.6504179 2 3205950484984 1 0
12.459645 3.1848028 -1.6369412 3 3205950487288 1 0
42.64417 15.469252 0.26365164 77 3205950487288 1 0
56.06646 14.322864 -0.33632383 20 3205950489592 1 0
16.109188 3.2840397 -1.5346924 3 3205950491896 1 0
13.849248 4.2686343 -1.5610466 3 3205950489592 1 0
46.23845 14.244683 1.1258429 16 3205950491896 1 0
85.157036 17.347967 1.0117499 57 3205950494200 1 0
20.208055 6.2224402 -1.4785582 5 3205950494200 1 0
17.835918 4.5485287 -1.502639 3 3205950496504 1 0
42.642902 15.442126 1.3198957 33 3205950496504 1 0
55.10565 14.044974 0.9926231 12 3205950498808 1 0
21.597534 7.817665 -1.4720467 6 3205950498808 1 0
23.232645 4.722864 -1.3806854 5 3205950501112 1 0
49.966946 15.36309 3.0443916 58 3205950501112 1 0
68.078255 17.331314 2.8620474 29 3205950503416 1 0
27.106148 8.330093 -1.3209256 4 3205950503416 1 0
26.265963 6.682906 -1.4203979 4 3205950505720 1 0
49.538532 15.216385 6.3630424 47 3205950505720 1 0
68.24975 17.354893 5.748888 28 3205950508024 1 0
30.115633 10.882142 -1.3045869 9 3205950508024 1 0
32.86316 6.661699 -1.1709479 5 3205950510328 1 0
49.48832 15.185996 13.87063 36 3205950510328 1 0
40.934322 12.554927 -0.99631375 14 3205950512632 1 0
49.605225 12.599274 9.331486 13 3205950512632 1 0
0 0 0 8 3205950533368 1 0
42.75248 15.374985 -0.79303735 23 3205950533368 1 0
39.502808 9.974964 -1.1857302 8 3205950535672 1 0
8.191859 2.067282 -1.6897466 2 3205950537976 1 0
0 0 0 1 3205950535672 1 0
42.39936 12.933122 0 79 3205950537976 1 0
56.72361 11.391131 -0.67355305 8 3205950540280 1 0
10.154842 3.095928 -1.6516477 4 3205950540280 1 0
12.466381 3.1421351 -1.6364362 3 3205950542584 1 0
42.699444 15.327863 0.2636749 43 3205950542584 1 0
57.145916 14.394713 -0.3425077 10 3205950544888 1 0
13.844459 4.2163877 -1.5589046 3 3205950544888 1 0
16.104511 3.2267687 -1.5332054 3 3205950547192 1 0
46.6074 14.187071 1.1336594 24 3205950547192 1 0
87.046486 17.427837 1.0334953 85 3205950549496 1 0
20.228891 6.154364 -1.4785582 5 3205950549496 1 0
17.8357 4.484431 -1.5013373 3 3205950551800 1 0
42.70982 15.303544 1.3203611 39 3205950551800 1 0
21.605055 7.737857 -1.4707676 4 3205950554104 1 0
23.228937 4.6401944 -1.3795227 5 3205950556408 1 0
53.81464 13.522296 0.96853876 24 3205950554104 1 0
49.99962 15.187868 3.0432289 58 3205950556408 1 0
69.0632 17.332527 2.9009635 29 3205950558712 1 0
27.134281 8.23799 -1.3209256 4 3205950558712 1 0
49.552044 15.03617 6.358167 47 3205950561016 1 0
26.191692 6.56918 -1.4151642 4 3205950561016 1 0
69.27532 17.364344 5.8302526 28 3205950563320 1 0
0 0 0 15 3205950563320 1 0
32.862213 6.5446515 -1.1701103 5 3205950565624 1 0
49.73207 12.450316 9.34727 13 3205950567928 1 0
43.01312 13.031492 -1.0458177 23 3205950567928 1 0
49.447495 14.988739 13.8447485 36 3205950565624 1 0
42.851105 15.24174 -0.79387504 15 3205950588664 1 0
0 0 0 8 3205950588664 1 0
39.366737 9.7942505 -1.1806102 8 3205950590968 1 0
0 0 0 1 3205950590968 1 0
8.195249 2.0376086 -1.6889621 2 3205950593272 1 0
43.850056 13.207803 0 36 3205950593272 1 0
57.04189 11.246756 -0.67685914 8 3205950595576 1 0
12.465811 3.0953684 -1.634921 3 3205950597880 1 0
10.158085 3.0579617 -1.6504179 4 3205950595576 1 0
42.768208 15.18283 0.2637679 86 3205950597880 1 0
68.4081 16.975231 -0.40964693 20 3205950600184 1 0
13.855435 4.1663866 -1.5584762 3 3205950600184 1 0
16.111906 3.169062 -1.5328336 2 3205950602488 1 0
43.95348 13.209674 1.0679642 22 3205950602488 1 0
20.242918 6.080388 -1.4780002 5 3205950604792 1 0
87.07626 17.113277 1.0331229 28 3205950604792 1 0
17.808933 4.4105644 -1.4977572 3 3205950607096 1 0
0 0 0 206 3205950607096 1 0
54.84848 13.574896 0.98627037 38 3205950609400 1 0
21.621147 7.6569805 -1.47 6 3205950609400 1 0
23.147358 4.5381846 -1.3737088 5 3205950611704 1 0
50.034294 15.003869 3.042066 58 3205950611704 1 0
27.090801 8.119256 -1.3173891 4 3205950614008 1 0
69.908394 17.279537 2.933855 29 3205950614008 1 0
26.242176 6.4821315 -1.4166297 8 3205950616312 1 0
49.56749 14.847388 6.3532925 46 3205950616312 1 0
76.19962 18.809874 6.4072895 28 3205950618616 1 0
30.002613 10.604598 -1.2964455 43 3205950618616 1 0
32.86982 6.4234858 -1.169552 5 3205950620920 1 0
49.80713 12.278749 9.35301 13 3205950623224 1 0
49.478813 14.8043585 13.838536 24 3205950620920 1 0
0 0 0 8 3205950643960 1 0
0 0 0 9 3205950623224 1 0
42.85386 15.0660095 -0.7928977 23 3205950643960 1 0
39.406113 9.6514225 -1.1807266 8 3205950646264 1 0
0 0 0 1 3205950646264 1 0
43.847946 13.033457 0 85 3205950648568 1 0
8.202603 2.0077965 -1.6889621 2 3205950648568 1 0
57.404255 11.102381 -0.6806774 8 3205950650872 1 0
10.165304 3.0200279 -1.649803 3 3205950650872 1 0
12.47304 3.0494418 -1.6344159 3 3205950653176 1 0
0 0 0 114 3205950653176 1 0
68.71343 16.78918 -0.41111153 60 3205950655480 1 0
13.858875 4.11319 -1.5571911 3 3205950655480 1 0
16.123142 3.1113946 -1.5328336 2 3205950657784 1 0
43.904617 13.023896 1.065638 22 3205950657784 1 0
87.51765 16.876345 1.0376396 28 3205950660088 1 0
20.245329 6.002545 -1.476605 5 3205950660088 1 0
42.021164 14.721092 1.2958088 221 3205950662392 1 0
72.882675 17.765196 1.3094192 25 3205950664696 1 0
17.80898 4.343557 -1.4964554 3 3205950662392 1 0
21.629236 7.573921 -1.4687209 6 3205950664696 1 0
23.151424 4.4544206 -1.3730111 2 3205950667000 1 0
50.06382 14.820868 3.0406709 39 3205950667000 1 0
71.323784 17.364338 2.9906826 29 3205950669304 1 0
27.096106 8.017446 -1.3162724 4 3205950669304 1 0
26.299574 6.398989 -1.4185138 12 3205950671608 1 0
49.58475 14.664142 6.348905 46 3205950671608 1 0
76.1677 18.521332 6.399153 28 3205950673912 1 0
29.960066 10.472547 -1.2930261 19 3205950673912 1 0
32.868305 6.3051476 -1.1687144 5 3205950676216 1 0
49.46677 14.614387 13.820937 24 3205950676216 1 0
0 0 0 29 3205950678520 1 0
42.643654 12.592169 -1.0346514 15 3205950678520 1 0
0 0 0 8 3205950699256 1 0
42.892254 14.919877 -0.7926883 23 3205950699256 1 0
39.189293 9.460074 -1.1732794 8 3205950701560 1 0
0 0 0 1 3205950701560 1 0
8.2054615 1.979426 -1.6881776 1 3205950703864 1 0
0 0 0 7 3205950703864 1 0
56.761433 10.780344 -0.6726218 17 3205950706168 1 0
10.164016 2.9825194 -1.6479583 3 3205950706168 1 0
12.471685 3.0045485 -1.6329007 3 3205950708472 1 0
42.038067 14.593971 0.25863016 220 3205950708472 1 0
68.82049 16.568396 -0.41141376 60 3205950710776 1 0
13.853653 4.060608 -1.5550492 3 3205950710776 1 0
46.2436 13.546671 1.1212834 16 3205950713080 1 0
16.125813 3.0550206 -1.5320901 2 3205950713080 1 0
87.57482 16.577118 1.0376396 28 3205950715384 1 0
20.273386 5.935555 -1.4771631 5 3205950715384 1 0
17.816032 4.28054 -1.4958044 3 3205950717688 1 0
42.04878 14.568914 1.2951106 223 3205950717688 1 0
74.005135 17.768768 1.3284771 26 3205950719992 1 0
21.640127 7.494095 -1.4676976 6 3205950719992 1 0
23.13139 4.3675857 -1.3709182 5 3205950722296 1 0
72.39033 17.357666 3.0328553 29 3205950724600 1 0
50.084164 14.638517 3.0388103 58 3205950722296 1 0
27.104635 7.917606 -1.3153418 4 3205950724600 1 0
26.232405 6.285739 -1.4136988 33 3205950726904 1 0
49.601337 14.480956 6.344518 46 3205950726904 1 0
30.053251 10.38705 -1.2954684 4 3205950729208 1 0
32.878506 6.187203 -1.1682955 5 3205950731512 1 0
76.232155 18.254236 6.399153 28 3205950729208 1 0
49.48452 14.43045 13.81162 36 3205950731512 1 0
0 0 0 29 3205950733816 1 0
0 0 0 8 3205950754552 1 0
42.8294 14.722265 -0.7905242 15 3205950754552 1 0
39.056427 9.276645 -1.1682758 8 3205950756856 1 0
0 0 0 1 3205950756856 1 0
42.55352 12.402213 -1.0313946 15 3205950733816 1 0
8.216477 1.9502441 -1.6889621 2 3205950759160 1 0
0 0 0 7 3205950759160 1 0
10.1710825 2.9441473 -1.6473434 3 3205950761464 1 0
56.501717 10.516606 -0.6690829 8 3205950761464 1 0
12.474893 2.9569871 -1.6318905 3 3205950763768 1 0
42.07614 14.434605 0.25853717 185 3205950763768 1 0
74.940956 17.751547 -0.44761035 25 3205950766072 1 0
13.85698 4.00649 -1.553764 3 3205950766072 1 0
16.132984 2.9951692 -1.5317183 2 3205950768376 1 0
46.285255 13.374868 1.1210972 24 3205950768376 1 0
75.23144 13.955207 0.8907757 25 3205950770680 1 0
20.275837 5.855674 -1.475768 5 3205950770680 1 0
42.09433 14.41211 1.2948779 207 3205950772984 1 0
17.827723 4.214295 -1.495479 3 3205950772984 1 0
75.31918 17.792555 1.3508861 27 3205950775288 1 0
21.659895 7.4121447 -1.467186 6 3205950775288 1 0
50.129803 14.45264 3.0383453 39 3205950777592 1 0
23.12761 4.279143 -1.3697554 2 3205950777592 1 0
73.5932 17.3611 3.0805643 29 3205950779896 1 0
27.114275 7.812678 -1.3144112 4 3205950779896 1 0
26.220276 6.181301 -1.4118148 33 3205950782200 1 0
49.623558 14.290271 6.340618 46 3205950782200 1 0
76.143326 17.93814 6.3861346 28 3205950784504 1 0
29.947397 10.227744 -1.289281 4 3205950784504 1 0
32.88524 6.063756 -1.1677371 5 3205950786808 1 0
49.544506 14.25112 13.81369 36 3205950786808 1 0
0 0 0 29 3205950789112 1 0
42.45265 12.204179 -1.0278586 7 3205950789112 1 0
0 0 0 8 3205950809296 1 0
39.068905 9.136556 -1.1676941 8 3205950811600 1 0
42.198925 14.341034 -0.77795845 22 3205950809296 1 0
0 0 0 1 3205950811600 1 0
8.204054 1.9174469 -1.6850398 1 3205950813904 1 0
45.72789 13.073402 0 25 3205950813904 1 0
0 0 0 28 3205950816208 1 0
10.181107 2.909292 -1.6473434 3 3205950816208 1 0
0 0 0 3 3205950818512 1 0
75.374504 17.585272 -0.44984213 26 3205950820816 1 0
12.477156 2.912709 -1.6308804 3 3205950818512 1 0
13.866626 3.9585173 -1.5533355 3 3205950820816 1 0
46.40684 13.241231 1.1229583 24 3205950823120 1 0
16.131203 2.938808 -1.5306029 2 3205950823120 1 0
92.048805 16.757147 1.0892329 28 3205950825424 1 0
20.283756 5.784679 -1.4749309 5 3205950825424 1 0
41.9639 14.21216 1.2894088 223 3205950827728 1 0
76.012314 17.692116 1.362265 54 3205950830032 1 0
17.822186 4.1506314 -1.4938518 3 3205950827728 1 0
21.58589 7.3074703 -1.4605343 4 3205950830032 1 0
23.141489 4.203435 -1.3697554 2 3205950832336 1 0
46.78562 13.322822 2.8329983 15 3205950832336 1 0
74.809326 17.391472 3.1290872 29 3205950834640 1 0
27.120314 7.719028 -1.3134806 4 3205950834640 1 0
26.197298 6.0866632 -1.4095119 4 3205950836944 1 0
49.631252 14.119106 6.3357434 46 3205950836944 1 0
29.949753 10.121413 -1.2879784 4 3205950839248 1 0
0 0 0 8 3205950839248 1 0
32.829647 5.9454436 -1.1650848 5 3205950841552 1 0
49.600796 14.096406 13.816796 36 3205950841552 1 0
0 0 0 29 3205950843856 1 0
42.379486 12.038136 -1.0251601 7 3205950843856 1 0
0 0 0 8 3205950864592 1 0
41.902607 14.093644 -0.7716756 22 3205950864592 1 0
39.276768 9.05452 -1.1730467 8 3205950866896 1 0
0 0 0 1 3205950866896 1 0
