# .PCD v.7 - Point Cloud Data file format
VERSION .7
FIELDS x y z rgb timestamp_ns device_id active
SIZE 4 4 4 4 8 1 1
TYPE F F F F F U U
COUNT 1 1 1 1 1 1 1
WIDTH 962
HEIGHT 1
VIEWPOINT 0 0 0 1 0 0 0
POINTS 962               
DATA ascii
-12.347015 -71.53122 4.2274046 28 3197982843592 1 0
-8.007237 -35.81743 1.4952599 21 3197982845896 1 0
-5.477092 -31.703482 -1.4986744 35 3197982845896 1 0
-7.4220815 -33.177284 -1.7817253 33 3197982848200 1 0
0 0 0 1 3197982848200 1 0
-8.030797 -35.8738 3.0010471 16 3197982850504 1 0
-3.9360414 -31.971907 -1.3124027 40 3197982850504 1 0
-9.523551 -34.512287 -1.2502396 50 3197982852808 1 0
0 0 0 9 3197982852808 1 0
-8.024933 -35.79875 6.6890235 21 3197982855112 1 0
-0.8239317 -3.6531003 -1.7462586 3 3197982876296 1 0
-6.3217273 -36.466072 -0.86120147 22 3197982855112 1 0
-5.0908194 -40.81346 -0.7179222 6 3197982876296 1 0
-7.496783 -33.21404 -0.99094 51 3197982878600 1 0
-1.0802203 -6.1771817 -1.7554748 6 3197982878600 1 0
-1.9798813 -8.765214 -1.7972188 4 3197982880904 1 0
0 0 0 67 3197982880904 1 0
0 0 0 28 3197982883208 1 0
-1.950095 -11.130524 -1.7580271 20 3197982883208 1 0
-2.5617096 -11.324188 -1.4778433 16 3197982885512 1 0
-10.112843 -80.655106 0.47243884 85 3197982885512 1 0
-12.924339 -57.09036 -0.34020618 21 3197982887816 1 0
-2.939398 -16.745628 -1.8313595 2 3197982887816 1 0
-14.0434265 -79.92971 1.8884087 28 3197982890120 1 0
-5.607362 -20.130781 -1.95071 26 3197982890120 1 0
-9.613278 -34.490925 0.41684392 9 3197982892424 1 0
-4.8994126 -27.859396 -1.9780146 7 3197982892424 1 0
-5.2856917 -23.296425 -1.9501437 2 3197982894728 1 0
-10.667293 -84.638306 2.4827025 40 3197982894728 1 0
-8.105426 -35.697792 0.6389675 18 3197982897032 1 0
-3.8553655 -30.55052 -1.9734738 10 3197982897032 1 0
-7.2836757 -26.084265 -1.5771954 7 3197982899336 1 1
-12.602174 -71.45832 4.2257767 28 3197982899336 1 0
-8.118444 -35.70222 1.4916776 21 3197982901640 1 0
-5.578207 -31.600643 -1.4947658 35 3197982901640 1 0
-7.5613594 -33.227757 -1.7859122 33 3197982903944 1 0
0 0 0 1 3197982903944 1 0
-8.156552 -35.816795 2.998769 16 3197982906248 1 0
-4.058692 -31.996855 -1.314031 40 3197982906248 1 0
-9.701631 -34.6578 -1.2568007 18 3197982908552 1 0
0 0 0 9 3197982908552 1 0
-8.138399 -35.684338 6.673239 21 3197982910856 1 0
-6.500883 -36.690445 -0.86706376 11 3197982910856 1 0
-0.8395748 -3.6569762 -1.7496396 3 3197982931592 1 0
-5.2224913 -40.599243 -0.7145015 6 3197982931592 1 0
-7.642577 -33.266953 -0.9933835 51 3197982933896 1 0
-2.0106316 -8.746138 -1.7948655 3 3197982936200 1 0
-12.29445 -68.69652 0 41 3197982936200 1 0
-10.138036 -35.934757 -0.43467805 8 3197982938504 1 0
-1.9937272 -11.130822 -1.759257 21 3197982938504 1 0
-2.608965 -11.333755 -1.4803686 16 3197982940808 1 0
-10.419309 -80.62819 0.47250858 85 3197982940808 1 0
-1.1038412 -6.1730046 -1.7554748 7 3197982933896 1 0
-13.201259 -57.31022 -0.34181026 21 3197982943112 1 0
-3.004565 -16.74618 -1.8326447 2 3197982943112 1 0
-5.685028 -20.117264 -1.9514537 17 3197982945416 1 0
-12.329662 -68.662895 1.6233019 20 3197982945416 1 0
-17.918259 -63.371033 0.76668173 15 3197982947720 1 0
-5.0056314 -27.85267 -1.9788517 7 3197982947720 1 0
-10.983387 -84.605934 2.4829352 100 3197982950024 1 0
-5.3759828 -23.292122 -1.9514456 2 3197982950024 1 0
-8.221566 -35.597343 0.6377109 18 3197982952328 1 0
-3.9707031 -30.551846 -1.9744972 10 3197982952328 1 0
0 0 0 98 3197982954632 1 0
-12.871031 -71.43879 4.2274046 28 3197982954632 1 0
-8.231753 -35.594227 1.488421 21 3197982956936 1 0
-5.683106 -31.516987 -1.4917878 35 3197982956936 1 0
-7.7056093 -33.29711 -1.7911458 33 3197982959240 1 0
0 0 0 1 3197982959240 1 0
-8.25937 -35.666378 2.98868 16 3197982961544 1 0
-4.181165 -32.025417 -1.3158221 40 3197982961544 1 0
-9.88544 -34.82611 -1.2641994 31 3197982963848 1 0
0 0 0 9 3197982963848 1 0
-8.248912 -35.574127 6.658172 14 3197982966152 1 0
-6.589577 -36.422688 -0.8612945 38 3197982966152 1 0
-0.8515114 -3.650493 -1.7479491 3 3197982986888 1 0
-5.343213 -40.422173 -0.71170914 6 3197982986888 1 0
-7.7786484 -33.325733 -0.99594355 51 3197982989192 1 0
-1.1260735 -6.1729035 -1.756553 6 3197982989192 1 0
-2.0411491 -8.739066 -1.7948655 2 3197982991496 1 0
0 0 0 7 3197982991496 1 0
-10.255713 -35.87223 -0.4343521 7 3197982993800 1 0
-2.0361211 -11.143235 -1.7623315 21 3197982993800 1 0
-2.651222 -11.336169 -1.4818839 17 3197982996104 1 0
-13.441333 -57.435158 -0.34283316 10 3197982998408 1 0
-10.7343855 -80.84509 0.47399643 84 3197982996104 1 0
-3.0630016 -16.73559 -1.8326447 2 3197982998408 1 0
-5.7596016 -20.112612 -1.9529408 13 3197983000712 1 0
-12.566383 -68.6037 1.6229297 20 3197983000712 1 0
-18.035797 -62.94667 0.76230466 15 3197983003016 1 0
-5.105703 -27.850727 -1.9799677 7 3197983003016 1 0
-5.459075 -23.280977 -1.9520965 2 3197983005320 1 0
-11.28605 -84.62257 2.4845643 100 3197983005320 1 0
-8.327502 -35.490555 0.63631475 18 3197983007624 1 0
-4.0820794 -30.57341 -1.9767996 10 3197983007624 1 0
0 0 0 12 3197983009928 1 0
-13.187445 -71.75868 4.249032 28 3197983009928 1 0
-8.335839 -35.47968 1.4848387 21 3197983012232 1 0
-5.780799 -31.430151 -1.4886237 35 3197983012232 1 1
-7.840989 -33.35167 -1.795542 20 3197983014536 1 0
0 0 0 1 3197983014536 1 0
-8.369211 -35.575237 2.9834726 15 3197983016840 1 0
-4.297179 -32.04232 -1.3171247 40 3197983016840 1 0
0 0 0 9 3197983019144 1 0
-10.364968 -36.036137 -1.3094292 13 3197983019144 1 0
-8.3531885 -35.46085 6.642388 13 3197983021448 1 0
-6.7964983 -36.832043 -0.8715303 16 3197983021448 1 0
-0.8642489 -3.6474984 -1.7479491 3 3197983042184 1 0
0 0 0 50 3197983042184 1 0
-8.603737 -36.29026 -1.085426 30 3197983044488 1 0
-1.1482288 -6.1727386 -1.7576314 6 3197983044488 1 0
-2.072293 -8.7357645 -1.7956499 2 3197983046792 1 0
0 0 0 7 3197983046792 1 0
-10.375966 -35.82514 -0.43421242 11 3197983049096 1 0
-2.0766914 -11.147807 -1.7641762 21 3197983049096 1 0
-2.693785 -11.342444 -1.4839041 17 3197983051400 1 0
-11.0129 -80.8157 0.47404292 84 3197983051400 1 0
-14.922993 -62.798153 -0.3751474 14 3197983053704 1 0
-3.124561 -16.74848 -1.835215 2 3197983053704 1 0
-5.823581 -20.077593 -1.9514537 9 3197983056008 1 0
-12.799061 -68.5566 1.6228367 20 3197983056008 1 0
-18.082916 -62.31284 0.7553666 15 3197983058312 1 0
-5.2044525 -27.856798 -1.9816419 7 3197983058312 1 0
-5.5366774 -23.258545 -1.951771 2 3197983060616 1 0
-11.570986 -84.58004 2.484448 80 3197983060616 1 0
-8.423528 -35.365112 0.6345695 6 3197983062920 1 0
-4.188025 -30.583252 -1.9783347 11 3197983062920 1 0
-5.5107646 -18.961998 -1.1499898 2 3197983065224 1 1
-8.434496 -35.370075 1.4814193 21 3197983067528 1 0
-13.416395 -71.65529 4.245544 28 3197983065224 1 0
-5.8714685 -31.336103 -1.4850874 35 3197983067528 1 1
-6.143743 -25.748861 -1.3873215 4 3197983069832 1 1
0 0 0 1 3197983069832 1 0
-8.452366 -35.403934 2.9714305 15 3197983072136 1 0
-4.411655 -32.09131 -1.31973 35 3197983072136 1 0
-9.878726 -33.925434 -1.2339066 18 3197983074440 1 0
-8.447233 -35.34147 6.6251683 13 3197983076744 1 0
0 0 0 9 3197983074440 1 0
-6.6777134 -35.53624 -0.84138125 21 3197983076744 1 0
-0.87739736 -3.651815 -1.75133 3 3197983097480 1 0
0 0 0 14 3197983097480 1 0
-8.786056 -36.542698 -1.0938041 22 3197983099784 1 0
-1.1685113 -6.1728516 -1.7587097 5 3197983099784 1 0
-2.1020699 -8.736715 -1.7972188 3 3197983102088 1 0
-12.988233 -68.552444 0 20 3197983102088 1 0
0 0 0 13 3197983104392 1 0
-2.1178298 -11.168227 -1.7684805 18 3197983104392 1 0
-2.7363005 -11.356754 -1.4869347 18 3197983106696 1 0
-11.277241 -80.787315 0.4740894 84 3197983106696 1 0
0 0 0 38 3197983109000 1 0
-3.179597 -16.73812 -1.835215 2 3197983109000 1 0
-5.8946176 -20.073456 -1.9529408 13 3197983111304 1 0
-13.031561 -68.54128 1.6234881 20 3197983111304 1 0
-18.225866 -62.029427 0.7526659 14 3197983113608 1 0
-5.2998476 -27.850992 -1.982479 7 3197983113608 1 0
-5.617 -23.24748 -1.9524219 2 3197983115912 1 0
-11.85132 -84.504875 2.4834008 40 3197983115912 1 0
-8.53256 -35.28959 0.6337318 6 3197983118216 1 0
-4.2987475 -30.616257 -1.9814045 11 3197983118216 1 0
-5.499144 -18.682482 -1.134176 2 3197983120520 1 1
-13.5986595 -71.275406 4.2257767 28 3197983120520 1 0
-8.539951 -35.27075 1.4784884 21 3197983122824 1 0
-5.9686637 -31.256721 -1.4822955 35 3197983122824 1 1
-6.2420516 -25.762197 -1.3892056 12 3197983125128 1 1
0 0 0 1 3197983125128 1 0
-8.5647135 -35.323597 2.9671996 23 3197983127432 1 0
-4.5312796 -32.12307 -1.321684 40 3197983127432 1 0
-16.39511 -55.568516 -2.0231936 13 3197983129736 1 0
0 0 0 9 3197983129736 1 0
-8.557844 -35.24601 6.6129713 13 3197983132040 1 0
-6.8010535 -35.492485 -0.840916 31 3197983132040 1 0
-0.88797104 -3.6343327 -1.7445682 3 3197983152776 1 0
-5.7130466 -39.991837 -0.705147 20 3197983152776 1 0
-8.182276 -33.467716 -1.0026926 19 3197983155080 1 0
-1.1906531 -6.160773 -1.756553 4 3197983155080 1 0
-2.133483 -8.721023 -1.7956499 3 3197983157384 1 0
-13.26 -68.557434 0 40 3197983157384 1 0
-10.592049 -35.632515 -0.4327689 11 3197983159688 1 0
-2.1639657 -11.179509 -1.7715552 14 3197983159688 1 0
-11.594588 -80.82724 0.47457764 84 3197983161992 1 0
0 0 0 9 3197983164296 1 0
-3.2418697 -16.722118 -1.8347867 2 3197983164296 1 0
-5.97331 -20.062647 -1.9540561 19 3197983166600 1 0
-13.281813 -68.45657 1.6226505 20 3197983166600 1 0
-2.783947 -11.365596 -1.48946 17 3197983161992 1 0
-18.300018 -61.431877 0.74624 14 3197983168904 1 0
-5.406197 -27.84274 -1.9833161 7 3197983168904 1 0
-9.937578 -68.99045 2.028541 52 3197983171208 1 0
-8.628075 -35.114 0.6311488 6 3197983173512 1 0
-5.706372 -23.238022 -1.9533982 2 3197983171208 1 0
-4.425371 -30.690975 -1.9872887 11 3197983173512 1 0
-5.5761166 -18.688826 -1.1358039 2 3197983175816 1 1
0 0 0 3 3197983175816 1 0
-8.646765 -35.145943 1.4745805 21 3197983178120 1 0
-6.0706534 -31.167873 -1.4791313 35 3197983178120 1 1
0 0 0 19 3197983180424 1 0
0 0 0 1 3197983180424 1 0
-8.665004 -35.175964 2.9574358 15 3197983182728 1 0
-4.653101 -32.13796 -1.3229866 40 3197983182728 1 0
-16.617666 -55.577473 -2.0257063 26 3197983185032 1 0
-7.1433306 -36.59011 9.98938 20 3197983185032 1 0
-8.667529 -35.142197 6.599339 13 3197983187336 1 0
-6.9341474 -35.49117 -0.8414743 57 3197983187336 1 0
-0.90327 -3.6417668 -1.7496396 4 3197983208072 1 0
-4.7042212 -32.128487 -0.5667843 9 3197983208072 1 0
-8.65925 -34.890285 -1.046212 14 3197983210376 1 0
-1.212895 -6.1603584 -1.7576314 6 3197983210376 1 0
-2.1658025 -8.721135 -1.7972188 3 3197983212680 1 0
-10.719824 -35.606815 -0.4329086 31 3197983214984 1 0
-2.2067995 -11.191277 -1.7746297 17 3197983214984 1 0
-2.8283908 -11.375062 -1.4919853 16 3197983217288 1 0
0 0 0 42 3197983212680 1 0
-11.883638 -80.83376 0.4748566 3 3197983217288 1 0
-14.920866 -59.97065 -0.35917628 24 3197983219592 1 0
-3.3025327 -16.722406 -1.8360718 2 3197983219592 1 0
-13.497429 -68.2921 1.619859 60 3197983221896 1 0
-6.044455 -20.045486 -1.9544278 21 3197983221896 1 0
-10.824872 -35.880108 0.4363078 14 3197983224200 1 0
-5.5258064 -27.937216 -1.9914079 7 3197983224200 1 0
-5.795167 -23.248907 -1.9560019 2 3197983226504 1 0
-10.159656 -68.82876 2.0248175 78 3197983226504 1 0
-8.740913 -35.04486 0.6304507 18 3197983228808 1 0
-4.537727 -30.71088 -1.9895911 11 3197983228808 1 0
-5.5789456 -18.46283 -1.1232458 2 3197983231112 1 1
0 0 0 3 3197983231112 1 0
-8.750028 -35.037994 1.471324 21 3197983233416 1 0
-6.166971 -31.083784 -1.4761534 40 3197983233416 1 1
-6.3952518 -25.59286 -1.3825066 60 3197983235720 1 1
0 0 0 1 3197983235720 1 0
-8.774199 -35.091354 2.9528794 15 3197983238024 1 0
0 0 0 90 3197983240328 1 0
-4.770533 -32.1571 -1.324452 30 3197983238024 1 0
-7.2220297 -36.318638 9.922087 13 3197983240328 1 0
-8.767209 -35.02011 6.58212 13 3197983242632 1 0
-6.523355 -32.78017 -0.7777333 57 3197983242632 1 0
-0.91509163 -3.635076 -1.7479491 3 3197983263368 1 0
-4.8222737 -32.15142 -0.5674825 14 3197983263368 1 0
-8.79173 -34.902496 -1.0474919 14 3197983265672 1 0
-2.1952732 -8.709719 -1.7964344 4 3197983267976 1 0
-1.233634 -6.1523104 -1.756553 6 3197983265672 1 0
-7.3307104 -36.531742 0 25 3197983267976 1 0
-10.839384 -35.553875 -0.43272233 31 3197983270280 1 0
-2.2481854 -11.19513 -1.7764744 17 3197983270280 1 0
-2.8748763 -11.392052 -1.4955208 18 3197983272584 1 0
-12.165133 -80.787834 0.47483334 84 3197983272584 1 0
-15.139905 -59.95698 -0.35940874 24 3197983274888 1 0
0 0 0 56 3197983277192 1 0
-3.3632371 -16.722473 -1.8373569 2 3197983274888 1 0
-13.7349415 -68.24065 1.6197659 40 3197983277192 1 0
0 0 0 248 3197983279496 1 0
-5.6280193 -27.941227 -1.9930819 7 3197983279496 1 0
-5.8733525 -23.216942 -1.9550256 2 3197983281800 1 0
-8.84258 -34.932716 0.62898475 18 3197983284104 1 0
-10.399851 -68.79288 2.0248175 52 3197983281800 1 0
-4.6502757 -30.730377 -1.9918936 7 3197983284104 1 0
-5.6456957 -18.45088 -1.123711 2 3197983286408 1 1
-8.852642 -34.929752 1.4680674 21 3197983288712 1 0
-7.4089427 -36.70018 2.180446 24 3197983286408 1 0
-6.267524 -31.022902 -1.4742922 40 3197983288712 1 1
0 0 0 8 3197983291016 1 0
0 0 0 1 3197983291016 1 0
-8.888792 -35.0296 2.950276 15 3197983293320 1 0
-4.8851547 -32.15606 -1.3251034 35 3197983293320 1 0
-10.933712 -35.65866 -1.3024492 95 3197983295624 1 0
-8.866143 -34.89776 6.5649004 13 3197983297928 1 0
-7.3303585 -36.20232 9.897241 13 3197983295624 1 0
-6.2835364 -31.009209 -0.73623186 26 3197983297928 1 1
-0.92956936 -3.6388843 -1.75133 5 3197983318664 1 0
-8.965094 -58.382687 -1.0310184 21 3197983318664 1 0
-6.6565332 -26.043392 -0.7823026 4 3197983320968 1 1
-1.2565535 -6.1555333 -1.7587097 6 3197983320968 1 0
-2.2254093 -8.702067 -1.7964344 3 3197983323272 1 0
-7.4387107 -36.41601 0 100 3197983323272 1 0
-2.2899282 -11.202804 -1.778934 17 3197983325576 1 0
0 0 0 98 3197983325576 1 0
-2.9169147 -11.393648 -1.4970361 18 3197983327880 1 0
-12.447237 -80.77723 0.47501934 84 3197983327880 1 0
-15.34276 -59.897137 -0.35936224 12 3197983330184 1 0
-3.4219687 -16.718672 -1.8382137 2 3197983330184 1 0
-6.015506 -19.463018 -1.9016356 4 3197983332488 1 0
0 0 0 24 3197983332488 1 0
-10.976925 -35.499092 0.43258265 223 3197983334792 1 0
-5.726681 -27.94154 -1.9944772 7 3197983334792 1 0
-5.9566135 -23.2163 -1.9566529 2 3197983337096 1 0
-10.630697 -68.74949 2.0245848 78 3197983337096 1 0
-8.958901 -34.898937 0.6289149 48 3197983339400 1 0
-4.7602115 -30.757973 -1.9947077 11 3197983339400 1 0
-5.6565957 -18.267866 -1.1137111 2 3197983341704 1 1
-7.4754405 -36.40138 2.164167 56 3197983341704 1 0
-8.963959 -34.88072 1.4672532 21 3197983344008 1 0
-6.758486 -32.888348 -1.5640042 32 3197983344008 1 0
-6.5812445 -25.59516 -1.3850187 20 3197983346312 1 1
0 0 0 10 3197983346312 1 0
-8.977577 -34.895813 2.9414885 22 3197983348616 1 0
-4.9839334 -32.09236 -1.3231494 35 3197983348616 1 0
0 0 0 75 3197983350920 1 0
-7.431395 -36.090992 9.873429 19 3197983350920 1 0
-8.996984 -34.933342 6.5770974 20 3197983353224 1 0
-0.9391801 -3.628927 -1.7479491 3 3197983373960 1 0
-9.1528 -58.38189 -1.031507 21 3197983373960 1 0
-6.721845 -25.956404 -0.78032446 12 3197983376264 1 1
-1.2775843 -6.1590705 -1.7608663 5 3197983376264 1 0
-2.2550838 -8.702529 -1.7980033 3 3197983378568 1 0
-7.5457225 -36.34905 0 97 3197983378568 1 0
-7.2823634 -35.34379 -0.8397063 36 3197983353224 1 0
-10.597795 -33.949932 -0.41405004 67 3197983380872 1 0
-2.330668 -11.218621 -1.7826235 16 3197983380872 1 0
-2.9586704 -11.403375 -1.4995614 18 3197983383176 1 0
-12.711721 -80.76032 0.4751588 84 3197983383176 1 0
-15.566534 -59.95922 -0.36003643 12 3197983385480 1 0
-3.4754875 -16.703566 -1.8377854 3 3197983385480 1 0
-6.0851083 -19.462234 -1.9034945 4 3197983387784 1 0
-7.568323 -36.346344 0.86389995 71 3197983387784 1 0
-11.123664 -35.55817 0.43374676 222 3197983390088 1 0
-6.0345726 -23.200277 -1.9569783 2 3197983392392 1 0
-10.859869 -68.721756 2.0248175 52 3197983392392 1 0
-9.116644 -35.027527 0.6317771 36 3197983394696 1 0
-4.8753266 -30.820768 -1.9998243 11 3197983394696 1 0
-5.7776384 -18.439285 -1.1253389 2 3197983397000 1 1
-7.5895333 -36.336967 2.1618414 56 3197983397000 1 0
-5.823582 -27.945961 -1.9961512 7 3197983390088 1 0
-9.123181 -35.008774 1.4739292 28 3197983399304 1 0
-6.8843765 -32.935703 -1.5673543 37 3197983399304 1 0
0 0 0 8 3197983401608 1 0
-7.60147 -36.338654 4.558401 48 3197983401608 1 0
-9.144357 -35.046165 2.956785 23 3197983403912 1 0
-5.082544 -32.00405 -1.3202186 30 3197983403912 1 0
-7.5414968 -35.997093 9.854794 19 3197983406216 1 0
-9.1380005 -34.97807 6.591447 20 3197983408520 1 0
-6.9027257 -32.923054 -0.7827581 66 3197983408520 1 0
-0.9524745 -3.6254604 -1.7479491 4 3197983429256 1 0
-9.372424 -58.38349 -1.0321354 21 3197983429256 1 0
-10.638264 -33.879383 -1.2400489 55 3197983406216 1 0
-6.782185 -25.800165 -0.7763682 24 3197983431560 1 1
-1.299309 -6.1505876 -1.7597879 5 3197983431560 1 0
-2.2878363 -8.698031 -1.7987878 3 3197983433864 1 0
-7.6899524 -36.37605 0 76 3197983433864 1 0
-10.697302 -33.834824 -0.41311875 43 3197983436168 1 0
-2.37398 -11.221656 -1.7844683 17 3197983436168 1 0
-3.0041566 -11.40789 -1.5015817 18 3197983438472 1 0
-13.014834 -80.772804 0.47550753 84 3197983438472 1 0
0 0 0 16 3197983440776 1 0
-3.5377274 -16.698626 -1.8386421 3 3197983440776 1 0
-6.1675744 -19.478039 -1.9072123 3 3197983443080 1 0
-7.700733 -36.32261 0.86399305 66 3197983443080 1 0
-11.271436 -35.578743 0.43449178 218 3197983445384 1 0
-5.9245486 -27.92473 -1.9961512 7 3197983445384 1 0
-6.124322 -23.201488 -1.9589311 2 3197983447688 1 0
-13.660381 -84.466286 2.4901497 39 3197983447688 1 0
-9.133396 -34.580734 0.62430745 82 3197983449992 1 0
-4.9887934 -30.81878 -2.0008476 11 3197983449992 1 0
-5.8353896 -18.391768 -1.123711 2 3197983452296 1 1
-7.7308197 -36.360245 2.1648645 48 3197983452296 1 0
-9.146463 -34.589455 1.4576463 41 3197983454600 1 0
-7.0148864 -32.969433 -1.5701462 38 3197983454600 1 0
-6.837422 -25.842075 -1.4009289 4 3197983456904 1 1
-7.7314377 -36.311226 4.558401 41 3197983456904 1 0
-9.162305 -34.608624 2.922612 15 3197983459208 1 0
-5.1846085 -31.910748 -1.3171247 30 3197983459208 1 0
-10.771033 -33.879356 -1.241445 12 3197983461512 1 0
-7.645548 -35.85663 9.823735 19 3197983461512 1 0
-9.163525 -34.572582 6.5211344 20 3197983463816 1 0
-0.96605724 -3.6256166 -1.7496396 4 3197983484552 1 0
-7.035615 -32.972607 -0.78452617 66 3197983463816 1 0
-9.581992 -58.385937 -1.0327636 21 3197983484552 1 0
-6.8598433 -25.729975 -0.77497184 12 3197983486856 1 1
-1.319152 -6.1384826 -1.7576314 4 3197983486856 1 0
-2.3181841 -8.689993 -1.7987878 4 3197983489160 1 0
-7.7580132 -36.075245 0 35 3197983489160 1 0
-2.4181259 -11.236485 -1.7881577 17 3197983491464 1 0
-10.877513 -33.991558 -0.41549355 15 3197983491464 1 0
-3.0521502 -11.428003 -1.5056223 18 3197983493768 1 0
-13.300605 -80.750565 0.475647 84 3197983493768 1 0
-9.219709 -34.500736 -0.20755506 92 3197983496072 1 0
-3.5968328 -16.690063 -1.8390706 3 3197983496072 1 0
-6.252545 -19.509487 -1.9124172 3 3197983498376 1 0
0 0 0 86 3197983500680 1 0
-7.78954 -36.1196 0.85980564 21 3197983498376 1 0
-6.0287223 -27.935083 -1.9983834 7 3197983500680 1 0
-6.2320776 -23.280098 -1.9673929 2 3197983502984 1 0
-13.9499235 -84.38653 2.4892187 39 3197983502984 1 0
-9.2374935 -34.48683 0.6231905 99 3197983505288 1 0
-5.10416 -30.848438 -2.0039177 11 3197983505288 1 0
-5.9081 -18.3979 -1.1253389 2 3197983507592 1 1
-9.252654 -34.503273 1.4553667 68 3197983509896 1 0
-7.150213 -33.03847 -1.5746132 33 3197983509896 1 0
-6.9337974 -25.8412 -1.402185 4 3197983512200 1 1
-7.8362913 -36.18313 4.5457263 20 3197983512200 1 0
-9.261347 -34.495575 2.9157772 37 3197983514504 1 0
0 0 0 6 3197983507592 1 0
-10.989635 -34.1536 -1.2528919 12 3197983516808 1 0
-5.285491 -31.829372 -1.3145195 30 3197983514504 1 0
-9.268827 -34.48338 6.510372 46 3197983519112 1 0
-7.755105 -35.75798 9.804066 19 3197983516808 1 0
-7.168479 -33.029915 -0.78648025 73 3197983519112 1 0
-0.97712994 -3.6188931 -1.7479491 5 3197983539296 1 0
-6.1458993 -36.687107 -0.6492993 18 3197983539296 1 0
-9.314399 -34.47683 -1.0393466 75 3197983541600 1 0
-1.3411443 -6.141601 -1.7597879 4 3197983541600 1 0
-2.350059 -8.693617 -1.8011411 4 3197983543904 1 0
-7.8596673 -35.967255 0 35 3197983543904 1 0
-11.077621 -34.22548 -0.4187996 11 3197983546208 1 0
-3.0921032 -11.42548 -1.5066324 17 3197983548512 1 0
-2.4562185 -11.232265 -1.7887726 16 3197983546208 1 0
-13.570963 -80.72179 0.47574002 84 3197983548512 1 0
-9.335113 -34.473835 -0.20757832 87 3197983550816 1 0
-3.6615171 -16.720778 -1.8437828 3 3197983550816 1 0
-6.356505 -19.609882 -1.924314 3 3197983553120 1 0
-7.889586 -36.003727 0.8576655 21 3197983553120 1 0
0 0 0 43 3197983555424 1 0
-6.305068 -23.243914 -1.9660912 2 3197983557728 1 0
-6.123889 -27.92663 -1.9992205 7 3197983555424 1 0
-13.852522 -82.104355 2.4232414 41 3197983557728 1 0
-9.3539 -34.46373 0.6233302 99 3197983560032 1 0
-5.22504 -30.941551 -2.011081 11 3197983560032 1 0
-5.8888974 -18.13134 -1.1102227 2 3197983562336 1 1
-7.9052873 -35.975266 2.1450973 7 3197983562336 1 0
-9.36178 -34.453117 1.4545525 75 3197983564640 1 0
0 0 0 19 3197983566944 1 0
-7.2777534 -33.09653 -1.5785218 33 3197983564640 1 0
-7.922107 -36.00185 4.5262275 13 3197983566944 1 0
-9.372548 -34.453133 2.914801 30 3197983569248 1 0
-11.193139 -34.394463 -1.2630826 12 3197983571552 1 0
-5.378324 -31.7368 -1.3114258 35 3197983569248 1 0
-7.849529 -35.622643 9.774042 19 3197983571552 1 0
-9.382093 -34.448658 6.5096545 39 3197983573856 1 0
-7.2951927 -33.084064 -0.7883413 73 3197983573856 1 0
-0.9907135 -3.6189568 -1.7496396 5 3197983594592 1 0
0 0 0 18 3197983594592 1 0
-9.449727 -34.498024 -1.0409757 63 3197983596896 1 0
-2.3815544 -8.689109 -1.8019257 2 3197983599200 1 0
-1.361784 -6.133112 -1.7587097 4 3197983596896 1 0
-7.965736 -35.849674 0 41 3197983599200 1 0
-11.286166 -34.45623 -0.42210567 11 3197983601504 1 0
-2.4990878 -11.239001 -1.7912322 16 3197983601504 1 0
-3.136499 -11.4298315 -1.5086527 17 3197983603808 1 0
-13.859061 -80.697174 0.4758795 84 3197983603808 1 0
-9.475708 -34.510124 -0.20799677 58 3197983606112 1 0
-3.723062 -16.719406 -1.845068 3 3197983606112 1 0
-5.9490533 -18.13414 -1.781552 1 3197983608416 1 0
-7.9967794 -35.885845 0.85552526 26 3197983608416 1 0
-30.00621 -91.41898 1.1201516 28 3197983610720 1 0
-6.2435985 -27.998238 -2.005917 7 3197983610720 1 0
-6.3959756 -23.252144 -1.9686948 2 3197983613024 1 0
-9.493379 -34.491943 0.6244471 64 3197983615328 1 0
-13.791318 -80.00972 2.3628495 43 3197983613024 1 0
-5.343861 -30.973913 -2.0144067 11 3197983615328 1 0
-5.958457 -18.125416 -1.111153 2 3197983617632 1 1
-8.039527 -35.974148 2.1467252 24 3197983617632 1 0
-9.497482 -34.465706 1.4565065 48 3197983619936 1 0
-7.4168124 -33.163918 -1.5829889 33 3197983619936 1 0
-9.322401 -33.81019 -1.8380388 28 3197983622240 1 0
-8.031793 -35.88804 4.515503 20 3197983622240 1 0
-9.509792 -34.46927 2.9190319 22 3197983624544 1 0
-5.4784336 -31.638552 -1.3081691 34 3197983624544 1 0
-11.400427 -34.60842 -1.2724357 19 3197983626848 1 0
-7.9647765 -35.537663 9.758513 19 3197983626848 1 0
-9.528041 -34.494316 6.5247216 20 3197983629152 1 0
-7.430867 -33.131725 -0.7901093 63 3197983629152 1 0
-1.003971 -3.6153014 -1.7496396 4 3197983649888 1 0
-6.4316926 -36.77614 -0.65167284 18 3197983649888 1 0
-1.3850133 -6.131857 -1.7597879 5 3197983652192 1 0
-2.413133 -8.680391 -1.8019257 3 3197983654496 1 0
-8.0775175 -35.73854 0 41 3197983654496 1 0
-9.623771 -34.636654 -1.046212 28 3197983652192 1 0
-11.49018 -34.654312 -0.42503923 7 3197983656800 1 0
-2.5423896 -11.241443 -1.793077 15 3197983656800 1 0
-3.184089 -11.44138 -1.5116832 20 3197983659104 1 0
-12.044475 -68.64619 0.40506715 28 3197983659104 1 0
0 0 0 9 3197983661408 1 0
-3.7866151 -16.721437 -1.8467815 3 3197983661408 1 0
-6.049037 -18.218573 -1.7919617 2 3197983663712 1 0
-8.10745 -35.779003 0.8536642 32 3197983663712 1 0
-30.37717 -91.44813 1.121828 28 3197983666016 1 0
-5.793613 -25.551422 -1.8320841 3 3197983666016 1 0
-6.477382 -23.225458 -1.9683694 2 3197983668320 1 0
-12.087901 -68.67069 2.0292392 26 3197983668320 1 0
0 0 0 21 3197983670624 1 0
-5.4574537 -30.97842 -2.0159416 7 3197983670624 1 0
-6.0297794 -18.127066 -1.1125484 2 3197983672928 1 1
-8.161674 -35.92616 2.1455624 23 3197983672928 1 0
0 0 0 29 3197983675232 1 0
-7.551613 -33.21954 -1.5868975 33 3197983675232 1 0
-9.456492 -33.835148 -1.8411789 35 3197983677536 1 0
-8.137643 -35.774616 4.5047784 13 3197983677536 1 0
0 0 0 8 3197983679840 1 0
-5.57725 -31.556345 -1.3055639 34 3197983679840 1 0
-12.2532015 -36.768406 -1.3534025 14 3197983682144 1 0
-8.076591 -35.460903 9.745054 19 3197983682144 1 0
-9.681893 -34.58632 6.5483985 6 3197983684448 1 0
-7.5645776 -33.191692 -0.79215646 63 3197983684448 1 0
-1.0169358 -3.615442 -1.75133 4 3197983705184 1 0
-6.9271 -38.849247 -0.6888116 13 3197983705184 1 0
-9.757495 -34.669838 -1.0481901 14 3197983707488 1 0
-1.4054289 -6.1272097 -1.7597879 6 3197983707488 1 0
-2.4421573 -8.672271 -1.8019257 3 3197983709792 1 0
-8.181812 -35.645042 0 30 3197983709792 1 0
-24.634665 -73.47074 -0.9021374 40 3197983712096 1 0
-2.583683 -11.248245 -1.7955366 13 3197983712096 1 0
-3.2302146 -11.457304 -1.5152187 20 3197983714400 1 0
-12.287312 -68.66815 0.4054391 28 3197983714400 1 0
-16.933928 -60.028137 -0.36250067 12 3197983716704 1 0
-3.8325617 -16.662 -1.8416408 3 3197983716704 1 0
-6.0666323 -18.065739 -1.7789495 1 3197983719008 1 0
-8.208541 -35.66157 0.851524 26 3197983719008 1 0
-5.91853 -25.694786 -1.8438032 9 3197983721312 1 0
-5.4121804 -19.151754 -1.6246858 5 3197983723616 1 0
-12.32566 -68.6406 2.0295885 26 3197983723616 1 0
-16.957413 -59.97117 1.0878434 16 3197983725920 1 0
-30.16728 -89.78927 1.1027365 28 3197983721312 1 0
-6.0517387 -17.984974 -1.1051065 2 3197983728224 1 1
-5.5726776 -31.00657 -2.0190115 7 3197983725920 1 0
-9.950149 -35.148445 1.4882581 21 3197983730528 1 0
-7.6868253 -33.278736 -1.5909922 33 3197983730528 1 0
-9.595225 -33.874954 -1.8451564 35 3197983732832 1 0
-8.243693 -35.66476 4.494541 20 3197983732832 1 0
-9.943704 -35.084785 2.9769633 7 3197983735136 1 0
-8.250958 -35.745945 2.1364927 23 3197983728224 1 0
-5.6778955 -31.481537 -1.3032843 34 3197983735136 1 1
-12.4195795 -36.834904 -1.3574508 7 3197983737440 1 0
-8.174344 -35.315567 9.712961 19 3197983737440 1 0
0 0 0 29 3197983739744 1 0
-7.700789 -33.24656 -0.79411054 68 3197983739744 1 0
-1.0311747 -3.6151767 -1.7530205 3 3197983760480 1 0
-6.7241035 -36.927074 -0.65516335 12 3197983760480 1 0
-10.292435 -36.06418 -1.0914768 22 3197983762784 1 0
-1.4287071 -6.125779 -1.7608663 4 3197983762784 1 0
-2.475954 -8.67084 -1.8034946 3 3197983765088 1 0
-8.288249 -35.51366 0 35 3197983765088 1 0
-24.94974 -73.52064 -0.9038603 40 3197983767392 1 0
-2.6282427 -11.254153 -1.7979963 13 3197983767392 1 0
-3.2783968 -11.468374 -1.5182492 21 3197983769696 1 0
-12.5340395 -68.607285 0.4053461 28 3197983769696 1 0
-25.444231 -88.95916 -0.5377647 28 3197983772000 1 0
-3.8948112 -16.655727 -1.8424976 3 3197983772000 1 0
-6.20122 -18.247276 -1.7990254 5 3197983774304 1 0
-8.315771 -35.53816 0.8492907 26 3197983774304 1 0
-30.584309 -89.9523 1.1060891 28 3197983776608 1 0
-6.562643 -28.027641 -2.0128927 3 3197983776608 1 0
0 0 0 100 3197983778912 1 0
-12.573888 -68.59963 2.0297048 26 3197983778912 1 0
-33.612404 -117.259 2.1291935 29 3197983781216 1 0
-5.6885786 -31.009869 -2.0205467 11 3197983781216 1 0
-6.1137357 -17.955557 -1.1046414 4 3197983783520 1 1
-8.369288 -35.67331 2.1339347 23 3197983783520 1 0
-10.133425 -35.312313 1.4967253 14 3197983785824 1 0
-7.826177 -33.336544 -1.5950869 11 3197983785824 1 0
-9.738413 -33.917194 -1.8493433 36 3197983788128 1 0
-8.351272 -35.550007 4.483817 13 3197983788128 1 0
-33.053387 -115.05608 9.772524 28 3197983790432 1 0
-5.777971 -31.394241 -1.3005162 34 3197983790432 1 1
-12.402327 -36.355316 -1.341397 7 3197983792736 1 0
0 0 0 29 3197983795040 1 0
-8.274478 -35.177143 9.682939 19 3197983792736 1 0
-7.83546 -33.289032 -0.7957855 68 3197983795040 1 0
-1.0427811 -3.6080725 -1.75133 4 3197983815776 1 0
-6.8719473 -37.005615 -0.65697837 36 3197983815776 1 0
-10.435506 -36.089638 -1.0933386 15 3197983818080 1 0
-1.4482164 -6.1132793 -1.7587097 4 3197983818080 1 0
-2.507044 -8.665986 -1.8042791 2 3197983820384 1 0
0 0 0 7 3197983820384 1 0
-25.22509 -73.49851 -0.9046519 40 3197983822688 1 0
-2.669757 -11.256564 -1.799841 13 3197983822688 1 0
-3.3254685 -11.483733 -1.5217847 21 3197983824992 1 0
-12.77312 -68.58352 0.40546235 28 3197983824992 1 0
-25.418661 -87.73447 -0.53088343 28 3197983827296 1 0
-3.953554 -16.650057 -1.8433543 3 3197983827296 1 0
-6.2930565 -18.312695 -1.8075763 4 3197983829600 1 0
-8.423732 -35.45518 0.847988 15 3197983829600 1 0
-30.708216 -89.32238 1.0996168 28 3197983831904 1 0
0 0 0 38 3197983831904 1 0
-5.3857784 -18.562153 -1.5778198 29 3197983834208 1 1
-12.804558 -68.55289 2.0295885 26 3197983834208 1 0
-33.773148 -116.342674 2.1146033 29 3197983836512 1 0
-5.797866 -31.018047 -2.0223374 11 3197983836512 1 0
-6.2127585 -18.048279 -1.111618 4 3197983838816 1 1
-8.431221 -35.404266 2.1195161 15 3197983838816 1 0
-10.032401 -34.526127 1.4648107 14 3197983841120 1 0
-6.1154156 -25.66486 -1.2289801 39 3197983841120 1 1
-9.86979 -33.94992 -1.8529022 43 3197983843424 1 0
-8.450699 -35.444878 4.474067 13 3197983843424 1 0
-33.04337 -113.6065 9.658614 28 3197983845728 1 0
-5.868335 -31.304285 -1.2975852 39 3197983845728 1 1
-12.577796 -36.47686 -1.3473997 7 3197983848032 1 0
-8.371224 -35.070835 9.661198 19 3197983848032 1 0
0 0 0 29 3197983850336 1 0
-8.647569 -36.20758 -0.8662263 33 3197983850336 1 0
-6.834461 -36.170364 -0.6425278 11 3197983871072 1 0
-1.054111 -3.6047785 -1.75133 3 3197983871072 1 0
-9.926231 -33.926746 -1.0287577 13 3197983873376 1 0
-1.4693031 -6.116169 -1.7608663 3 3197983873376 1 0
-2.5356104 -8.661757 -1.8050635 3 3197983875680 1 0
-25.502316 -73.542496 -0.9061885 27 3197983877984 1 0
-8.486203 -35.30234 0 5 3197983875680 1 0
-2.7120686 -11.274903 -1.8041453 13 3197983877984 1 0
-3.3655443 -11.484458 -1.5232998 21 3197983880288 1 0
-12.99176 -68.53836 0.4054391 28 3197983880288 1 0
-4.0089145 -16.644997 -1.8442112 3 3197983882592 1 0
-6.238488 -17.96496 -1.7752317 1 3197983884896 1 0
-8.512871 -35.322834 0.84547555 5 3197983884896 1 0
-30.988573 -89.19587 1.0992907 28 3197983887200 1 0
-25.423677 -86.70808 -0.52516454 28 3197983882592 1 0
0 0 0 1 3197983887200 1 0
-5.422633 -18.46418 -1.5709852 14 3197983889504 1 1
-13.027831 -68.5108 2.0295885 26 3197983889504 1 0
-33.65759 -114.543175 2.083887 29 3197983891808 1 0
-5.899341 -30.998909 -2.0223374 11 3197983891808 1 0
-6.2720504 -18.02776 -1.111618 4 3197983894112 1 1
-8.533483 -35.31814 2.1160278 7 3197983894112 1 0
-10.604253 -36.04952 1.5309194 15 3197983896416 1 0
-6.2057505 -25.667831 -1.2300968 29 3197983896416 1 1
-10.031941 -34.085613 -1.8621134 14 3197983898720 1 0
-8.067804 -33.34831 4.2127795 18 3197983898720 1 0
-33.02741 -112.15728 9.5447035 28 3197983901024 1 0
-5.9620733 -31.229605 -1.2953056 39 3197983901024 1 1
-17.422022 -49.982414 -1.8484169 10 3197983903328 1 0
-8.468485 -34.960022 9.638421 19 3197983903328 1 0
0 0 0 29 3197983905632 1 0
-8.827574 -36.419277 -0.87199557 16 3197983905632 1 0
-1.065658 -3.5976012 -1.7496396 4 3197983926368 1 0
0 0 0 72 3197983926368 1 0
-17.788515 -60.02096 -1.821882 22 3197983928672 1 0
-1.4906436 -6.111003 -1.7608663 3 3197983928672 1 0
-2.5680604 -8.660375 -1.8066325 3 3197983930976 1 0
-8.601792 -35.241417 0 5 3197983930976 1 0
-25.84623 -73.70214 -0.9092617 27 3197983933280 1 0
-2.754222 -11.276886 -1.8059901 13 3197983933280 1 0
-3.411258 -11.491659 -1.5258253 21 3197983935584 1 0
-13.1945095 -68.304085 0.40432322 84 3197983935584 1 0
-10.646931 -35.847683 -0.21734232 15 3197983937888 1 0
-4.073605 -16.657944 -1.8472099 3 3197983937888 1 0
-6.3024793 -17.946833 -1.7756035 2 3197983940192 1 0
-8.613307 -35.19968 0.8432423 5 3197983940192 1 0
-30.372995 -86.4494 1.0667423 28 3197983942496 1 0
-6.8422275 -27.944271 -2.0117767 7 3197983942496 1 0
0 0 0 19 3197983944800 1 0
-13.24408 -68.34715 2.0260975 78 3197983944800 1 0
-10.669762 -35.84813 0.6528596 19 3197983947104 1 0
-6.3415675 -18.02459 -1.1127808 4 3197983949408 1 1
-6.018911 -31.03691 -2.0261748 11 3197983947104 1 0
-8.677645 -35.37346 2.121144 23 3197983949408 1 0
-10.75285 -36.08889 1.534176 7 3197983951712 1 0
-6.307693 -25.69646 -1.2325164 21 3197983951712 1 1
-10.256992 -34.406395 -1.8815823 15 3197983954016 1 0
-8.165222 -33.242832 4.20303 18 3197983954016 1 0
-33.077995 -110.89901 9.4473915 28 3197983956320 1 0
-6.0573115 -31.137987 -1.2923747 38 3197983956320 1 1
-6.946327 -19.706865 -0.7296787 8 3197983958624 1 1
-8.57109 -34.85146 9.61668 19 3197983958624 1 0
0 0 0 29 3197983960928 1 0
-8.2331915 -33.456524 -0.8017409 20 3197983960928 1 0
-1.0792513 -3.5973318 -1.75133 3 3197983981664 1 0
0 0 0 24 3197983981664 1 0
-17.96803 -59.858936 -1.8188566 22 3197983983968 1 0
-1.5119659 -6.1057625 -1.7608663 4 3197983983968 1 0
-2.5994031 -8.655114 -1.8074169 2 3197983986272 1 0
-8.724755 -35.211174 0 5 3197983986272 1 0
-29.828953 -84.1177 -1.0390365 28 3197983988576 1 0
-2.800227 -11.294058 -1.8102945 12 3197983988576 1 0
-3.4593477 -11.506282 -1.5293608 19 3197983990880 1 0
0 0 0 5 3197983990880 1 0
-10.763932 -35.78349 -0.2171796 35 3197983993184 1 0
-4.131727 -16.643621 -1.8472099 3 3197983993184 1 0
-6.3704176 -17.939735 -1.7770905 2 3197983995488 1 0
-8.721663 -35.111183 0.8418465 5 3197983995488 1 0
-30.7201 -86.471 1.0683255 28 3197983997792 1 0
-6.9714923 -28.048008 -2.0209846 7 3197983997792 1 0
-5.627309 -18.67781 -1.5924655 5 3197984000096 1 1
-13.472509 -68.24951 2.0245848 52 3197984000096 1 0
0 0 0 101 3197984002400 1 0
-6.1101933 -30.929556 -2.0205467 11 3197984002400 1 0
-6.4031076 -17.99858 -1.1125484 2 3197984004704 1 1
-8.733523 -35.07171 2.104865 22 3197984004704 1 0
0 0 0 14 3197984007008 1 0
-6.382861 -25.616129 -1.2297245 76 3197984007008 1 1
-10.472857 -34.68778 -1.8989578 15 3197984009312 1 0
-8.268725 -33.164047 4.196693 18 3197984009312 1 0
0 0 0 8 3197984011616 1 0
-6.157421 -31.073528 -1.2905836 33 3197984011616 1 1
-6.9452863 -19.48669 -0.72241956 2 3197984013920 1 1
-8.6749115 -34.750103 9.597011 18 3197984013920 1 0
0 0 0 29 3197984016224 1 0
-8.705593 -34.851437 -0.8358911 47 3197984016224 1 0
-1.0928556 -3.5970113 -1.7530205 4 3197984036960 1 0
-6.20271 -31.041533 -0.55254316 18 3197984036960 1 1
0 0 0 78 3197984039264 1 0
-1.5333141 -6.100436 -1.7608663 3 3197984039264 1 0
-2.6285837 -8.642197 -1.8066325 2 3197984041568 1 0
0 0 0 11 3197984041568 1 0
-31.286592 -87.25408 -1.0791284 14 3197984043872 1 0
-2.8427737 -11.295651 -1.8121392 13 3197984043872 1 0
-3.5044487 -11.509218 -1.531381 19 3197984046176 1 0
-7.3129277 -36.481632 0.21624969 38 3197984046176 1 0
-10.860931 -35.649643 -0.2165984 89 3197984048480 1 0
-4.1933193 -16.640514 -1.848495 3 3197984048480 1 0
-6.453972 -17.973335 -1.7826673 4 3197984050784 1 0
0 0 0 5 3197984050784 1 0
-30.98558 -86.24873 1.0669285 28 3197984053088 1 0
-7.0717587 -28.02701 -2.0212636 7 3197984053088 1 0
-5.595814 -18.33742 -1.565127 1 3197984055392 1 1
-7.337749 -36.489777 1.0832151 55 3197984055392 1 0
0 0 0 238 3197984057696 1 0
-6.4766655 -18.001953 -1.1141762 2 3197984060000 1 1
-6.2256565 -30.935024 -2.0223374 11 3197984057696 1 0
-8.84474 -34.986164 2.1016092 15 3197984060000 1 0
-10.904607 -35.675713 1.519847 7 3197984062304 1 0
-10.658815 -34.85254 -1.910053 7 3197984064608 1 0
-8.433121 -33.315144 4.219604 12 3197984064608 1 0
-6.490945 -25.659027 -1.2328887 36 3197984062304 1 1
-33.191113 -108.47013 9.260253 28 3197984066912 1 0
-6.638143 -32.880795 -1.3666248 16 3197984066912 1 0
-6.9461107 -19.26982 -0.7153001 2 3197984069216 1 1
0 0 0 29 3197984071520 1 0
-8.7788105 -34.63632 9.574234 18 3197984069216 1 0
-8.807399 -34.726845 -0.8336579 57 3197984071520 1 0
-1.1060319 -3.5929816 -1.7530205 4 3197984092256 1 0
-7.3778267 -36.23081 -0.64539 11 3197984092256 1 0
0 0 0 46 3197984094560 1 0
-1.5555744 -6.094798 -1.7608663 4 3197984094560 1 0
-2.6599903 -8.632582 -1.8066325 3 3197984096864 1 0
-29.921013 -82.504005 -1.0217146 14 3197984099168 1 0
-8.902743 -34.861176 0 30 3197984096864 1 0
-2.8856199 -11.29294 -1.813369 17 3197984099168 1 0
-3.5541263 -11.523045 -1.5349165 19 3197984101472 1 0
-7.4308643 -36.388393 0.21585448 66 3197984101472 1 0
0 0 0 85 3197984103776 1 0
-4.2540584 -16.629196 -1.8489234 3 3197984103776 1 0
0 0 0 13 3197984106080 1 0
-8.931495 -34.893307 0.8381244 15 3197984106080 1 0
-29.929731 -82.385956 1.0204574 28 3197984108384 1 0
-6.6260924 -25.871746 -1.8675203 9 3197984108384 1 0
-5.599644 -18.119377 -1.5482032 3 3197984110688 1 1
-7.446343 -36.361664 1.0801897 60 3197984110688 1 0
-10.989399 -35.542183 0.6493691 223 3197984112992 1 0
-6.367006 -31.06925 -2.0325706 7 3197984112992 1 0
-6.545448 -17.994057 -1.1151065 2 3197984115296 1 1
-8.950957 -34.88906 2.0976558 22 3197984115296 1 0
-11.024863 -35.621998 1.5191957 22 3197984117600 1 0
0 0 0 2 3197984117600 1 0
-5.9573455 -19.23913 -1.0555116 5 3197984119904 1 1
-8.6046715 -33.500843 4.246903 18 3197984119904 1 0
-33.559708 -108.32744 9.257976 28 3197984122208 1 0
-6.762859 -32.908413 -1.3687416 37 3197984122208 1 0
-6.9785576 -19.151758 -0.7118101 2 3197984124512 1 1
-8.878447 -34.52714 9.552493 18 3197984124512 1 0
0 0 0 29 3197984126816 1 0
0 0 0 3 3197984126816 1 0
-1.1222528 -3.603139 -1.7597824 4 3197984147552 1 0
-6.8264027 -32.96345 -0.5875876 55 3197984147552 1 0
-10.568916 -33.916378 -1.0338776 48 3197984149856 1 0
-1.5767418 -6.093335 -1.7619445 4 3197984149856 1 0
-2.6897697 -8.627459 -1.8074169 2 3197984152160 1 0
-9.047374 -34.94376 0 40 3197984152160 1 0
-29.726566 -81.12744 -1.0058827 14 3197984154464 1 0
-2.9210703 -11.275657 -1.8121392 14 3197984154464 1 0
-3.5970469 -11.526346 -1.5369369 18 3197984156768 1 0
-10.58958 -33.91668 -0.20650892 58 3197984159072 1 0
-7.5482388 -36.34789 0.21576148 60 3197984156768 1 0
-4.3091793 -16.614998 -1.8489234 3 3197984159072 1 0
-6.606534 -18.006931 -1.7904745 12 3197984161376 1 0
-9.056196 -34.89833 0.8389619 52 3197984161376 1 0
-30.16418 -82.181114 1.0191536 28 3197984163680 1 0
0 0 0 57 3197984165984 1 0
-6.717867 -25.872805 -1.8691945 6 3197984163680 1 0
-7.5685115 -36.3446 1.0804224 60 3197984165984 1 0
-11.125112 -35.562798 0.65041625 223 3197984168288 1 0
-6.4871016 -31.13003 -2.0379431 11 3197984168288 1 0
-6.6216125 -18.01723 -1.1178972 2 3197984170592 1 1
-9.086707 -34.93648 2.102307 15 3197984170592 1 0
-11.091575 -35.421238 1.512194 7 3197984172896 1 0
-6.6728654 -25.64122 -1.2341915 29 3197984172896 1 1
-5.968568 -19.05155 -1.0463004 2 3197984175200 1 1
-8.775743 -33.70265 4.2761517 12 3197984175200 1 0
-11.119044 -35.474586 3.034895 8 3197984177504 1 0
-7.007502 -19.034727 -0.7083202 2 3197984179808 1 1
-8.973401 -34.422733 9.531788 18 3197984179808 1 0
0 0 0 29 3197984182112 1 0
-6.743948 -25.855726 -0.62177724 6 3197984182112 1 1
-6.889935 -32.971874 -1.3723239 37 3197984177504 1 0
-1.1343607 -3.5955443 -1.7580919 4 3197984203296 1 0
-6.9587293 -32.992996 -0.58856493 55 3197984203296 1 0
-10.687138 -33.85835 -1.0332958 20 3197984205600 1 0
-1.600043 -6.0912404 -1.7630229 4 3197984205600 1 0
-2.7213728 -8.617542 -1.8074169 3 3197984207904 1 0
-9.116415 -34.685986 0 40 3197984207904 1 0
-29.933372 -80.77416 -1.002856 28 3197984210208 1 0
-2.9674041 -11.283988 -1.8152137 12 3197984210208 1 0
-3.6500323 -11.547136 -1.5414824 20 3197984212512 1 0
-7.6623735 -36.22997 0.21522678 27 3197984212512 1 0
-10.708995 -33.862385 -0.20641592 29 3197984214816 1 0
-4.372072 -16.606785 -1.8497802 3 3197984214816 1 0
-6.671103 -17.978863 -1.7901027 9 3197984217120 1 0
-9.162652 -34.7837 0.83700776 52 3197984217120 1 0
-6.821803 -25.882734 -1.8717057 6 3197984219424 1 0
-30.376102 -81.830025 1.0161735 28 3197984219424 1 0
-5.715171 -18.045637 -1.545274 3 3197984221728 1 1
-7.6701503 -36.167984 1.0760007 23 3197984221728 1 0
-6.6077847 -31.137283 -2.0399897 7 3197984224032 1 0
-11.275918 -35.586597 0.65160304 193 3197984224032 1 0
-6.6820393 -17.977867 -1.1169668 2 3197984226336 1 1
-9.167807 -34.725338 2.0916095 22 3197984226336 1 0
-11.159703 -35.186054 1.5038898 7 3197984228640 1 0
0 0 0 4 3197984228640 1 0
-5.992445 -18.884863 -1.0383453 2 3197984230944 1 1
-34.433372 -108.4629 9.28987 28 3197984233248 1 0
-8.958051 -33.892883 4.3044252 12 3197984230944 1 0
-7.0273733 -33.024582 -1.3755804 37 3197984233248 1 0
-6.999112 -18.79912 -0.7005027 2 3197984235552 1 1
-9.078752 -34.311176 9.510047 18 3197984235552 1 0
0 0 0 29 3197984237856 1 0
-6.8355985 -25.819237 -0.62149805 26 3197984237856 1 1
-1.1451756 -3.5883093 -1.7564015 4 3197984258592 1 0
-7.0848665 -33.04795 -0.5899612 55 3197984258592 1 0
-10.887168 -34.09688 -1.0416739 14 3197984260896 1 0
-1.6202779 -6.0858893 -1.7630229 4 3197984260896 1 0
-2.7536407 -8.619639 -1.8097703 2 3197984263200 1 0
-9.199972 -34.535606 0 100 3197984263200 1 0
-29.929363 -79.94336 -0.99377596 14 3197984265504 1 0
-3.0070887 -11.281658 -1.8164436 12 3197984265504 1 0
-3.6946826 -11.553759 -1.5440079 20 3197984267808 1 0
-7.747376 -36.03598 0.21422714 22 3197984267808 1 0
-10.9029045 -34.077732 -0.20795028 14 3197984270112 1 0
-4.4256706 -16.584349 -1.8489234 3 3197984270112 1 0
-6.749644 -18.00483 -1.7949358 2 3197984272416 1 0
-9.220662 -34.532494 0.8317038 56 3197984272416 1 0
-30.50819 -81.34529 1.0114238 28 3197984274720 1 0
-6.94599 -25.9984 -1.8817506 3 3197984274720 1 0
-5.7735963 -18.018656 -1.5446231 1 3197984277024 1 1
-7.7693963 -36.03637 1.0728589 18 3197984277024 1 0
0 0 0 43 3197984279328 1 0
-6.790658 -18.082222 -1.1248738 2 3197984281632 1 1
-6.71304 -31.114761 -2.0399897 11 3197984279328 1 0
-9.242071 -34.532055 2.081842 67 3197984281632 1 0
-11.21441 -34.94626 1.4952599 7 3197984283936 1 0
-6.90027 -25.767149 -1.2425672 3 3197984283936 1 1
-6.0347033 -18.795898 -1.0345771 2 3197984286240 1 1
-9.264476 -34.575493 4.395096 39 3197984286240 1 0
-34.85675 -108.51184 9.304191 28 3197984288544 1 0
-7.159407 -33.090267 -1.3793255 37 3197984288544 1 0
-7.057695 -18.760122 -0.6999443 2 3197984290848 1 1
0 0 0 29 3197984293152 1 0
-9.207804 -34.30411 -0.82649285 20 3197984293152 1 0
-9.176951 -34.20904 9.490376 12 3197984290848 1 0
-1.1565799 -3.58084 -1.754711 4 3197984313888 1 0
-7.217222 -33.10117 -0.59135735 56 3197984313888 1 0
-11.090955 -34.321186 -1.0497029 14 3197984316192 1 0
-2.7825055 -8.606242 -1.808986 3 3197984318496 1 0
-9.308993 -34.460804 0 95 3197984318496 1 0
-19.653328 -51.94247 -0.64654577 16 3197984320800 1 0
-3.0495446 -11.282539 -1.8182883 12 3197984320800 1 0
-3.741099 -11.559668 -1.5465332 19 3197984323104 1 0
-1.6405077 -6.0764775 -1.7619445 4 3197984316192 1 0
-7.855176 -35.92666 0.21373893 27 3197984323104 1 0
-11.114204 -34.32487 -0.20969385 14 3197984325408 1 0
-7.4756355 -19.731602 -1.9696707 1 3197984327712 1 0
-9.328606 -34.453777 0.83058715 76 3197984327712 1 0
-4.4856114 -16.576477 -1.8497802 3 3197984325408 1 0
-19.73316 -52.06193 0.64817554 19 3197984330016 1 0
-7.033569 -25.962442 -1.8809136 6 3197984330016 1 0
-5.8413773 -18.013563 -1.545925 1 3197984332320 1 1
-7.874588 -35.915295 1.0700662 23 3197984332320 1 0
0 0 0 21 3197984334624 1 0
-6.825887 -31.110634 -2.0412688 7 3197984334624 1 0
-6.855152 -18.062141 -1.1251063 2 3197984336928 1 1
-9.348958 -34.449486 2.0788188 59 3197984336928 1 0
-11.323982 -34.86889 1.4936315 7 3197984339232 1 0
0 0 0 20 3197984339232 1 0
-6.065714 -18.668348 -1.0287156 2 3197984341536 1 1
-9.361169 -34.454823 4.383884 45 3197984341536 1 0
-35.24887 -108.43121 9.307771 28 3197984343840 1 0
-7.2903285 -33.135334 -1.3822564 38 3197984343840 1 0
-7.0307946 -18.49249 -0.69087046 2 3197984346144 1 1
-9.279068 -34.11342 9.472777 12 3197984346144 1 0
0 0 0 29 3197984348448 1 0
-9.370547 -34.429962 -0.830308 94 3197984348448 1 0
-1.1690723 -3.576781 -1.754711 5 3197984369184 1 0
-7.3517666 -33.16168 -0.5928931 56 3197984369184 1 0
-11.296438 -34.544483 -1.0577319 14 3197984371488 1 0
-1.6637424 -6.0781446 -1.7641011 4 3197984371488 1 0
-2.8149693 -8.603933 -1.8105549 3 3197984373792 1 0
-9.441907 -34.474396 0 75 3197984373792 1 0
-19.890232 -52.019253 -0.64836174 16 3197984376096 1 0
-3.0878649 -11.268014 -1.8176733 12 3197984376096 1 0
-3.7900717 -11.572935 -1.5500687 19 3197984378400 1 0
-7.962307 -35.81702 0.21325074 16 3197984378400 1 0
-11.327361 -34.57095 -0.21143742 15 3197984380704 1 0
-4.5455513 -16.568388 -1.850637 3 3197984380704 1 0
-7.548738 -19.716545 -1.970786 1 3197984383008 1 0
-9.45305 -34.43643 0.8309594 71 3197984383008 1 0
-19.924786 -52.01888 0.64850146 19 3197984385312 1 0
-7.1357775 -25.980057 -1.8839829 6 3197984385312 1 0
0 0 0 38 3197984387616 1 0
-7.982509 -35.80954 1.067739 18 3197984387616 1 0
-30.589739 -93.17622 1.7118019 29 3197984389920 1 0
-5.722066 -25.65162 -1.6843858 8 3197984389920 1 0
-6.9338884 -18.079115 -1.1276644 2 3197984392224 1 1
-9.477627 -34.44744 2.0806792 52 3197984392224 1 0
-11.414434 -34.734226 1.4895608 7 3197984394528 1 0
-6.11587 -18.601524 -1.0262034 2 3197984396832 1 1
-7.12347 -25.876295 -1.2501982 15 3197984394528 1 1
-9.481381 -34.421936 4.383884 45 3197984396832 1 0
-7.425141 -33.19549 -1.3858386 38 3197984399136 1 0
-7.1426144 -18.59098 -0.6954772 2 3197984401440 1 1
-9.374465 -33.995155 9.448966 18 3197984401440 1 0
0 0 0 29 3197984403744 1 0
-35.64584 -108.36431 9.312653 28 3197984399136 1 0
-9.505564 -34.45101 -0.83161074 84 3197984403744 1 0
-1.1815505 -3.5726786 -1.754711 5 3197984424480 1 0
-7.4841833 -33.20994 -0.5942195 56 3197984424480 1 0
-11.482012 -34.702312 -1.0637827 7 3197984426784 1 0
-1.6849048 -6.0723124 -1.7641011 5 3197984426784 1 0
-2.8473256 -8.601543 -1.8121238 2 3197984429088 1 0
0 0 0 7 3197984429088 1 0
-20.08065 -51.97606 -0.6486877 24 3197984431392 1 0
-3.126933 -11.257235 -1.8176733 12 3197984431392 1 0
-3.8363495 -11.578579 -1.5525941 19 3197984433696 1 0
-8.066849 -35.70341 0.21273929 21 3197984433696 1 0
-25.6283 -77.313614 -0.47339198 28 3197984436000 1 0
-4.6038218 -16.55642 -1.8510654 3 3197984436000 1 0
-7.64683 -19.768412 -1.9785933 1 3197984438304 1 0
-9.604924 -34.52307 0.833844 20 3197984438304 1 0
-20.128138 -52.013447 0.64929307 19 3197984440608 1 0
0 0 0 64 3197984440608 1 0
-8.085061 -35.692238 1.0650626 18 3197984442912 1 0
-5.935803 -17.881882 -1.538114 11 3197984442912 1 1
-30.870892 -92.95703 1.7097075 29 3197984445216 1 0
-5.813424 -25.647444 -1.6854091 5 3197984445216 1 0
-7.00574 -18.081373 -1.1292924 4 3197984447520 1 1
0 0 0 6 3197984447520 1 0
-9.438427 -33.83409 -1.6362205 23 3197984449824 1 0
-6.177882 -18.57681 -1.0259941 2 3197984452128 1 1
-9.612352 -34.439182 4.390221 39 3197984452128 1 0
-11.580741 -34.83921 1.4957483 7 3197984449824 1 0
-36.067772 -108.4053 9.326647 28 3197984454432 1 0
-7.5555468 -33.24803 -1.3890952 38 3197984454432 1 0
-7.2301626 -18.630024 -0.69785035 2 3197984456736 1 1
-9.497933 -33.992958 9.457248 12 3197984456736 1 0
0 0 0 29 3197984459040 1 0
-9.67584 -34.611233 -0.83626336 15 3197984459040 1 0
-1.1956908 -3.5756168 -1.7580919 4 3197984479776 1 0
-12.222683 -36.53328 -1.1211492 7 3197984482080 1 0
-7.6130066 -33.26681 -0.59568554 56 3197984479776 1 0
-1.708203 -6.077804 -1.7673361 4 3197984482080 1 0
-2.8759587 -8.592012 -1.8121238 3 3197984484384 1 0
-25.454552 -90.51702 0 28 3197984484384 1 0
-20.12318 -51.57339 -0.6444969 24 3197984486688 1 0
-3.1698444 -11.265758 -1.820748 12 3197984486688 1 0
-3.883885 -11.592018 -1.5561296 19 3197984488992 1 0
-8.168347 -35.59825 0.21227434 21 3197984488992 1 0
-25.624191 -76.44221 -0.46857974 28 3197984491296 1 0
0 0 0 113 3197984491296 1 0
-7.710305 -19.73519 -1.9778497 1 3197984493600 1 0
0 0 0 1 3197984493600 1 0
-20.160461 -51.580303 0.64472973 28 3197984495904 1 0
0 0 0 1 3197984495904 1 0
-6.0024514 -17.880648 -1.5397413 6 3197984498208 1 1
-8.187522 -35.586826 1.0627354 22 3197984498208 1 0
-30.898558 -91.99908 1.6940004 29 3197984500512 1 0
-5.891164 -25.58874 -1.6828507 44 3197984500512 1 0
-7.1048126 -18.154213 -1.1353388 4 3197984502816 1 1
0 0 0 3 3197984502816 1 0
-36.487713 -108.53591 4.6650543 29 3197984505120 1 0
