# .PCD v.7 - Point Cloud Data file format
VERSION .7
FIELDS x y z rgb timestamp_ns device_id active
SIZE 4 4 4 4 8 1 1
TYPE F F F F F U U
COUNT 1 1 1 1 1 1 1
WIDTH 974
HEIGHT 1
VIEWPOINT 0 0 0 1 0 0 0
POINTS 974               
DATA ascii
-21.62842 18.5804 -1.8273948 9 3207617175920 1 0
-16.341763 18.847715 -1.4527779 3 3207617178224 1 0
-28.113298 29.400047 1.6572748 26 3207617180528 1 0
-31.239023 29.617105 2.5069547 34 3207617178224 1 0
-21.291979 20.192389 -1.3668983 4 3207617180528 1 0
-18.336317 19.181156 -1.390671 4 3207617182832 1 0
-31.222963 29.61913 5.2842546 27 3207617182832 1 0
-24.05899 20.69278 -1.2928632 4 3207617185136 1 0
-24.492577 25.628525 2.8939717 7 3207617185136 1 0
-17.332499 20.01389 -0.92455745 7 3207617187440 1 0
0 0 0 9 3207617187440 1 0
0 0 0 29 3207617189744 1 0
-27.48902 26.099787 -0.8820452 11 3207617189744 1 0
-2.8430552 2.984459 -1.9220679 5 3207617210480 1 0
-28.084469 24.23331 -0.6474843 52 3207617210480 1 0
-27.932411 29.330214 -1.1787485 17 3207617212784 1 0
-5.316839 5.0628624 -2.0552425 4 3207617212784 1 0
-7.8649163 8.2609005 -2.2812364 11 3207617215088 1 0
-27.78774 26.468073 0 10 3207617215088 1 0
-27.083378 31.393007 -0.48268586 46 3207617217392 1 0
0 0 0 14 3207617217392 1 0
-14.85503 15.612044 -2.7430508 21 3207617219696 1 0
-27.989416 24.179714 0.21497107 22 3207617219696 1 0
-27.857769 29.285933 -0.23491755 11 3207617222000 1 0
-17.849648 17.016811 -2.6564353 7 3207617222000 1 0
-16.176237 18.766823 -2.3128202 6 3207617224304 1 0
-31.066849 29.625946 0.99891925 33 3207617224304 1 0
-27.083387 31.429968 0.4830118 5 3207617226608 1 0
-18.770395 17.905024 -1.8139473 3 3207617226608 1 0
-17.091316 17.98323 -2.0253246 3 3207617228912 1 0
-28.109133 24.311708 1.081586 27 3207617228912 1 0
-27.806654 29.266273 0.7046584 65 3207617231216 1 0
-21.51513 18.613997 -1.8233016 16 3207617231216 1 0
-16.249819 18.874382 -1.4504523 3 3207617233520 1 0
-31.005478 29.601883 2.4964895 34 3207617233520 1 0
-27.908676 29.390768 1.6512501 26 3207617235824 1 0
-21.241592 20.285906 -1.3682011 4 3207617235824 1 0
-18.387506 19.369617 -1.3996729 4 3207617238128 1 0
-30.993067 29.607271 5.262806 27 3207617238128 1 0
-24.474321 25.78905 2.9024334 7 3207617240432 1 0
-23.977549 20.768784 -1.2923747 4 3207617240432 1 0
-17.163486 19.959091 -0.91925275 3 3207617242736 1 0
0 0 0 9 3207617242736 1 0
0 0 0 29 3207617245040 1 0
-27.41798 26.214928 -0.88269657 11 3207617245040 1 0
-2.830129 2.9917314 -1.9203774 5 3207617265776 1 0
-27.706657 29.29641 -1.1735121 17 3207617268080 1 0
-28.108387 24.425636 -0.6499974 48 3207617265776 1 0
-5.3075485 5.0893116 -2.0584774 4 3207617268080 1 0
-7.8281894 8.279526 -2.278883 37 3207617270384 1 0
-27.730595 26.59733 0 16 3207617270384 1 0
-26.912552 31.413279 -0.48156834 13 3207617272688 1 0
-11.474105 11.008078 -2.473782 3 3207617272688 1 0
-14.749573 15.608146 -2.7334545 17 3207617274992 1 0
-27.966612 24.32815 0.21543601 16 3207617274992 1 0
-27.716307 29.337364 -0.23456883 17 3207617277296 1 0
-17.745476 17.033655 -2.649581 7 3207617277296 1 0
-16.158894 18.876228 -2.3195121 6 3207617279600 1 0
-30.847574 29.617952 0.9951041 40 3207617279600 1 0
-18.692343 17.951946 -1.8122731 3 3207617281904 1 0
0 0 0 8 3207617281904 1 0
-17.052433 18.063993 -2.027928 3 3207617284208 1 0
-28.09629 24.466812 1.0842624 13 3207617284208 1 0
-27.70817 29.359533 0.7046584 7 3207617286512 1 0
-21.455479 18.688799 -1.8235574 45 3207617286512 1 0
-16.292995 19.053066 -1.459987 3 3207617288816 1 0
-30.76521 29.569845 2.4850943 34 3207617288816 1 0
-26.9742 28.596813 1.6015873 16 3207617291120 1 0
-21.139343 20.323313 -1.3659676 4 3207617291120 1 0
-18.312212 19.418861 -1.3988354 4 3207617293424 1 0
-30.763079 29.583296 5.2403817 27 3207617293424 1 0
-23.699871 25.1387 2.8204181 7 3207617295728 1 0
-24.616747 21.465101 -1.3306396 5 3207617295728 1 0
-17.056244 19.966766 -0.9170192 3 3207617298032 1 0
0 0 0 9 3207617298032 1 0
0 0 0 29 3207617300336 1 0
-27.427128 26.396019 -0.88576734 11 3207617300336 1 0
-28.001406 24.487492 -0.6492993 60 3207617321072 1 0
-2.8207161 3.0006077 -1.9203774 3 3207617321072 1 0
-27.600367 29.36914 -1.1729304 17 3207617323376 1 0
-5.285916 5.100688 -2.056321 4 3207617323376 1 0
-7.8018985 8.304304 -2.278883 60 3207617325680 1 0
-27.56266 26.604559 0 16 3207617325680 1 0
-27.014576 31.736408 -0.48520035 9 3207617327984 1 0
-11.450357 11.055551 -2.4762418 4 3207617327984 1 0
-14.680542 15.635013 -2.729919 23 3207617330288 1 0
-27.885614 24.414877 0.21541277 16 3207617330288 1 0
-27.630075 29.435051 -0.23463859 17 3207617332592 1 0
-17.639147 17.040869 -2.64187 7 3207617332592 1 0
0 0 0 24 3207617334896 1 0
-30.62813 29.59791 0.9911028 39 3207617334896 1 0
-27.042744 31.80697 0.4860385 35 3207617337200 1 0
-18.556557 17.937601 -1.8047395 3 3207617337200 1 0
-17.020763 18.148533 -2.0311828 3 3207617339504 1 0
-28.058523 24.595116 1.0858915 13 3207617339504 1 0
0 0 0 8 3207617341808 1 0
-21.388203 18.753649 -1.8230457 58 3207617341808 1 0
-16.225107 19.100431 -1.459522 3 3207617344112 1 0
-30.541569 29.548641 2.4748619 33 3207617344112 1 0
-27.417997 29.260246 1.6336646 25 3207617346416 1 0
-21.092228 20.412445 -1.3672706 4 3207617346416 1 0
-18.247715 19.47948 -1.3988354 4 3207617348720 1 0
-30.539295 29.563646 5.2189326 27 3207617348720 1 0
-23.651438 25.255327 2.824649 7 3207617351024 1 0
-24.169672 21.217386 -1.3102859 4 3207617351024 1 0
-16.893663 19.910929 -0.911854 3 3207617353328 1 0
0 0 0 9 3207617353328 1 0
-27.487164 29.368286 7.334034 8 3207617355632 1 0
-27.367008 26.515846 -0.8866978 5 3207617355632 1 0
-2.8151727 3.0157356 -1.9237583 4 3207617376368 1 0
-27.891747 24.56394 -0.6487408 41 3207617376368 1 0
-5.2653165 5.116424 -2.0552425 4 3207617378672 1 0
-7.7755394 8.334355 -2.2796674 56 3207617380976 1 0
-26.180084 28.053427 -1.1167275 7 3207617378672 1 0
-27.372105 26.605818 0 10 3207617380976 1 0
-26.981089 31.922155 -0.48659727 19 3207617383280 1 0
-11.4286995 11.111984 -2.479931 3 3207617383280 1 0
-14.636701 15.69777 -2.7319393 29 3207617385584 1 0
-27.404428 29.399652 -0.23359244 16 3207617387888 1 0
-27.79122 24.50413 0.21534303 16 3207617385584 1 0
-17.553902 17.07738 -2.6380146 7 3207617387888 1 0
0 0 0 28 3207617390192 1 0
-30.427187 29.609818 0.98793906 13 3207617390192 1 0
-27.029596 32.01731 0.48780796 35 3207617392496 1 0
-18.528141 18.035666 -1.8080878 3 3207617392496 1 0
-16.824173 18.06488 -2.0152352 2 3207617394800 1 0
-27.921541 24.647924 1.0839133 37 3207617394800 1 0
-27.361809 29.38819 0.70088863 36 3207617397104 1 0
-21.343555 18.846687 -1.8248365 58 3207617397104 1 0
-16.173784 19.175266 -1.4609174 3 3207617399408 1 0
-20.270231 19.748684 1.6481249 13 3207617399408 1 0
-27.337473 29.379183 1.6349672 25 3207617401712 1 0
-20.288294 19.772034 -1.3196226 4 3207617401712 1 0
-18.220419 19.58693 -1.4019756 4 3207617404016 1 0
-30.322199 29.559214 5.199434 26 3207617404016 1 0
-23.65816 25.439913 2.83604 7 3207617406320 1 0
-23.945744 21.169268 -1.3021445 4 3207617406320 1 0
-16.715881 19.841373 -0.90599096 10 3207617408624 1 0
0 0 0 9 3207617408624 1 0
-27.28268 29.354525 7.30677 8 3207617410928 1 0
-20.276108 19.78317 -0.65918434 7 3207617410928 1 0
-2.802164 3.0228853 -1.9220679 4 3207617431664 1 0
-27.826778 24.679728 -0.6492295 29 3207617431664 1 0
-27.266928 29.423275 -1.1674613 17 3207617433968 1 0
-5.252931 5.14016 -2.0573993 4 3207617433968 1 0
-7.743734 8.358569 -2.278883 38 3207617436272 1 0
-20.218468 19.79017 0 11 3207617436272 1 0
-27.00063 32.172394 -0.48897207 9 3207617438576 1 0
-11.398314 11.160106 -2.481776 4 3207617438576 1 0
-14.592599 15.760413 -2.7339597 36 3207617440880 1 0
-28.049479 24.906412 0.2180165 16 3207617440880 1 0
0 0 0 66 3207617443184 1 0
-17.45725 17.10237 -2.6324453 7 3207617443184 1 0
-17.20386 20.517302 -2.4994519 7 3207617445488 1 0
-20.215763 19.810566 0.658626 10 3207617445488 1 0
-27.007603 32.21875 0.4894377 36 3207617447792 1 0
-18.504965 18.139336 -1.8119942 3 3207617447792 1 0
-16.612133 17.962517 -1.9973351 2 3207617450096 1 0
-28.238745 25.103867 1.0996221 9 3207617450096 1 0
-27.245483 29.46884 0.7005396 21 3207617452400 1 0
-21.310452 18.950254 -1.8276507 58 3207617452400 1 0
-16.155466 19.289772 -1.4653358 3 3207617454704 1 0
-30.0894 29.520636 2.454862 22 3207617454704 1 0
-27.166945 29.401043 1.6308964 17 3207617457008 1 0
-20.136452 19.76157 -1.3142251 12 3207617457008 1 0
-18.122122 19.618134 -1.3996729 4 3207617459312 1 0
-30.088505 29.53694 5.1770096 26 3207617459312 1 0
-23.690928 25.654139 2.8506856 7 3207617461616 1 0
-23.910511 21.287273 -1.3042613 4 3207617461616 1 0
-16.551617 19.786152 -0.9008258 21 3207617463920 1 0
0 0 0 9 3207617463920 1 0
-20.20978 19.85663 -0.6592774 10 3207617466224 1 0
-27.15336 29.420662 7.2995954 8 3207617466224 1 0
-2.791595 3.0326483 -1.9220679 5 3207617486960 1 0
-27.850826 24.875284 -0.6518125 18 3207617486960 1 0
-27.218204 29.577118 -1.1697886 25 3207617489264 1 0
-5.2349567 5.158465 -2.0573993 5 3207617489264 1 0
0 0 0 55 3207617491568 1 0
-26.336765 25.959492 0 10 3207617491568 1 0
-27.036673 32.444664 -0.49167278 9 3207617493872 1 0
-11.370546 11.210925 -2.4842355 4 3207617493872 1 0
-14.510639 15.782044 -2.7289088 25 3207617496176 1 0
-28.001131 25.038832 0.21831873 16 3207617496176 1 0
0 0 0 19 3207617498480 1 0
-17.377628 17.14365 -2.6294467 7 3207617498480 1 0
-17.096458 20.534378 -2.494247 7 3207617500784 1 0
-29.960712 29.565912 0.97947127 19 3207617500784 1 0
-26.999882 32.43887 0.49134684 30 3207617503088 1 0
-18.410297 18.172985 -1.8089249 3 3207617503088 1 0
-16.546635 18.017458 -1.9970096 2 3207617505392 1 0
0 0 0 37 3207617505392 1 0
-27.212776 29.640362 0.70235467 21 3207617507696 1 0
-21.285805 19.06181 -1.8312323 58 3207617507696 1 0
-16.169739 19.444298 -1.4727777 3 3207617510000 1 0
-26.335901 26.019125 2.1560276 24 3207617510000 1 0
-27.131702 29.569317 1.6349672 17 3207617512304 1 0
-20.999523 20.75297 -1.375274 4 3207617512304 1 0
-18.210142 19.852005 -1.4118148 4 3207617514608 1 0
-29.869457 29.527351 5.157023 26 3207617514608 1 0
-23.652428 25.792507 2.8568695 7 3207617516912 1 0
-23.91938 21.44531 -1.3088205 4 3207617516912 1 0
-16.413485 19.76078 -0.89705664 21 3207617519216 1 0
0 0 0 9 3207617519216 1 0
-26.960098 29.41663 7.275201 8 3207617521520 1 0
-26.28052 26.002203 -0.8602709 16 3207617521520 1 0
-2.785884 3.047726 -1.9254488 5 3207617542256 1 0
-27.99576 25.180965 -0.6572576 18 3207617542256 1 0
-26.893625 29.42992 -1.1602468 16 3207617544560 1 0
-5.2169185 5.1767073 -2.0573993 4 3207617544560 1 0
-7.7195835 8.450072 -2.289081 4 3207617546864 1 0
-27.020147 32.655945 -0.49344224 24 3207617549168 1 0
-28.023165 27.815256 0 11 3207617546864 1 0
-11.342564 11.261686 -2.4866953 5 3207617549168 1 0
-14.396602 15.768133 -2.7177973 31 3207617551472 1 0
-28.05326 25.262224 0.21941136 16 3207617551472 1 0
-26.890121 29.460485 -0.23182562 16 3207617553776 1 0
-17.300753 17.187387 -2.6268764 7 3207617553776 1 0
-16.991688 20.554026 -2.489414 7 3207617556080 1 0
-29.704153 29.5181 0.9744464 19 3207617556080 1 0
-26.985857 32.65316 0.49316284 24 3207617558384 1 0
-18.510887 18.400297 -1.8251084 3 3207617558384 1 0
-16.475582 18.066269 -1.9960333 2 3207617560688 1 0
-28.564665 25.75286 1.1192874 14 3207617560688 1 0
-26.896282 29.501688 0.6968397 35 3207617562992 1 0
-16.117022 19.519098 -1.4741731 3 3207617565296 1 0
-21.263601 19.176094 -1.8350698 65 3207617562992 1 0
-29.557026 29.40609 2.428118 31 3207617565296 1 0
-26.912575 29.53681 1.6279656 25 3207617567600 1 0
-19.559013 19.464794 -1.2853757 4 3207617567600 1 0
-18.129974 19.903637 -1.4109774 4 3207617569904 1 0
-29.662098 29.5278 5.1389866 25 3207617569904 1 0
-23.594463 25.910286 2.860775 7 3207617572208 1 0
-22.411577 20.235025 -1.2301741 4 3207617572208 1 0
-16.387646 19.870382 -0.89942986 17 3207617574512 1 0
0 0 0 9 3207617574512 1 0
0 0 0 29 3207617576816 1 0
-2.7703555 3.0520632 -1.9220679 4 3207617597552 1 0
-27.961046 25.326864 -0.6585142 24 3207617597552 1 0
-26.86865 29.609484 -1.1636213 25 3207617599856 1 0
-27.25191 27.15221 -0.8951656 11 3207617576816 1 0
-5.201541 5.1976085 -2.0584774 4 3207617599856 1 0
-7.6821337 8.468252 -2.2867277 4 3207617602160 1 0
0 0 0 54 3207617602160 1 0
-26.99232 32.85514 -0.49502543 53 3207617604464 1 0
-11.3143635 11.312389 -2.4891548 4 3207617604464 1 0
-14.29883 15.7712555 -2.709716 8 3207617606768 1 0
-28.210838 25.583015 0.22134092 17 3207617606768 1 0
-26.827415 29.598625 -0.23217432 16 3207617609072 1 0
-17.22097 17.227985 -2.6238778 7 3207617609072 1 0
-29.504827 29.525434 0.9712826 45 3207617611376 1 0
-16.884462 20.570116 -2.484209 7 3207617611376 1 0
-26.975737 32.87393 0.49507198 36 3207617613680 1 0
-18.446547 18.4648 -1.8251084 3 3207617613680 1 0
-16.385658 18.094118 -1.9927787 8 3207617615984 1 0
-32.50645 29.512978 1.2777727 18 3207617615984 1 0
-26.881716 29.693233 0.6991434 43 3207617618288 1 0
-21.22904 19.279722 -1.8378838 58 3207617618288 1 0
-16.139933 19.686407 -1.482545 3 3207617620592 1 0
-29.335716 29.39038 2.4183507 31 3207617620592 1 0
-26.889751 29.719482 1.6328504 25 3207617622896 1 0
-19.361122 19.402843 -1.276814 3 3207617622896 1 0
-17.647732 19.510586 -1.3787384 4 3207617625200 1 0
-29.438278 29.510298 5.118025 25 3207617625200 1 0
-23.688377 26.196524 2.8832314 7 3207617627504 1 0
-16.323252 19.93365 -0.89970905 3 3207617629808 1 0
-22.189997 20.17601 -1.2218697 13 3207617627504 1 0
0 0 0 9 3207617629808 1 0
0 0 0 29 3207617632112 1 0
-27.286821 27.377459 -0.89944607 11 3207617632112 1 0
-2.7596848 3.0617151 -1.9220679 4 3207617652296 1 0
-27.925655 25.472826 -0.6597708 12 3207617652296 1 0
-5.180651 5.2130017 -2.0573993 5 3207617654600 1 0
-26.41986 29.319923 -1.1486106 24 3207617654600 1 0
-7.655153 8.497931 -2.287512 4 3207617656904 1 0
-26.971012 33.063835 -0.4967483 58 3207617659208 1 0
-27.171423 27.349049 0 37 3207617656904 1 0
-11.283163 11.360228 -2.4909997 3 3207617659208 1 0
-14.179973 15.750298 -2.6975944 6 3207617661512 1 0
-27.834864 25.419693 0.2190859 11 3207617661512 1 0
-27.226997 30.251028 -0.23654489 17 3207617663816 1 0
-17.152323 17.279524 -2.6225924 7 3207617663816 1 0
-16.797459 20.610405 -2.4819784 7 3207617666120 1 0
-29.288914 29.514706 0.9675605 26 3207617666120 1 0
-18.401651 18.548906 -1.8270615 3 3207617668424 1 0
-16.330395 18.160099 -1.9937551 2 3207617670728 1 0
-26.951773 33.07952 0.4967483 42 3207617668424 1 0
-32.341263 29.569609 1.275329 49 3207617670728 1 0
-21.211689 19.399506 -1.842233 61 3207617673032 1 0
-16.21229 19.916052 -1.4955682 3 3207617675336 1 0
-29.199213 29.45857 2.41556 31 3207617675336 1 0
-26.833927 29.866678 1.6357814 8 3207617677640 1 0
-19.138592 19.314205 -1.2665772 3 3207617677640 1 0
-17.496775 19.479944 -1.3722488 11 3207617679944 1 0
-27.22175 30.28061 0.7107318 73 3207617673032 1 0
-29.220531 29.497234 5.098038 25 3207617679944 1 0
-23.628752 26.31465 2.887137 7 3207617682248 1 0
-21.974997 20.121092 -1.2138911 12 3207617682248 1 0
-16.25357 19.990507 -0.89970905 3 3207617684552 1 0
0 0 0 9 3207617684552 1 0
0 0 0 29 3207617686856 1 0
-27.247353 27.529385 -0.9013071 5 3207617686856 1 0
-2.756234 3.0794332 -1.9271393 4 3207617707592 1 0
-32.151516 29.533781 -0.76204187 14 3207617707592 1 0
-27.170515 30.36545 -1.1858466 51 3207617709896 1 0
-5.1570115 5.22557 -2.0552425 4 3207617709896 1 0
-7.6280575 8.527524 -2.2882965 4 3207617712200 1 0
-27.449425 27.82244 0 10 3207617712200 1 0
-25.921484 32.004658 -0.47947294 23 3207617714504 1 0
-11.251766 11.407986 -2.4928443 2 3207617714504 1 0
-14.10375 15.776033 -2.6935537 8 3207617716808 1 0
-30.298567 27.864214 0.23924161 13 3207617716808 1 0
-26.18032 29.293098 -0.22833847 5 3207617719112 1 0
-17.080734 17.327963 -2.620879 7 3207617719112 1 0
-16.685328 20.619377 -2.4760299 7 3207617721416 1 0
-29.07063 29.49998 0.96374536 25 3207617721416 1 0
-25.905376 32.022842 0.4795195 16 3207617723720 1 0
-18.196774 18.4709 -1.8131102 3 3207617723720 1 0
-16.306736 18.261597 -1.998637 2 3207617726024 1 0
-32.034893 29.495453 1.2673 49 3207617726024 1 0
-27.187798 30.456003 0.7126167 73 3207617728328 1 0
0 0 0 9 3207617728328 1 0
-16.009634 19.807922 -1.4832428 3 3207617730632 1 0
-29.009367 29.472092 2.4083507 20 3207617730632 1 0
-26.95567 30.21366 1.6496218 8 3207617732936 1 0
-18.964561 19.272667 -1.2595044 3 3207617732936 1 0
-17.239893 19.329245 -1.3573854 11 3207617735240 1 0
-29.003235 29.483011 5.0780516 25 3207617735240 1 0
-23.565939 26.4297 2.890717 7 3207617737544 1 0
-21.784159 20.086597 -1.2072151 12 3207617737544 1 0
-16.233912 20.109331 -0.902501 3 3207617739848 1 0
0 0 0 9 3207617739848 1 0
0 0 0 29 3207617742152 1 0
0 0 0 8 3207617742152 1 0
-2.7430594 3.086326 -1.9254488 4 3207617762888 1 0
-32.14511 29.735453 -0.7643456 15 3207617762888 1 0
-27.165272 30.573687 -1.1902683 34 3207617765192 1 0
-5.1468277 5.251793 -2.0584774 4 3207617765192 1 0
-7.603454 8.559963 -2.2898655 4 3207617767496 1 0
-28.886166 29.483852 0 48 3207617767496 1 0
-26.945063 33.506912 -0.5005666 50 3207617769800 1 0
-11.234001 11.469782 -2.4977636 2 3207617769800 1 0
-14.035424 15.810331 -2.6910284 8 3207617772104 1 0
-27.870958 25.811802 0.22078298 11 3207617772104 1 0
0 0 0 13 3207617774408 1 0
-16.997889 17.364744 -2.617452 7 3207617774408 1 0
-16.600779 20.66197 -2.4741712 7 3207617776712 1 0
-28.850008 29.481237 0.95983714 31 3207617776712 1 0
-26.928068 33.5257 0.50061315 25 3207617779016 1 0
-18.201948 18.605614 -1.8200859 3 3207617779016 1 0
-16.34869 18.437725 -2.0116553 2 3207617781320 1 0
-27.176826 30.658463 0.7151298 66 3207617783624 1 0
-31.90242 29.57991 1.2661364 18 3207617781320 1 0
-19.714787 18.284876 -1.723272 5 3207617783624 1 0
-16.060358 20.013178 -1.4944054 3 3207617785928 1 0
-26.956053 30.42723 1.656135 8 3207617788232 1 0
-28.797455 29.461803 2.399281 20 3207617785928 1 0
-18.858076 19.29874 -1.2568988 3 3207617788232 1 0
-17.124643 19.33548 -1.3536172 7 3207617790536 1 0
-28.789171 29.470472 5.0585527 25 3207617790536 1 0
-21.708054 20.157076 -1.2068895 12 3207617792840 1 0
-16.291128 20.324957 -0.90962046 3 3207617795144 1 0
0 0 0 9 3207617795144 1 0
0 0 0 29 3207617797448 1 0
-26.903667 27.5644 -0.89628226 17 3207617797448 1 0
-23.013687 25.99243 2.8340874 7 3207617792840 1 0
-2.7322695 3.0958822 -1.9254488 4 3207617818184 1 0
-27.151192 30.773064 -1.194341 34 3207617820488 1 0
-32.09672 29.899273 -0.76567197 7 3207617818184 1 0
-5.125816 5.266929 -2.0573993 5 3207617820488 1 0
-7.5710583 8.583401 -2.289081 4 3207617822792 1 0
0 0 0 7 3207617822792 1 0
-26.935986 33.734577 -0.50256884 40 3207617825096 1 0
-11.205171 11.520015 -2.5002232 2 3207617825096 1 0
-13.964868 15.840962 -2.687998 10 3207617827400 1 0
0 0 0 5 3207617827400 1 0
-16.9184 17.403395 -2.614453 10 3207617829704 1 0
-16.522007 20.70973 -2.4730558 5 3207617832008 1 0
-28.636732 29.4658 0.95611507 38 3207617832008 1 0
-27.174301 30.83359 -0.23886965 54 3207617829704 1 0
-26.89489 33.721317 0.50214976 12 3207617834312 1 0
-17.948761 18.473505 -1.8011122 2 3207617834312 1 0
-16.31956 18.53263 -2.015886 6 3207617836616 1 0
-31.663338 29.560999 1.2606673 18 3207617836616 1 0
-27.129795 30.81741 0.7166656 15 3207617838920 1 0
-19.523674 18.232416 -1.7120154 5 3207617838920 1 0
-15.959509 20.027355 -1.4913821 3 3207617841224 1 0
-28.590893 29.451181 2.390444 20 3207617841224 1 0
-26.89436 30.567 1.6587403 8 3207617843528 1 0
-18.703094 19.271193 -1.2509427 3 3207617843528 1 0
-17.029718 19.360657 -1.3513144 3 3207617845832 1 0
-28.591942 29.468554 5.041491 24 3207617845832 1 0
-22.722567 25.83991 2.809027 7 3207617848136 1 0
-21.53437 20.132423 -1.2010276 12 3207617848136 1 0
-16.222157 20.380047 -0.90962046 3 3207617850440 1 0
0 0 0 29 3207617852744 1 0
0 0 0 9 3207617850440 1 0
-34.676365 35.769176 -1.1592488 9 3207617852744 1 0
-2.7172086 3.0994737 -1.9220679 4 3207617873480 1 0
0 0 0 58 3207617873480 1 0
-27.141006 30.96837 -1.1984136 35 3207617875784 1 0
-5.110961 5.2867045 -2.0584774 4 3207617875784 1 0
-7.5527673 8.620371 -2.292219 4 3207617878088 1 0
-26.975227 27.91091 0 32 3207617878088 1 0
-26.925125 33.95279 -0.504478 50 3207617880392 1 0
-11.161162 11.551668 -2.4989934 3 3207617880392 1 0
-13.896114 15.869678 -2.6849675 10 3207617882696 1 0
-29.668848 27.854406 0.23652165 19 3207617882696 1 0
-27.160357 31.026848 -0.23966007 48 3207617885000 1 0
-16.821283 17.419964 -2.6084557 7 3207617885000 1 0
0 0 0 17 3207617887304 1 0
-28.432034 29.452518 0.9525791 37 3207617887304 1 0
-26.930202 33.9998 0.5049436 6 3207617889608 1 0
-17.617676 18.255323 -1.7740467 8 3207617889608 1 0
-16.249058 18.578588 -2.0149097 5 3207617891912 1 0
-27.159687 31.062527 0.72022593 67 3207617894216 1 0
-19.354303 18.19716 -1.7025497 5 3207617894216 1 0
-15.973323 20.184658 -1.4990565 3 3207617896520 1 0
-28.371737 29.424295 2.380444 30 3207617896520 1 0
-31.44105 29.55266 1.2557802 36 3207617891912 1 0
-26.924519 30.811647 1.6670445 8 3207617898824 1 0
-16.85598 19.295164 -1.3427312 3 3207617901128 1 0
-18.595945 19.291447 -1.2481508 3 3207617898824 1 0
-28.386797 29.457058 5.022967 24 3207617901128 1 0
-22.5871 25.863209 2.8031688 6 3207617903432 1 0
-21.410286 20.153704 -1.1979338 24 3207617903432 1 0
-16.15984 20.444784 -0.9100393 3 3207617905736 1 0
0 0 0 9 3207617905736 1 0
0 0 0 29 3207617908040 1 0
-30.684458 31.869167 -1.0294405 7 3207617908040 1 0
-28.074556 26.511684 -0.67401195 18 3207617928776 1 0
-2.708753 3.1116738 -1.9237583 4 3207617928776 1 0
-5.092476 5.304513 -2.0584774 4 3207617931080 1 0
-27.11936 31.162453 -1.2022536 35 3207617931080 1 0
-7.5252047 8.649641 -2.2930033 4 3207617933384 1 0
-28.16003 29.34108 0 17 3207617933384 1 0
-26.905416 34.17227 -0.50634056 50 3207617935688 1 0
-11.13719 11.607669 -2.502683 3 3207617935688 1 0
-13.830219 15.90611 -2.6829472 10 3207617937992 1 0
-27.141108 31.224108 -0.24045049 49 3207617940296 1 0
-29.443548 27.83689 0.23549874 18 3207617937992 1 0
-16.72459 17.441257 -2.6028867 7 3207617940296 1 0
-12.481803 15.86724 -1.8845339 37 3207617942600 1 0
-28.240498 29.45921 0.9496014 18 3207617942600 1 0
-26.930035 34.24451 0.5071787 6 3207617944904 1 0
-17.424084 18.181309 -1.7609324 5 3207617944904 1 0
-16.20502 18.659275 -2.0175135 3 3207617947208 1 0
-31.209932 29.541294 1.2506602 29 3207617947208 1 0
-27.148106 31.26888 0.72280884 60 3207617949512 1 0
-19.25588 18.231676 -1.6994797 5 3207617949512 1 0
-15.986649 20.347052 -1.5069634 3 3207617951816 1 0
-26.934671 31.041285 1.6743718 8 3207617954120 1 0
-18.498098 19.324492 -1.2461035 3 3207617954120 1 0
-16.764967 19.326727 -1.3408473 3 3207617956424 1 0
-28.158386 29.407782 2.371142 29 3207617951816 1 0
-28.179491 29.446968 5.0044427 24 3207617956424 1 0
-22.37392 25.800333 2.7878723 6 3207617958728 1 0
-21.35431 20.242064 -1.198748 41 3207617958728 1 0
-16.209305 20.655163 -0.9168796 3 3207617961032 1 0
0 0 0 9 3207617961032 1 0
0 0 0 29 3207617963336 1 0
-26.88923 28.123228 -0.9054014 5 3207617963336 1 0
-2.7002456 3.123853 -1.9254488 4 3207617984072 1 0
-27.09146 31.35071 -1.2058609 17 3207617986376 1 0
-5.081902 5.330621 -2.0617123 4 3207617986376 1 0
-7.5000944 8.681792 -2.2945724 4 3207617988680 1 0
-27.816647 26.452429 -0.6700328 43 3207617984072 1 0
-27.941534 29.317583 0 17 3207617988680 1 0
-26.896818 34.407784 -0.50843596 51 3207617990984 1 0
-11.110235 11.660782 -2.5057573 2 3207617990984 1 0
-13.769426 15.948282 -2.681937 10 3207617993288 1 0
-27.851368 26.516321 0.22350295 11 3207617993288 1 0
-27.136492 31.439777 -0.2413804 18 3207617995592 1 0
-16.641666 17.47649 -2.5994596 7 3207617995592 1 0
0 0 0 56 3207617997896 1 0
-26.221222 27.544619 0.88492984 11 3207617997896 1 0
-26.90141 34.454952 0.5089016 6 3207618000200 1 0
-17.45404 18.340296 -1.7704194 8 3207618000200 1 0
-16.176239 18.757996 -2.02207 9 3207618002504 1 0
-30.970598 29.5204 1.2451912 35 3207618002504 1 0
-27.130192 31.469475 0.7252522 52 3207618004808 1 0
-19.079449 18.19135 -1.6895024 5 3207618004808 1 0
-15.935175 20.427921 -1.5088239 3 3207618007112 1 0
-27.95375 29.39882 2.3625371 29 3207618007112 1 0
-28.63926 33.239452 1.787538 9 3207618009416 1 0
-18.41952 19.37736 -1.245359 3 3207618009416 1 0
-16.658298 19.339731 -1.337707 3 3207618011720 1 0
-27.97534 29.43867 4.986406 24 3207618011720 1 0
-22.192675 25.77254 2.7764814 6 3207618014024 1 0
-21.315323 20.346838 -1.2005391 8 3207618014024 1 0
-16.139563 20.714771 -0.9170192 3 3207618016328 1 0
0 0 0 9 3207618016328 1 0
0 0 0 29 3207618018632 1 0
-27.845463 29.327614 -0.9410406 18 3207618018632 1 0
-2.6869638 3.1305087 -1.9237583 3 3207618039368 1 0
-27.114647 31.599838 -1.2117953 26 3207618041672 1 0
-5.0579677 5.342733 -2.0595558 5 3207618041672 1 0
-27.732805 26.557663 -0.6702422 62 3207618039368 1 0
-7.4697437 8.70792 -2.2945724 4 3207618043976 1 0
-19.870901 25.603567 -0.37731078 9 3207618046280 1 0
-27.742792 29.313257 0 17 3207618043976 1 0
-11.064032 11.693751 -2.5045276 3 3207618046280 1 0
-13.703342 15.9842 -2.6799169 12 3207618048584 1 0
-27.666245 26.524797 0.22275902 17 3207618048584 1 0
-27.039597 31.549496 -0.24149664 42 3207618050888 1 0
-16.55597 17.508467 -2.5956042 7 3207618050888 1 0
-12.248702 15.796624 -1.8659451 1 3207618053192 1 0
0 0 0 10 3207618053192 1 0
-19.907461 25.681509 0.37828863 12 3207618055496 1 0
-16.185862 18.902166 -2.0315082 6 3207618057800 1 0
-30.734674 29.500965 1.2398386 34 3207618057800 1 0
-17.126806 18.122702 -1.7436328 2 3207618055496 1 0
-27.103405 31.661207 0.72748613 15 3207618060104 1 0
-18.989918 18.232958 -1.6871998 5 3207618060104 1 0
-15.873551 20.49605 -1.5097541 3 3207618062408 1 0
-27.752266 29.391695 2.3541653 28 3207618062408 1 0
-28.385353 33.178265 1.7789081 9 3207618064712 1 0
-18.346283 19.435726 -1.2449868 3 3207618064712 1 0
-16.567322 19.370441 -1.3358229 3 3207618067016 1 0
-27.774315 29.432192 4.968857 24 3207618067016 1 0
-22.08444 25.828638 2.774203 6 3207618069320 1 0
-21.270102 20.446045 -1.2020046 4 3207618069320 1 0
-16.162546 20.8943 -0.9224635 3 3207618071624 1 0
0 0 0 9 3207618071624 1 0
0 0 0 29 3207618073928 1 0
-27.685312 29.363533 -0.93908644 18 3207618073928 1 0
-2.6830742 3.1481462 -1.9288298 4 3207618094664 1 0
-27.599628 26.61544 -0.66926485 37 3207618094664 1 0
-27.069004 31.77038 -1.2147044 26 3207618096968 1 0
-5.044564 5.3659687 -2.0617123 5 3207618096968 1 0
-7.441845 8.736927 -2.2953568 3 3207618099272 1 0
-27.670433 29.441982 0 17 3207618099272 1 0
-19.78629 25.679111 -0.37740391 3 3207618101576 1 0
-11.039384 11.749583 -2.508217 2 3207618101576 1 0
-13.624315 16.004742 -2.6753712 12 3207618103880 1 0
-27.593632 26.640656 0.22292176 17 3207618103880 1 0
-26.877457 31.582766 -0.24103169 30 3207618106184 1 0
-16.464808 17.53426 -2.5908918 7 3207618106184 1 0
-12.166763 15.804569 -1.8618556 1 3207618108488 1 0
-27.596552 29.397623 0.938249 12 3207618108488 1 0
-19.827454 25.763521 0.3784749 4 3207618110792 1 0
-16.18176 19.031445 -2.039319 3 3207618113096 1 0
-17.05525 18.173645 -1.7427957 5 3207618110792 1 0
-30.519392 29.499697 1.2353004 17 3207618113096 1 0
-27.122232 31.907986 0.7309766 53 3207618115400 1 0
-18.90894 18.282486 -1.6856649 5 3207618115400 1 0
-15.853025 20.617811 -1.5146378 3 3207618117704 1 0
-27.605799 29.44178 2.3504443 19 3207618117704 1 0
-28.411684 33.44467 1.7878637 28 3207618120008 1 0
-18.29199 19.514225 -1.2459173 3 3207618120008 1 0
-17.433058 20.527287 -1.411396 4 3207618122312 1 0
-27.573677 29.424671 4.951308 24 3207618122312 1 0
-21.870295 25.759691 2.7585812 6 3207618124616 1 0
-21.21296 20.534065 -1.2028188 4 3207618124616 1 0
-16.101688 20.966442 -0.9231615 3 3207618126920 1 0
0 0 0 9 3207618126920 1 0
0 0 0 29 3207618129224 1 0
-2.667385 3.151958 -1.9254488 4 3207618149960 1 0
-27.590845 29.468752 -0.9393656 12 3207618129224 1 0
-20.293509 19.707027 -0.49376348 10 3207618149960 1 0
-16.692799 19.731129 -0.75216484 4 3207618152264 1 0
-5.0258026 5.383545 -2.0617123 4 3207618152264 1 0
-7.413835 8.765845 -2.2961411 3 3207618154568 1 0
-27.48289 29.447737 0 16 3207618154568 1 0
-25.144974 32.870422 -0.48180115 37 3207618156872 1 0
-11.014481 11.805387 -2.5119066 2 3207618156872 1 0
-13.56068 16.043112 -2.673856 16 3207618159176 1 0
-20.28192 19.718714 0.16440742 22 3207618159176 1 0
-26.991655 31.942196 -0.24305423 25 3207618161480 1 0
-16.376379 17.56254 -2.586608 7 3207618161480 1 0
-12.029294 15.739355 -1.8492151 2 3207618163784 1 0
-27.351976 29.34167 0.9334102 12 3207618163784 1 0
-25.128275 32.888226 0.4818477 5 3207618166088 1 0
-16.184671 19.170061 -2.0481064 6 3207618168392 1 0
-20.273668 19.733648 0.8233785 21 3207618168392 1 0
-16.907375 18.142574 -1.7341459 2 3207618166088 1 0
-27.090654 32.09721 0.7331407 61 3207618170696 1 0
-18.756344 18.262053 -1.6777341 5 3207618170696 1 0
-15.841535 20.752377 -1.5204517 3 3207618173000 1 0
-26.942299 28.935923 2.3025377 27 3207618173000 1 0
-28.676153 33.99578 1.8119625 28 3207618175304 1 0
-18.35988 19.724192 -1.2552236 3 3207618175304 1 0
-16.323534 19.357374 -1.3270305 3 3207618177608 1 0
-27.376137 29.419016 4.934246 23 3207618177608 1 0
-21.764826 25.817587 2.7566283 6 3207618179912 1 0
0 0 0 15 3207618179912 1 0
-16.057487 21.060669 -0.92483664 3 3207618182216 1 0
0 0 0 9 3207618182216 1 0
0 0 0 29 3207618184520 1 0
-27.44152 29.515095 -0.9377837 6 3207618184520 1 0
-2.6563666 3.1612496 -1.9254488 4 3207618205256 1 0
-27.487492 26.880175 -0.67107993 18 3207618205256 1 0
0 0 0 84 3207618207560 1 0
-5.0095987 5.40388 -2.0627906 4 3207618207560 1 0
-7.390759 8.800682 -2.2984946 3 3207618209864 1 0
-26.917706 29.044743 0 16 3207618209864 1 0
-24.979282 32.891106 -0.4808233 18 3207618212168 1 0
-10.986636 11.858259 -2.514981 2 3207618212168 1 0
-13.502046 16.087309 -2.6733508 12 3207618214472 1 0
0 0 0 3 3207618214472 1 0
-26.92627 32.091373 -0.2434727 18 3207618216776 1 0
-16.282549 17.58458 -2.5814672 7 3207618216776 1 0
0 0 0 41 3207618219080 1 0
-23.929804 25.850885 0.8197 10 3207618219080 1 0
-24.979479 32.931126 0.4811958 5 3207618221384 1 0
-16.792448 18.145838 -1.7288444 2 3207618221384 1 0
-16.066431 19.165337 -2.0415974 3 3207618223688 1 0
-27.073498 32.304996 0.7357237 62 3207618225992 1 0
-18.652578 18.288288 -1.6741525 5 3207618225992 1 0
-30.007177 29.41257 1.2228497 33 3207618223688 1 0
-15.829296 20.887112 -1.5262656 3 3207618228296 1 0
-26.876371 29.06791 2.305561 9 3207618228296 1 0
-28.693323 34.25806 1.8205924 19 3207618230600 1 0
-18.309904 19.808699 -1.2565265 3 3207618230600 1 0
-16.240479 19.39586 -1.3257744 3 3207618232904 1 0
-27.181665 29.415258 4.9176717 23 3207618232904 1 0
-21.561977 25.758892 2.7423081 6 3207618235208 1 0
0 0 0 1 3207618235208 1 0
-16.075556 21.237713 -0.9301414 3 3207618237512 1 0
0 0 0 9 3207618237512 1 0
0 0 0 29 3207618239816 1 0
-27.180992 29.44029 -0.93238664 18 3207618239816 1 0
-2.6453156 3.170503 -1.9254488 4 3207618260552 1 0
-16.462446 19.73665 -0.7479758 23 3207618262856 1 0
-26.347681 25.946085 -0.6454598 23 3207618260552 1 0
-4.982878 5.4128323 -2.0595558 4 3207618262856 1 0
-7.352458 8.8173895 -2.2961411 3 3207618265160 1 0
-27.192667 29.547644 0 16 3207618265160 1 0
-24.775225 32.859932 -0.4791004 31 3207618267464 1 0
-10.961232 11.913989 -2.5186706 2 3207618267464 1 0
-26.336147 25.964926 0.21494782 16 3207618269768 1 0
-13.448349 16.13739 -2.673856 14 3207618269768 1 0
-26.872974 32.25585 -0.24400738 19 3207618272072 1 0
-16.20761 17.62667 -2.5793252 7 3207618272072 1 0
-11.861609 15.746604 -1.8402926 59 3207618274376 1 0
-24.753696 32.871143 0.47905385 5 3207618276680 1 0
-16.615606 18.080944 -1.7171254 7 3207618276680 1 0
-16.096355 19.337738 -2.0539649 3 3207618278984 1 0
-23.758234 25.845938 0.8169084 10 3207618274376 1 0
-26.32457 25.98373 1.0764661 9 3207618278984 1 0
-27.065453 32.525345 0.7385858 54 3207618281288 1 0
-18.497728 18.26354 -1.665966 2 3207618281288 1 0
-37.094116 40.400833 3.1941578 22 3207618283592 1 0
-15.893134 21.124123 -1.5395212 3 3207618283592 1 0
-28.839342 34.677593 1.8375267 19 3207618285896 1 0
-18.208225 19.837168 -1.254293 3 3207618285896 1 0
-16.31313 19.62137 -1.3372884 3 3207618288200 1 0
-27.041243 29.469007 4.910847 7 3207618288200 1 0
-21.438803 25.794142 2.7380772 6 3207618290504 1 0
-16.022938 21.32246 -0.9313978 3 3207618292808 1 0
-21.209948 20.965803 -1.2150309 4 3207618290504 1 0
0 0 0 9 3207618292808 1 0
-27.142918 29.605734 -0.9346199 18 3207618295112 1 0
0 0 0 29 3207618295112 1 0
-2.6359897 3.1829693 -1.9271393 4 3207618316296 1 0
-27.478996 27.25926 -0.6756176 12 3207618316296 1 0
-27.058521 32.682476 -1.234835 18 3207618318600 1 0
-7.3277225 8.853237 -2.2984946 3 3207618320904 1 0
-4.965644 5.4338665 -2.0606341 4 3207618318600 1 0
-27.009075 29.564028 0 16 3207618320904 1 0
-24.588243 32.86031 -0.4777966 13 3207618323208 1 0
-10.923083 11.959682 -2.5199003 2 3207618323208 1 0
-13.39717 16.195356 -2.6753712 12 3207618325512 1 0
-27.955807 27.762932 0.22898939 17 3207618325512 1 0
-26.888302 32.513443 -0.24521627 51 3207618327816 1 0
-16.12745 17.667746 -2.576755 7 3207618327816 1 0
-11.744885 15.709714 -1.8309982 49 3207618330120 1 0
-24.598812 32.91234 0.47835538 5 3207618332424 1 0
-23.572826 25.831379 0.81374466 10 3207618330120 1 0
-16.568974 18.161514 -1.7190785 7 3207618332424 1 0
-16.01888 19.386452 -2.0529883 3 3207618334728 1 0
-29.627535 29.45567 1.215868 28 3207618334728 1 0
-27.052626 32.748985 0.74144804 54 3207618337032 1 0
-15.836258 21.206678 -1.5413817 3 3207618339336 1 0
-26.98455 29.60283 2.33277 28 3207618339336 1 0
-29.363682 35.566685 1.8790481 19 3207618341640 1 0
-18.613014 18.510157 -1.6823391 2 3207618337032 1 0
-18.147753 19.914133 -1.2550374 3 3207618341640 1 0
-16.20468 19.633402 -1.3341482 3 3207618343944 1 0
-26.973064 29.606659 4.9176717 23 3207618343944 1 0
-22.61523 27.40806 2.9008062 7 3207618346248 1 0
-21.183102 21.08934 -1.217799 4 3207618346248 1 0
-16.047241 21.514002 -0.93726087 3 3207618348552 1 0
0 0 0 9 3207618348552 1 0
0 0 0 29 3207618350856 1 0
-26.884027 29.533508 -0.9293159 18 3207618350856 1 0
-2.623117 3.1888933 -1.9254488 4 3207618371592 1 0
-27.430899 27.392624 -0.6766647 12 3207618371592 1 0
-27.018322 32.855606 -1.2379768 63 3207618373896 1 0
-4.9501467 5.4531913 -2.0617123 4 3207618373896 1 0
-7.308158 8.889713 -2.3016326 2 3207618376200 1 0
-26.138977 28.803694 0 10 3207618376200 1 0
-24.39731 32.833046 -0.47621343 40 3207618378504 1 0
-10.888413 12.001931 -2.52113 2 3207618378504 1 0
-13.342918 16.240082 -2.6753712 12 3207618380808 1 0
-27.755287 27.748829 0.22810599 17 3207618380808 1 0
-27.043182 32.924862 -0.24763402 46 3207618383112 1 0
-16.046759 17.698143 -2.5733278 7 3207618383112 1 0
-11.644558 15.685129 -1.8235626 45 3207618385416 1 0
-23.410707 25.82747 0.81113917 10 3207618385416 1 0
-24.413961 32.895412 0.4769119 5 3207618387720 1 0
0 0 0 42 3207618387720 1 0
-16.117764 19.640717 -2.0741432 3 3207618390024 1 0
-29.307552 29.334846 1.2067918 38 3207618390024 1 0
-27.03812 32.957775 0.7441008 54 3207618392328 1 0
-18.41773 18.440247 -1.6703151 2 3207618392328 1 0
-26.900158 29.711868 2.3341653 28 3207618394632 1 0
-29.607626 36.111256 1.9024955 10 3207618396936 1 0
-15.799978 21.308338 -1.54487 3 3207618394632 1 0
-18.195314 20.103035 -1.2630408 3 3207618396936 1 0
-16.201073 19.765673 -1.3393818 3 3207618399240 1 0
-26.89612 29.724781 4.922059 23 3207618399240 1 0
-21.125162 21.175613 -1.2186131 4 3207618401544 1 0
-15.978373 21.57515 -0.93754005 3 3207618403848 1 0
0 0 0 9 3207618403848 1 0
-22.554468 27.525122 2.9050372 7 3207618401544 1 0
0 0 0 29 3207618406152 1 0
-26.782711 29.62542 -0.9293159 36 3207618406152 1 0
-2.6142628 3.200838 -1.9271393 4 3207618426888 1 0
-45.014244 45.266357 -1.1143012 14 3207618426888 1 0
-26.994507 33.06121 -1.2421658 36 3207618429192 1 0
-4.9362392 5.4761596 -2.063869 4 3207618429192 1 0
-7.2746024 8.912131 -2.300848 2 3207618431496 1 0
0 0 0 89 3207618431496 1 0
-24.216072 32.827885 -0.47490963 13 3207618433800 1 0
-10.854389 12.048676 -2.522975 2 3207618433800 1 0
-13.29869 16.301931 -2.6778965 12 3207618436104 1 0
-27.562416 27.749056 0.22731557 17 3207618436104 1 0
-27.01404 33.124454 -0.24842444 26 3207618438408 1 0
-15.963594 17.730406 -2.5699008 7 3207618438408 1 0
-11.547205 15.667972 -1.8168707 45 3207618440712 1 0
-23.234802 25.813921 0.8081615 9 3207618440712 1 0
-24.204086 32.851627 0.47504932 5 3207618443016 1 0
-16.38532 18.209455 -1.71294 7 3207618443016 1 0
-16.094435 19.75249 -2.0800014 3 3207618445320 1 0
-29.18245 29.414263 1.2058609 27 3207618445320 1 0
-26.99111 33.135677 0.7459857 23 3207618447624 1 0
-18.493803 18.646133 -1.6831067 2 3207618447624 1 0
-15.817823 21.488781 -1.5539397 3 3207618449928 1 0
-37.344463 41.53836 3.2529945 47 3207618449928 1 0
-26.077559 32.03318 1.6828389 8 3207618452232 1 0
-16.0286 19.69508 -1.3307987 3 3207618454536 1 0
-26.821384 29.850971 4.927421 7 3207618454536 1 0
-17.542765 19.518581 -1.2224656 3 3207618452232 1 0
-21.07362 21.271938 -1.2199157 4 3207618456840 1 0
-22.475863 27.625332 2.9073153 7 3207618456840 1 0
-15.995313 21.756405 -0.9429844 3 3207618459144 1 0
0 0 0 9 3207618459144 1 0
0 0 0 29 3207618461448 1 0
-26.76462 29.813951 -0.9322936 61 3207618461448 1 0
-2.6007905 3.2071283 -1.9254488 5 3207618482184 1 0
-27.076006 27.41841 -0.67261577 12 3207618482184 1 0
-25.911818 31.962769 -1.1974827 17 3207618484488 1 0
-7.243319 8.937575 -2.300848 2 3207618486792 1 0
-4.914485 5.4905224 -2.0627906 5 3207618484488 1 0
-27.171791 30.365988 0 47 3207618486792 1 0
-10.822542 12.09851 -2.5254345 3 3207618489096 1 0
-24.001368 32.777203 -0.47295392 13 3207618489096 1 0
-13.261209 16.373306 -2.681937 19 3207618491400 1 0
-27.04303 33.39983 -0.2497728 20 3207618493704 1 0
-27.363459 27.743374 0.22647865 17 3207618491400 1 0
-15.8744545 17.75695 -2.5656168 7 3207618493704 1 0
-11.437674 15.634754 -1.8083198 48 3207618496008 1 0
-23.060816 25.803446 0.8052769 9 3207618496008 1 0
-24.047451 32.882256 0.47425774 5 3207618498312 1 0
-16.326044 18.273321 -1.713498 7 3207618498312 1 0
-16.149601 19.96446 -2.0962744 3 3207618500616 1 0
-27.018963 33.41182 0.75003463 39 3207618502920 1 0
-28.968447 29.406555 1.2013227 26 3207618500616 1 0
-18.441381 18.726002 -1.6843858 2 3207618502920 1 0
-15.844804 21.68688 -1.5641723 3 3207618505224 1 0
-37.230778 41.7099 3.2560177 47 3207618505224 1 0
-29.949787 37.05924 1.9412488 10 3207618507528 1 0
-17.411772 19.512526 -1.2181848 3 3207618507528 1 0
-16.060953 19.879696 -1.3393818 3 3207618509832 1 0
-17.110119 19.180374 3.1559286 3 3207618509832 1 0
-22.38419 27.71504 2.9082918 7 3207618512136 1 0
-21.002827 21.353054 -1.2202414 4 3207618512136 1 0
-16.044292 21.988108 -0.9505227 3 3207618514440 1 0
0 0 0 9 3207618514440 1 0
0 0 0 29 3207618516744 1 0
-2.5912914 3.219463 -1.9271393 4 3207618537480 1 0
-27.085491 30.390743 -0.94727504 68 3207618516744 1 0
-26.995844 33.549072 -1.2532202 36 3207618539784 1 0
-4.8944483 5.5083914 -2.0627906 4 3207618539784 1 0
-7.235489 8.99431 -2.3086927 3 3207618542088 1 0
-27.15462 30.568861 0 41 3207618542088 1 0
0 0 0 43 3207618537480 1 0
-23.8456 32.81162 -0.4722089 17 3207618544392 1 0
-10.786794 12.1462555 -2.5272794 3 3207618544392 1 0
-13.219946 16.442297 -2.6854725 17 3207618546696 1 0
-27.322792 27.901115 0.22696686 29 3207618546696 1 0
-26.994253 33.58308 -0.25042373 67 3207618549000 1 0
-15.784808 17.783545 -2.561333 7 3207618549000 1 0
-11.337882 15.61385 -1.8012561 48 3207618551304 1 0
-22.892502 25.798046 0.80257833 9 3207618551304 1 0
-23.837816 32.837048 0.47239515 5 3207618553608 1 0
-16.064835 20.002062 -2.0943215 3 3207618555912 1 0
-16.253815 18.3216 -1.7126609 2 3207618553608 1 0
-28.748192 29.387453 1.1964355 21 3207618555912 1 0
-26.97802 33.598896 0.7521289 23 3207618558216 1 0
-18.379105 18.792713 -1.6846416 2 3207618558216 1 0
-15.79809 21.780157 -1.5669628 3 3207618560520 1 0
-37.137108 41.89476 3.2604363 23 3207618560520 1 0
-17.236181 19.449444 -1.2105538 3 3207618562824 1 0
-30.062819 37.460842 1.9568803 20 3207618562824 1 0
-16.055695 20.012135 -1.3446153 3 3207618565128 1 0
-17.018414 19.208778 3.1510537 3 3207618565128 1 0
-22.290342 27.790575 2.9082918 7 3207618567432 1 0
-19.38878 19.845888 -1.1303598 3 3207618567432 1 0
-18.020271 24.871174 -1.0725313 4 3207618569736 1 0
0 0 0 9 3207618569736 1 0
0 0 0 29 3207618572040 1 0
-27.081972 30.591768 -0.950718 51 3207618572040 1 0
-2.585693 3.2332504 -1.9305202 4 3207618592776 1 0
-26.986423 27.70234 -0.6750591 12 3207618592776 1 0
-26.96972 33.734043 -1.2569438 36 3207618595080 1 0
-4.8770385 5.5238113 -2.0627906 4 3207618595080 1 0
-7.202037 9.011079 -2.307124 3 3207618597384 1 0
-27.17932 30.792755 0 12 3207618597384 1 0
-23.691805 32.819305 -0.47123104 4 3207618599688 1 0
-10.750666 12.1835165 -2.5278943 3 3207618599688 1 0
-13.182125 16.503115 -2.688503 19 3207618601992 1 0
-27.286373 28.042868 0.22740856 17 3207618601992 1 0
-26.9885 33.79783 -0.2513769 54 3207618604296 1 0
-15.709151 17.81331 -2.5583344 7 3207618604296 1 0
-11.243143 15.589003 -1.7941923 50 3207618606600 1 0
-23.686743 32.852547 0.47151044 5 3207618608904 1 0
-22.737682 25.790838 0.80006593 9 3207618606600 1 0
-16.331501 18.529882 -1.7271703 2 3207618608904 1 0
-16.041851 20.107273 -2.0998542 3 3207618611208 1 0
-28.535257 29.360533 1.1915482 32 3207618611208 1 0
-26.995106 33.846466 0.7556892 16 3207618613512 1 0
-17.772295 18.291613 -1.6344988 5 3207618613512 1 0
-15.819773 21.961575 -1.5762651 3 3207618615816 1 0
0 0 0 3 3207618615816 1 0
-30.115849 37.78179 1.9684412 31 3207618618120 1 0
-17.076826 19.398277 -1.2038532 3 3207618618120 1 0
-15.9892435 20.065268 -1.3446153 3 3207618620424 1 0
-16.910032 19.214441 3.1427667 10 3207618620424 1 0
-21.60645 27.122519 2.8308327 7 3207618622728 1 0
-19.20567 19.789896 -1.123521 10 3207618622728 1 0
-17.943975 24.941051 -1.0729501 4 3207618625032 1 0
0 0 0 9 3207618625032 1 0
0 0 0 29 3207618627336 1 0
-2.5766451 3.2450957 -1.9322107 4 3207618648072 1 0
-27.076742 30.7937 -0.9541609 51 3207618627336 1 0
-26.981325 27.89123 -0.6773628 19 3207618648072 1 0
-26.948502 33.950306 -1.2614819 45 3207618650376 1 0
-7.1752834 9.042413 -2.3086927 3 3207618652680 1 0
-4.852608 5.535044 -2.0606341 4 3207618650376 1 0
-27.13713 30.96304 0 60 3207618652680 1 0
-25.246763 35.23344 -0.5046177 10 3207618654984 1 0
-10.718225 12.233093 -2.5303538 3 3207618654984 1 0
-13.136284 16.564955 -2.6910284 17 3207618657288 1 0
-26.995728 27.940252 0.22580448 17 3207618657288 1 0
-26.971008 34.02132 -0.25233003 41 3207618659592 1 0
-11.141612 15.563873 -1.7867568 50 3207618661896 1 0
-15.6305065 17.850655 -2.555764 7 3207618659592 1 0
-27.113506 30.974236 0.95788306 12 3207618661896 1 0
-23.48412 32.815884 0.46978754 5 3207618664200 1 0
-16.173801 18.482506 -1.7174044 2 3207618664200 1 0
-16.069405 20.289087 -2.1128726 3 3207618666504 1 0
-26.306896 27.260624 1.1025312 4 3207618666504 1 0
-26.968914 34.061398 0.75834197 24 3207618668808 1 0
-15.787863 22.082775 -1.5809163 3 3207618671112 1 0
-17.590733 18.234037 -1.623754 5 3207618668808 1 0
-27.397755 31.337564 2.4241645 10 3207618671112 1 0
-30.18411 38.146084 1.9817933 21 3207618673416 1 0
-16.96801 19.414 -1.2010614 3 3207618673416 1 0
-16.073475 20.319717 -1.3578041 3 3207618675720 1 0
-21.67228 27.406199 2.852313 7 3207618678024 1 0
-16.781094 19.206059 3.1315546 7 3207618675720 1 0
-19.02367 19.743502 -1.1170077 7 3207618678024 1 0
-17.928595 25.10946 -1.0774173 4 3207618680328 1 0
0 0 0 9 3207618680328 1 0
0 0 0 29 3207618682632 1 0
-27.060389 30.999422 -0.9575108 52 3207618682632 1 0
-2.5624902 3.2516704 -1.9305202 3 3207618703368 1 0
-26.96202 28.076473 -0.67945707 12 3207618703368 1 0
-26.930779 34.18351 -1.2664855 27 3207618705672 1 0
-7.13993 9.065362 -2.3079083 3 3207618707976 1 0
-4.839956 5.5614395 -2.063869 4 3207618705672 1 0
-27.118885 31.170145 0 42 3207618707976 1 0
-25.225622 35.474586 -0.50675964 15 3207618710280 1 0
-10.679039 12.277795 -2.5315835 3 3207618710280 1 0
-13.076449 16.61223 -2.6910284 6 3207618712584 1 0
-27.31565 28.476206 0.22933811 60 3207618712584 1 0
-26.952505 34.25001 -0.25330645 49 3207618714888 1 0
-11.048947 15.55169 -1.7808083 49 3207618717192 1 0
-15.537577 17.873674 -2.5510516 7 3207618714888 1 0
0 0 0 5 3207618717192 1 0
-23.339243 32.860226 0.46922877 5 3207618719496 1 0
-16.12354 18.558096 -1.7190785 2 3207618719496 1 0
-12.579516 15.999116 -1.6614625 5 3207618721800 1 0
-28.09102 29.316935 1.1816574 15 3207618721800 1 0
-26.964525 34.304283 0.761623 24 3207618724104 1 0
-17.404678 18.169258 -1.6124974 5 3207618724104 1 0
-11.22905 15.823706 -1.12999 2 3207618726408 1 0
-30.210701 38.455936 1.9923772 31 3207618728712 1 0
-117.26412 135.08333 10.4175825 28 3207618726408 1 0
-16.826527 19.38886 -1.1958499 3 3207618728712 1 0
-16.032055 20.413399 -1.3603162 3 3207618731016 1 0
-16.77119 19.330492 3.1422791 7 3207618731016 1 0
-21.589191 27.497047 2.8539402 7 3207618733320 1 0
0 0 0 10 3207618733320 1 0
0 0 0 9 3207618735624 1 0
-17.869308 25.210508 -1.0790924 4 3207618735624 1 0
0 0 0 29 3207618737928 1 0
-2.5449898 3.2515857 -1.9254488 4 3207618758664 1 0
-27.052908 31.207336 -0.9610469 45 3207618737928 1 0
-26.940544 28.240969 -0.68127215 19 3207618758664 1 0
-26.925436 34.411377 -1.2716054 27 3207618760968 1 0
-4.816408 5.571666 -2.0617123 4 3207618760968 1 0
-7.116946 9.098361 -2.3102617 2 3207618763272 1 0
-27.12215 31.38438 0 18 3207618763272 1 0
-25.217806 35.715424 -0.5089947 15 3207618765576 1 0
-10.650916 12.328326 -2.5346582 3 3207618765576 1 0
-12.400068 15.861851 -2.5627398 3 3207618767880 1 0
-27.300257 28.651402 0.2300123 48 3207618767880 1 0
-26.938517 34.469395 -0.2542596 42 3207618770184 1 0
-15.454176 17.898573 -2.5471961 7 3207618770184 1 0
-10.948424 15.520381 -1.7730011 49 3207618772488 1 0
-27.088713 31.382576 0.9646759 19 3207618772488 1 0
-23.205418 32.905937 0.46876314 5 3207618774792 1 0
-16.1496 18.714993 -1.7285655 2 3207618774792 1 0
-12.46412 15.962914 -1.6533262 37 3207618777096 1 0
0 0 0 13 3207618777096 1 0
-17.304617 18.187523 -1.6089158 5 3207618779400 1 0
-26.939423 34.511917 0.764206 16 3207618779400 1 0
0 0 0 32 3207618781704 1 0
-30.210217 38.72533 2.001007 10 3207618784008 1 0
-16.70841 19.385363 -1.1921273 3 3207618784008 1 0
-16.023901 20.54659 -1.3655498 3 3207618786312 1 0
0 0 0 3 3207618781704 1 0
-16.687162 19.366405 3.138867 10 3207618786312 1 0
-20.004904 25.658915 2.656062 6 3207618788616 1 0
-18.526577 19.494526 -1.0956771 28 3207618788616 1 0
-17.865856 25.389132 -1.084118 4 3207618790920 1 0
0 0 0 9 3207618790920 1 0
0 0 0 29 3207618793224 1 0
-2.5336242 3.2604496 -1.9254488 3 3207618813960 1 0
0 0 0 1 3207618793224 1 0
-26.951818 28.450974 -0.6840645 13 3207618813960 1 0
-19.885372 25.597992 -0.9433478 17 3207618816264 1 0
-4.799398 5.591402 -2.0627906 4 3207618816264 1 0
-7.118692 9.166621 -2.3212442 3 3207618818568 1 0
-27.108353 31.591574 0 62 3207618818568 1 0
-25.174839 35.921696 -0.510671 15 3207618820872 1 0
-10.625562 12.386661 -2.5389626 3 3207618820872 1 0
-12.307669 15.8583765 -2.5551639 15 3207618823176 1 0
-27.287212 28.84029 0.23075622 42 3207618823176 1 0
-19.894972 25.642668 -0.18863147 13 3207618825480 1 0
-15.362479 17.919756 -2.542484 7 3207618825480 1 0
-10.850102 15.496991 -1.7659373 52 3207618827784 1 0
-27.073912 31.590466 0.96811885 32 3207618827784 1 0
-16.18966 18.896307 -1.7400055 2 3207618830088 1 0
-23.088734 32.987915 0.46876314 5 3207618830088 1 0
-12.336562 15.9156685 -1.6438878 31 3207618832392 1 0
-26.96467 28.534283 1.1425598 15 3207618832392 1 0
-19.874163 25.64818 0.5663655 9 3207618834696 1 0
-17.13018 18.132875 -1.5986826 2 3207618834696 1 0
0 0 0 3 3207618837000 1 0
0 0 0 36 3207618837000 1 0
-19.91406 25.715889 1.3251034 5 3207618839304 1 0
-16.613108 19.41454 -1.1902661 3 3207618839304 1 0
-15.986962 20.65117 -1.3686899 3 3207618841608 1 0
-16.599699 19.40487 3.1354544 7 3207618841608 1 0
-19.934744 25.758846 2.658991 6 3207618843912 1 0
-18.453823 19.557915 -1.0955143 24 3207618843912 1 0
-17.88897 25.617025 -1.0910978 4 3207618846216 1 0
0 0 0 29 3207618848520 1 0
0 0 0 17 3207618848520 1 0
-2.526085 3.2754552 -1.9288298 3 3207618869256 1 0
-26.926813 28.634058 -0.686089 13 3207618869256 1 0
