# .PCD v.7 - Point Cloud Data file format
VERSION .7
FIELDS x y z rgb timestamp_ns device_id active
SIZE 4 4 4 4 8 1 1
TYPE F F F F F U U
COUNT 1 1 1 1 1 1 1
WIDTH 937
HEIGHT 1
VIEWPOINT 0 0 0 1 0 0 0
POINTS 937               
DATA ascii
0.7056208 17.820501 -1.6648141 30 3201429324376 1 0
-0.89773166 15.380699 -1.6595758 49 3201429322072 1 0
0 0 0 10 3201429324376 1 0
1.0069605 25.342283 0.29526442 16 3201429326680 1 0
-0.1570658 17.417349 -1.4219255 22 3201429328984 1 0
-2.2140927 20.660906 0.604734 19 3201429328984 1 0
-0.9367251 16.125372 -1.1294968 26 3201429326680 1 0
-0.47027978 52.961845 0.9244889 77 3201429331288 1 0
-1.6464945 15.384401 -0.9915977 15 3201429331288 1 0
0.7471616 18.60945 -1.0846416 32 3201429333592 1 0
-3.0642054 53.12954 3.0992749 41 3201429333592 1 0
-0.19780613 22.992075 0.93675596 21 3201429335896 1 0
-0.99540025 17.300598 -0.80722195 58 3201429335896 1 0
-0.15705943 18.553871 -0.9724021 42 3201429338200 1 0
-1.2551293 21.867517 2.6894126 26 3201429338200 1 0
-0.19097593 22.934906 1.8723593 21 3201429340504 1 0
-1.7263068 16.214836 -0.6643428 61 3201429340504 1 0
0.81435764 20.007229 -0.6992463 41 3201429342808 1 0
-1.29755 22.716322 6.096741 21 3201429342808 1 0
-0.19156133 23.794945 4.338574 28 3201429345112 1 0
-0.9864127 17.311226 -0.4034759 73 3201429345112 1 0
-0.02640711 4.0891757 -1.9068536 3 3201429365296 1 0
-1.702971 16.284704 -0.2858006 58 3201429365296 1 0
-0.117922574 18.659727 -0.5430621 47 3201429367600 1 0
-0.39477792 7.1459656 -2.003484 5 3201429367600 1 0
-0.06689247 10.821479 -2.1643505 2 3201429369904 1 0
-2.9322746 53.21127 0 31 3201429369904 1 0
0.86150897 20.104187 -0.23426516 31 3201429372208 1 0
-0.7889734 14.353404 -2.2364268 6 3201429372208 1 0
-0.09904256 16.772379 -2.1349432 36 3201429374512 1 0
-2.1320267 20.497068 0.11977192 24 3201429374512 1 0
-0.3052445 52.930225 -0.3076362 48 3201429376816 1 0
-0.8459133 15.4672785 -1.6685721 50 3201429376816 1 0
0.77489114 17.909311 -1.673365 31 3201429379120 1 0
-2.8996832 53.154556 1.2387156 57 3201429379120 1 0
1.0989707 25.318443 0.2950316 22 3201429381424 1 0
-0.88021797 16.17651 -1.1328452 21 3201429381424 1 0
-0.099927194 18.669624 -1.5241193 21 3201429383728 1 0
-2.1437008 20.720585 0.6062467 17 3201429383728 1 0
-0.26598528 51.011536 0.89042175 30 3201429386032 1 0
-1.593789 15.426069 -0.9939002 14 3201429386032 1 0
0.81781113 18.66244 -1.0878974 30 3201429388336 1 0
-1.3202896 24.45089 1.4260339 26 3201429388336 1 0
-0.113475434 22.980656 0.93626744 21 3201429390640 1 0
-0.93628156 17.383928 -0.81094444 52 3201429390640 1 0
-0.08955352 18.65818 -0.977845 45 3201429392944 1 0
-1.1551659 21.503275 2.6440773 20 3201429392944 1 0
0 0 0 17 3201429395248 1 0
-1.6742187 16.292618 -0.66727376 60 3201429395248 1 0
0.8928216 20.119925 -0.70329463 41 3201429397552 1 0
-1.2091268 22.62447 6.0708594 15 3201429397552 1 0
-0.10470958 23.878124 4.353641 18 3201429399856 1 0
-0.92700154 17.390596 -0.4052439 76 3201429399856 1 0
-0.012823992 4.0819902 -1.9034727 2 3201429420592 1 0
-1.6550012 16.349947 -0.28684774 63 3201429420592 1 0
-0.056207832 18.759974 -0.54597116 47 3201429422896 1 0
-0.37122658 7.151085 -2.0045624 5 3201429422896 1 0
-0.030860567 10.825564 -2.165135 2 3201429425200 1 0
-2.6818268 51.806633 0 30 3201429425200 1 0
0.9337788 20.213072 -0.23556896 30 3201429427504 1 0
-0.7402432 14.340169 -2.2339673 7 3201429427504 1 0
-0.043158367 16.859911 -2.1460547 40 3201429429808 1 0
-2.0590422 20.460306 0.119516194 22 3201429429808 1 0
-0.123217694 51.03499 -0.29661682 28 3201429432112 1 0
-0.79772437 15.541519 -1.676283 52 3201429432112 1 0
0.8404379 18.021978 -1.6841465 38 3201429434416 1 0
-2.722716 53.19595 1.2394601 38 3201429434416 1 0
1.1836516 25.302612 0.29489192 11 3201429436720 1 0
-0.83449185 16.35074 -1.1448432 22 3201429436720 1 0
-0.03469805 17.54161 -1.4320147 12 3201429439024 1 0
-2.070587 20.695871 0.6053158 15 3201429439024 1 0
-0.043279294 23.616364 0.41222584 15 3201429441328 1 0
-1.5475677 15.490951 -0.9977376 13 3201429441328 1 0
0.8816155 18.671526 -1.088595 30 3201429443632 1 0
-0.03611998 23.428537 0.9545043 32 3201429445936 1 0
-1.2329823 24.367485 1.4209176 21 3201429443632 1 0
-0.88126516 17.466818 -0.8146669 60 3201429445936 1 0
-0.026174728 18.746256 -0.98245054 35 3201429448240 1 0
-1.0847679 21.562595 2.650902 22 3201429448240 1 0
-0.031296447 25.020746 2.0425737 22 3201429450544 1 0
-1.6257502 16.369822 -0.67020464 58 3201429450544 1 0
0.9669292 20.22856 -0.7072034 41 3201429452848 1 0
-1.1350721 22.69407 6.088459 18 3201429452848 1 0
-0.02288002 23.835056 4.345749 18 3201429455152 1 0
-0.8718118 17.481537 -0.40729105 75 3201429455152 1 0
0.0014248904 4.08201 -1.9034727 2 3201429475888 1 0
-1.6037524 16.41533 -0.2878949 51 3201429475888 1 0
0.009457599 18.848017 -0.5485311 47 3201429478192 1 0
-0.34565166 7.1407976 -2.0013275 6 3201429478192 1 0
0.007072508 10.805994 -2.1612124 2 3201429480496 1 0
1.011325 20.341496 -0.23710558 33 3201429482800 1 0
-0.6896794 14.338733 -2.2333524 8 3201429482800 1 0
-2.5638366 53.134182 0 82 3201429480496 1 0
0.016264392 16.943287 -2.1566613 36 3201429485104 1 0
-1.9800574 20.395765 0.11909773 21 3201429485104 1 0
-0.74613184 15.611768 -1.6835656 54 3201429487408 1 0
0.90891755 18.11436 -1.6930691 31 3201429489712 1 0
-2.5314546 53.137333 1.2378782 96 3201429489712 1 0
0.056828607 51.075108 -0.2968493 28 3201429487408 1 0
1.223193 24.303589 0.2832974 7 3201429492016 1 0
-0.77979714 16.42135 -1.1495867 21 3201429492016 1 0
0 0 0 46 3201429494320 1 0
-1.9882977 20.611553 0.6026395 13 3201429494320 1 0
0.04068247 23.60437 0.41201642 31 3201429496624 1 0
-1.5246161 15.830124 -1.0192274 13 3201429496624 1 0
0.9566507 18.835766 -1.0983623 30 3201429498928 1 0
-1.1123787 23.653736 1.3790575 31 3201429498928 1 0
0.047916368 23.61636 0.9621573 32 3201429501232 1 0
-0.8226335 17.549679 -0.8183894 52 3201429501232 1 0
0.041203007 18.886036 -0.9897776 47 3201429503536 1 0
-1.0000149 21.403738 2.6309154 22 3201429503536 1 0
0.05596025 23.972189 1.9569783 10 3201429505840 1 0
-1.573523 16.44318 -0.67297274 55 3201429505840 1 0
1.0467756 20.364685 -0.71208936 49 3201429508144 1 0
0.062317487 23.606749 4.3041353 18 3201429510448 1 0
-0.8118341 17.548475 -0.4087799 69 3201429510448 1 0
0.016400749 4.0856028 -1.9051632 2 3201429531184 1 0
-1.0574783 22.782911 6.111235 21 3201429508144 1 0
-1.5510622 16.500736 -0.28929108 46 3201429531184 1 0
0.07854211 18.947815 -0.5514402 45 3201429533488 1 0
-0.31928837 7.134313 -1.9991709 6 3201429533488 1 0
0.046223685 10.80982 -2.161997 2 3201429535792 1 0
-2.3665774 53.035225 0 71 3201429535792 1 0
1.0870982 20.38565 -0.23766436 75 3201429538096 1 0
-0.6373566 14.325329 -2.2308927 7 3201429538096 1 0
0.07726409 17.026447 -2.1672678 36 3201429540400 1 0
-1.9115374 20.45051 0.119376704 26 3201429540400 1 0
0.24704681 52.914528 -0.30754322 100 3201429542704 1 0
0 0 0 21 3201429542704 1 0
0.97870153 18.218412 -1.7031071 30 3201429545008 1 0
-2.3402889 53.070045 1.2361102 28 3201429545008 1 0
1.3061852 24.255209 0.2827852 17 3201429547312 1 0
-0.7268452 16.531622 -1.1571203 22 3201429547312 1 0
0.09084409 17.948063 -1.4652114 13 3201429549616 1 0
-1.9041271 20.48699 0.5987995 19 3201429549616 1 0
0.13404557 25.81572 0.45062113 18 3201429551920 1 0
-1.5342523 16.530895 -1.0639976 21 3201429551920 1 0
1.0246004 18.88818 -1.1016182 26 3201429554224 1 0
-1.0334448 23.717272 1.382546 28 3201429554224 1 0
0.12549353 23.00857 0.93740726 15 3201429556528 1 0
-0.7663327 17.640217 -0.82248414 50 3201429556528 1 0
0.10585849 18.953693 -0.99333644 52 3201429558832 1 0
-0.9264768 21.391151 2.6289654 20 3201429558832 1 0
0.1361348 23.816381 1.9442854 10 3201429561136 1 0
-1.5248884 16.524023 -0.6760665 52 3201429561136 1 0
1.1178135 20.408953 -0.7137645 93 3201429563440 1 0
-0.98076123 22.782476 6.1102 18 3201429563440 1 0
-0.7571976 17.642979 -0.4109201 66 3201429565744 1 0
0.14097382 23.582798 4.2998304 21 3201429565744 1 0
0.029210003 4.081906 -1.9034727 2 3201429586480 1 0
-1.5060899 16.581203 -0.29061747 52 3201429586480 1 0
0.13913172 19.055424 -0.55458194 45 3201429588784 1 0
-0.2964498 7.1275883 -1.9970143 5 3201429588784 1 0
0.0805271 10.813541 -2.1627815 1 3201429591088 1 0
-2.197911 53.03047 0 71 3201429591088 1 0
1.1517998 20.378092 -0.23761779 75 3201429593392 1 0
-0.5910716 14.31149 -2.2284331 8 3201429593392 1 0
-1.8486074 20.484407 0.11953944 14 3201429595696 1 0
0.4170346 52.901463 -0.30747348 78 3201429598000 1 0
0 0 0 2 3201429598000 1 0
1.0436361 18.322515 -1.713145 31 3201429600304 1 0
-2.168105 53.057346 1.2356449 28 3201429600304 1 0
0.13251188 17.125309 -2.1798947 31 3201429595696 1 0
1.3866719 24.282791 0.2831577 12 3201429602608 1 0
-0.6743591 16.5618 -1.1590736 21 3201429602608 1 0
0.15949959 19.171558 -1.565127 40 3201429604912 1 0
-1.8377286 20.497068 0.59891593 23 3201429604912 1 0
0.21602127 25.519197 0.44545522 40 3201429607216 1 0
-1.4135954 15.792331 -1.0161574 17 3201429607216 1 0
1.0940218 19.012281 -1.1090599 26 3201429609520 1 0
-0.95580125 23.72852 1.383011 21 3201429609520 1 0
-0.7111325 17.718508 -0.8260205 52 3201429611824 1 0
0.16963506 19.05709 -0.9987794 44 3201429614128 1 0
-0.8721931 21.810642 2.6801505 5 3201429614128 1 0
0.20166732 23.03201 0.93838423 37 3201429611824 1 0
0.21585514 23.859648 1.9478655 27 3201429616432 1 0
-1.4769241 16.60863 -0.6793231 54 3201429616432 1 0
1.1846875 20.381153 -0.7129269 82 3201429618736 1 0
-0.9053099 22.804934 6.1153765 18 3201429618736 1 0
0.24144328 25.856596 4.714531 7 3201429621040 1 0
-0.70139426 17.73333 -0.41296726 70 3201429621040 1 0
0.04341974 4.078154 -1.9017822 2 3201429641776 1 0
-1.4544632 16.658077 -0.29187405 54 3201429641776 1 0
0.2066823 19.150776 -0.55737466 42 3201429644080 1 0
-0.27186134 7.136278 -1.9991709 5 3201429644080 1 0
0.11805841 10.793584 -2.1588593 2 3201429646384 1 0
-2.0132418 53.049812 0 71 3201429646384 1 0
1.2234049 20.381933 -0.23771092 73 3201429648688 1 0
-0.54066366 14.301617 -2.2265885 8 3201429648688 1 0
0.19322516 17.208065 -2.1905012 29 3201429650992 1 0
0.6016926 52.899685 -0.30747348 78 3201429653296 1 0
-1.8945973 21.845627 0.12744364 17 3201429650992 1 0
-0.56413543 15.038369 -1.6210209 2 3201429653296 1 0
1.1143173 18.430073 -1.7235548 24 3201429655600 1 0
-0.9019232 24.136616 0.56203747 32 3201429655600 1 0
3.5139043 57.977676 0.67620724 20 3201429657904 1 0
-0.61891824 16.627853 -1.163538 25 3201429657904 1 0
0.2268436 19.206762 -1.5680561 85 3201429660208 1 0
-1.7716597 20.567095 0.6007777 16 3201429660208 1 0
0.30318603 25.358324 0.44266284 56 3201429662512 1 0
-1.3502531 15.701718 -1.0100175 15 3201429662512 1 0
1.1652467 19.088064 -1.1137111 28 3201429664816 1 0
-0.8924906 24.262453 1.413941 25 3201429664816 1 0
0.28279698 23.09111 0.94082665 28 3201429667120 1 0
-0.65279025 17.816713 -0.8304875 48 3201429667120 1 0
0.23734364 19.152245 -1.0038036 44 3201429669424 1 0
-0.79200035 21.702463 2.6665013 30 3201429669424 1 0
0.29699033 23.687334 1.9338708 13 3201429671728 1 0
-1.424382 16.677399 -0.68192834 49 3201429671728 1 0
1.2555779 20.372904 -0.71278733 85 3201429674032 1 0
-0.8113026 22.410254 6.008743 10 3201429674032 1 0
0.3292247 25.66279 4.6793747 10 3201429676336 1 0
-0.64251506 17.819593 -0.41492137 66 3201429676336 1 0
0.057603642 4.0743527 -1.9000916 2 3201429697072 1 0
-1.4026523 16.738775 -0.29320043 49 3201429697072 1 0
-0.24694945 7.1371837 -1.9991709 4 3201429699376 1 0
0.27512863 19.261879 -0.56063277 42 3201429699376 1 0
0.15573433 10.793106 -2.1588593 2 3201429701680 1 0
-1.8342493 53.23641 0 20 3201429701680 1 0
1.2947973 20.381529 -0.23775749 76 3201429703984 1 0
-0.4901963 14.287617 -2.2241287 7 3201429703984 1 0
0.2548098 17.310442 -2.203633 24 3201429706288 1 0
-1.7825077 21.421602 0.1249329 26 3201429706288 1 0
-0.51244956 15.064095 -1.6235913 2 3201429708592 1 0
0.78729457 52.961254 -0.30784544 39 3201429708592 1 0
1.1852537 18.52941 -1.7332209 17 3201429710896 1 0
3.4293923 53.490547 0.6240086 27 3201429713200 1 0
-0.8192897 24.187576 0.5631541 30 3201429710896 1 0
-0.56275547 16.685745 -1.1674443 20 3201429713200 1 0
0.27735597 18.125574 -1.4798571 16 3201429715504 1 0
-1.7001855 20.577139 0.6008941 13 3201429715504 1 0
0.37236637 24.105452 0.42081243 19 3201429717808 1 0
-1.2974044 15.730206 -1.0115525 17 3201429717808 1 0
1.246017 19.303051 -1.1265017 28 3201429720112 1 0
-0.77218676 23.195826 1.3516159 13 3201429720112 1 0
0.36427876 23.14593 0.9431063 31 3201429722416 1 0
0.3059089 19.259136 -1.0094559 42 3201429724720 1 0
-0.5935063 17.90674 -0.8345822 46 3201429722416 1 0
-0.71781105 21.752712 2.672351 21 3201429724720 1 0
-1.3730086 16.765919 -0.6853478 52 3201429727024 1 0
1.326685 20.368397 -0.71278733 82 3201429729328 1 0
0.3787782 23.630344 1.9293144 16 3201429727024 1 0
0.3280042 20.097956 3.6648645 12 3201429731632 1 0
-0.73168194 22.37047 5.997355 32 3201429729328 1 0
-0.58330244 17.913654 -0.41706157 63 3201429731632 1 0
0.07188933 4.0777516 -1.9017822 2 3201429752368 1 0
0.34413993 19.360743 -0.5635418 42 3201429754672 1 0
-1.3499753 16.815329 -0.294457 54 3201429752368 1 0
-0.22191475 7.134152 -1.9980925 6 3201429754672 1 0
0.19319752 10.780731 -2.1565058 2 3201429756976 1 0
-1.6492748 53.270473 0 20 3201429756976 1 0
1.3656667 20.372894 -0.23771092 70 3201429759280 1 0
-0.43983328 14.273438 -2.2216692 7 3201429759280 1 0
0.316678 17.388792 -2.2137344 16 3201429761584 1 0
-1.682935 21.116686 0.12311958 33 3201429761584 1 0
0.9734805 53.03017 -0.3082639 39 3201429763888 1 0
0 0 0 80 3201429763888 1 0
1.2582376 18.648342 -1.7447461 23 3201429766192 1 0
-0.7338829 24.158314 0.5624097 30 3201429766192 1 0
0 0 0 79 3201429768496 1 0
-0.5066784 16.7594 -1.1724668 21 3201429768496 1 0
0.3435459 18.279951 -1.4925499 19 3201429770800 1 0
-1.6914129 21.38012 0.6241665 15 3201429770800 1 0
0.4555233 24.052023 0.4199049 22 3201429773104 1 0
-1.2412308 15.71872 -1.0105292 15 3201429773104 1 0
1.3196257 19.390217 -1.1318505 34 3201429775408 1 0
-0.6932353 23.266235 1.3555694 40 3201429775408 1 0
0.44330356 23.05261 0.9393612 28 3201429777712 1 0
-0.53348327 17.992575 -0.83849084 48 3201429777712 1 0
0.37499112 19.353802 -1.0144802 36 3201429780016 1 0
-0.64878374 21.989223 2.701112 21 3201429780016 1 0
0.47238812 24.198874 1.9758549 3 3201429782320 1 0
-1.3197854 16.838345 -0.6881159 54 3201429782320 1 0
1.3977759 20.363642 -0.71278733 79 3201429784624 1 0
-0.6515592 22.303371 5.9787197 20 3201429784624 1 0
0.39792332 20.084885 3.662712 8 3201429786928 1 0
-0.5230924 17.995525 -0.41892263 66 3201429786928 1 0
0.08604635 4.073851 -1.9000916 1 3201429807664 1 0
-1.2973933 16.89969 -0.2958532 52 3201429807664 1 0
0.4139298 19.463356 -0.56656724 42 3201429809968 1 0
-0.19690426 7.1310325 -1.9970143 4 3201429809968 1 0
0.23074415 10.77607 -2.1557212 2 3201429812272 1 0
-1.455848 53.00401 0 71 3201429812272 1 0
1.437336 20.375984 -0.23780404 70 3201429814576 1 0
-0.3895752 14.259083 -2.2192094 7 3201429814576 1 0
0.37875187 17.451054 -2.2218156 6 3201429816880 1 0
-1.6684655 21.900166 0.12765287 21 3201429816880 1 0
1.1586719 53.03045 -0.30828714 69 3201429819184 1 0
-0.43983084 16.271894 -1.7533929 47 3201429819184 1 0
1.345883 18.961653 -1.7744882 20 3201429821488 1 0
-0.637621 23.717009 0.55208087 32 3201429821488 1 0
0 0 0 86 3201429823792 1 0
-0.45094717 16.864775 -1.1797215 22 3201429823792 1 0
0.41188285 18.481913 -1.5091482 13 3201429826096 1 0
-1.6484203 21.80452 0.63638455 8 3201429826096 1 0
0.5368768 23.934332 0.41788042 24 3201429828400 1 0
-1.1938633 15.82247 -1.0169249 15 3201429828400 1 0
1.3930031 19.465155 -1.1365016 32 3201429830704 1 0
-0.6045621 22.985092 1.3390579 54 3201429830704 1 0
0.5219537 22.97101 0.9361046 18 3201429833008 1 0
0.44510323 19.464193 -1.0203418 42 3201429835312 1 0
-0.4728683 18.078207 -0.8423995 48 3201429833008 1 0
-0.5719198 21.987387 2.7006247 23 3201429835312 1 0
0.55832267 24.260849 1.9810622 10 3201429837616 1 0
1.4688498 20.358639 -0.71278733 82 3201429839920 1 0
-1.26667 16.918575 -0.6912096 49 3201429837616 1 0
0.47353107 20.319416 3.7057607 6 3201429842224 1 0
-0.46282905 18.097181 -0.42124894 55 3201429842224 1 0
0.100266226 4.073526 -1.9000916 2 3201429862960 1 0
-1.2442387 16.98389 -0.29724938 54 3201429862960 1 0
-0.57409924 22.32096 5.982861 20 3201429839920 1 0
0.48444018 19.565718 -0.56959265 42 3201429865264 1 0
-0.17173247 7.1201243 -1.9937794 5 3201429865264 1 0
0.2682606 10.771277 -2.1549368 2 3201429867568 1 0
-1.2706288 53.00077 0 82 3201429867568 1 0
1.5081573 20.366854 -0.23775749 69 3201429869872 1 0
-0.33942273 14.244551 -2.21675 7 3201429869872 1 0
0.44016486 17.46946 -2.224341 6 3201429872176 1 0
-3.6995156 50.904884 0.29664007 22 3201429872176 1 0
1.3437755 53.02608 -0.30828714 88 3201429874480 1 0
1.4209387 19.075989 -1.7856414 23 3201429876784 1 0
-0.5522108 23.607151 0.5494754 30 3201429876784 1 0
-0.38499385 16.356825 -1.7623891 41 3201429874480 1 0
3.747919 50.21692 0.58624494 17 3201429879088 1 0
-0.39448643 16.969965 -1.1869762 22 3201429879088 1 0
0.4762915 18.476377 -1.5088228 16 3201429881392 1 0
-3.8305545 53.13555 1.5504091 25 3201429881392 1 0
0.6155486 23.744404 0.41459936 46 3201429883696 1 0
-1.1477916 15.95395 -1.0251114 21 3201429883696 1 0
1.4720016 19.607508 -1.1451062 28 3201429886000 1 0
-0.52186686 22.879272 1.3327789 20 3201429886000 1 0
0.6028674 22.997015 0.9372444 25 3201429888304 1 0
-0.41175243 18.16763 -0.8464942 48 3201429888304 1 0
0.5158853 19.570335 -1.0259941 44 3201429890608 1 0
-0.49552357 22.005125 2.7025745 15 3201429890608 1 0
0.639942 24.143177 1.9716239 14 3201429892912 1 0
-1.212726 16.994652 -0.69414055 52 3201429892912 1 0
1.5405089 20.36136 -0.7130665 74 3201429895216 1 0
-0.5146408 23.153318 6.2054453 16 3201429895216 1 0
0.54656446 20.396315 3.7201102 18 3201429897520 1 0
-0.4015092 18.182644 -0.42320305 55 3201429897520 1 0
0.11448487 4.073151 -1.9000916 2 3201429918256 1 0
-1.1899555 17.059944 -0.29850596 54 3201429918256 1 0
0.55589604 19.675816 -0.5728508 42 3201429920560 1 0
-0.14687754 7.1206803 -1.9937794 5 3201429920560 1 0
0.30563506 10.762434 -2.1533678 2 3201429922864 1 0
-1.0852044 52.984886 0 92 3201429922864 1 0
1.579551 20.365452 -0.23780404 72 3201429925168 1 0
-0.28937647 14.229842 -2.2142901 7 3201429925168 1 0
0.50114197 17.467817 -2.224341 4 3201429927472 1 0
0.6919716 23.99762 -0.13953242 15 3201429929776 1 0
-0.32933018 16.42964 -1.7701 36 3201429929776 1 0
1.4980477 19.205914 -1.7982818 24 3201429932080 1 0
-0.47282642 23.760862 0.55301136 37 3201429932080 1 0
-3.6791239 53.192013 0.30989122 24 3201429927472 1 0
3.925679 50.23543 0.58661747 17 3201429934384 1 0
-0.337218 17.070976 -1.1939518 23 3201429934384 1 0
0.54323286 18.558289 -1.5156574 16 3201429936688 1 0
-3.6420443 53.10472 1.5491291 25 3201429936688 1 0
0.6941947 23.598196 0.41208622 26 3201429938992 1 0
-1.0961832 16.017597 -1.0289489 15 3201429938992 1 0
1.545441 19.665945 -1.1488271 36 3201429941296 1 0
-0.4417687 22.868979 1.3320812 20 3201429941296 1 0
0.7156574 24.089378 0.9818596 43 3201429943600 1 0
-0.35024783 18.26883 -0.8511473 48 3201429943600 1 0
0.58634096 19.640284 -1.0297623 31 3201429945904 1 0
-0.42505237 22.340157 2.7435226 16 3201429945904 1 0
-1.1585369 17.074543 -0.6972343 52 3201429948208 1 0
0.7001846 23.339823 1.9062068 9 3201429948208 1 0
1.6112584 20.351873 -0.7129269 82 3201429950512 1 0
-0.4210071 22.471218 6.0222015 13 3201429950512 1 0
0.6195447 20.453281 3.7308724 13 3201429952816 1 0
-0.33982134 18.279892 -0.42543632 51 3201429952816 1 0
0.12858762 4.0691032 -1.8984013 2 3201429973552 1 0
-1.1359495 17.147799 -0.29997197 55 3201429973552 1 0
0.6283801 19.793644 -0.5763417 42 3201429975856 1 0
-0.12208684 7.125001 -1.9948577 5 3201429975856 1 0
0.34345114 10.769142 -2.1549368 2 3201429978160 1 0
-0.43677115 25.70829 0 31 3201429978160 1 0
1.6509533 20.363802 -0.2378506 22 3201429980464 1 0
0.5617301 17.454063 -2.2228258 4 3201429982768 1 0
-0.23963673 14.226813 -2.2136753 7 3201429980464 1 0
-3.3600316 51.172943 0.29805818 33 3201429982768 1 0
-0.2733603 16.514194 -1.7790961 43 3201429985072 1 0
0.77470076 23.963076 -0.13934644 26 3201429985072 1 0
1.573816 19.307745 -1.8083198 26 3201429987376 1 0
-0.39657423 24.170202 0.56250274 27 3201429987376 1 0
0 0 0 15 3201429989680 1 0
-0.2793789 17.179771 -1.2014855 21 3201429989680 1 0
-3.4556134 53.10115 1.5486636 25 3201429991984 1 0
0 0 0 46 3201429991984 1 0
0.84891826 25.794104 0.4504815 21 3201429994288 1 0
-1.0446615 16.089043 -1.033298 16 3201429994288 1 0
1.537949 18.733128 -1.0946414 8 3201429996592 1 0
-0.36086422 22.802504 1.3281277 27 3201429996592 1 0
-0.28791642 18.36183 -0.85542816 45 3201429998896 1 0
0.6607527 19.81378 -1.0389735 31 3201430001200 1 0
-0.3820339 24.592327 3.0199223 13 3201430001200 1 0
0.77348053 23.295826 0.9496194 18 3201429998896 1 0
0.7735107 23.094181 1.886354 22 3201430003504 1 0
-1.1043179 17.162241 -0.70065373 51 3201430003504 1 0
1.6816311 20.338158 -0.71264774 24 3201430005808 1 0
-0.3194803 20.958155 5.616373 4 3201430005808 1 0
-0.27733865 18.368933 -0.42748347 42 3201430008112 1 0
0.6884116 20.37627 3.7172403 20 3201430008112 1 0
0.14304496 4.0758758 -1.9017822 1 3201430029296 1 0
-1.0808437 17.227499 -0.30129835 58 3201430029296 1 0
0.70099324 19.887224 -0.57913435 40 3201430031600 1 0
-0.09705834 7.117681 -1.992701 5 3201430031600 1 0
0.38438866 10.858029 -2.1729796 3 3201430033904 1 0
-0.3478423 25.797655 0 31 3201430033904 1 0
0 0 0 28 3201430036208 1 0
-0.18945329 14.211759 -2.2112157 8 3201430036208 1 0
0.62344354 17.45991 -2.223836 4 3201430038512 1 0
-3.210154 51.671505 0.3008944 23 3201430038512 1 0
0.86007404 23.984179 -0.13948593 21 3201430040816 1 0
-0.21609698 16.590612 -1.7872355 43 3201430040816 1 0
1.6447458 19.333809 -1.811294 53 3201430043120 1 0
-0.30224276 23.479698 0.54640466 21 3201430043120 1 0
4.557015 53.470528 0.62475365 20 3201430045424 1 0
-0.21970129 17.272423 -1.2079031 26 3201430045424 1 0
0.6782002 18.673529 -1.5254211 11 3201430047728 1 0
-3.2651808 53.081154 1.5477328 42 3201430047728 1 0
2.1336026 58.500187 1.0218035 41 3201430050032 1 0
-1.0057764 16.39148 -1.0524852 17 3201430050032 1 0
1.5198042 17.736843 -1.036735 3 3201430052336 1 0
0.85797876 23.328861 0.9510849 26 3201430054640 1 0
-0.2873437 23.434528 1.3648716 31 3201430052336 1 0
0.73370445 19.867174 -1.0419042 21 3201430056944 1 0
-0.22351211 18.45863 -0.85989517 45 3201430054640 1 0
-0.29442188 24.625296 3.023822 10 3201430056944 1 0
0.85955304 23.178907 1.893514 9 3201430059248 1 0
-1.0483547 17.257845 -0.7043988 46 3201430059248 1 0
0 0 0 21 3201430061552 1 0
-0.2612462 22.423412 6.008743 42 3201430061552 1 0
0.7577865 20.267487 3.6978686 11 3201430063856 1 0
-0.21236299 18.46978 -0.42980978 57 3201430063856 1 0
0.1578424 4.0717015 -1.9000916 1 3201430084592 1 0
-1.0221746 17.3072 -0.30262473 56 3201430084592 1 0
0.7783981 20.004385 -0.5826252 42 3201430086896 1 0
-0.07098341 7.1141367 -1.9916228 5 3201430086896 1 0
0.41836098 10.711538 -2.1439543 3 3201430089200 1 0
-0.25468457 25.902748 0 15 3201430089200 1 0
1.5300196 17.331417 -0.20255485 2 3201430091504 1 0
-0.13755852 14.200498 -2.2093709 6 3201430091504 1 0
0.68661326 17.449596 -2.2228258 4 3201430093808 1 0
-3.0434995 52.046207 0.30300993 23 3201430093808 1 0
2.0923078 52.977802 -0.30814767 68 3201430096112 1 0
-0.15678796 16.686731 -1.7975168 43 3201430096112 1 0
1.6147965 18.201069 -1.7057096 23 3201430098416 1 0
-0.21791068 23.556616 0.54817265 14 3201430098416 1 0
4.761218 53.577213 0.62619716 15 3201430100720 1 0
-0.15781747 17.332954 -1.2120885 23 3201430100720 1 0
0.7480964 18.734697 -1.5306284 13 3201430103024 1 0
-3.0732334 53.084602 1.5475 42 3201430103024 1 0
2.3440137 58.488132 1.0217336 100 3201430105328 1 0
-0.94676495 16.394995 -1.0524852 12 3201430105328 1 0
1.5391124 17.234093 -1.0076655 5 3201430107632 1 0
-0.20343111 23.467354 1.3667321 21 3201430107632 1 0
-0.15804814 18.543219 -0.8638038 46 3201430109936 1 0
0.94048315 23.297682 0.9499451 25 3201430109936 1 0
0.77098745 19.03025 -0.99815136 18 3201430112240 1 0
-0.20321953 24.256977 2.9784868 6 3201430112240 1 0
0.9455505 23.25536 1.9000232 19 3201430114544 1 0
-0.990604 17.329311 -0.70716685 49 3201430114544 1 0
1.5415125 17.14836 -0.6012485 4 3201430116848 1 0
-0.19158967 23.691454 6.3483133 17 3201430116848 1 0
1.0696015 26.119162 4.7661896 11 3201430119152 1 0
-0.14734814 18.554392 -0.4317639 61 3201430119152 1 0
0.17159511 4.06026 -1.8950202 1 3201430139888 1 0
-0.9661921 17.390528 -0.3040209 58 3201430139888 1 0
0.85250324 20.109415 -0.585767 42 3201430142192 1 0
-0.04625348 7.114341 -1.9916228 4 3201430142192 1 0
0.45477057 10.694351 -2.1408165 3 3201430144496 1 0
-0.16351566 25.667479 0 31 3201430144496 1 0
1.5290859 16.664862 -0.19482517 4 3201430146800 1 0
-0.088485025 14.181126 -2.2062964 7 3201430146800 1 0
0.7461653 17.439209 -2.2218156 4 3201430149104 1 0
-2.8525255 51.83269 0.30170807 34 3201430149104 1 0
2.2735415 52.97434 -0.3081709 16 3201430151408 1 0
-0.10022843 16.766708 -1.8060846 40 3201430151408 1 0
1.6672305 18.092354 -1.6960434 13 3201430153712 1 0
4.9423876 53.55679 0.6261506 100 3201430156016 1 0
-0.09978497 17.457087 -1.2207383 22 3201430156016 1 0
0.82838696 19.126383 -1.5628488 24 3201430158320 1 0
-2.8923519 53.06273 1.5465691 42 3201430158320 1 0
-0.13698898 23.429256 0.5451949 47 3201430153712 1 0
2.3257887 53.537342 0.93537915 22 3201430160624 1 0
-0.8957946 16.473816 -1.057346 14 3201430160624 1 0
1.527107 16.477348 -0.9637124 3 3201430162928 1 0
-0.12475674 23.435959 1.3648716 28 3201430162928 1 0
1.0138866 23.198591 0.9460372 21 3201430165232 1 0
-0.09682545 18.647528 -0.86864305 44 3201430165232 1 0
0.838988 19.13933 -1.004013 26 3201430167536 1 0
-0.13931742 27.524937 3.3796806 20 3201430167536 1 0
1.0235505 23.279991 1.9023014 16 3201430169840 1 0
-0.9385426 17.428268 -0.71107477 54 3201430169840 1 0
1.5307214 16.422764 -0.5759813 4 3201430172144 1 0
-0.11376973 23.703547 6.3514194 14 3201430172144 1 0
0.9059035 20.48199 3.7380471 13 3201430174448 1 0
-0.08713243 18.662745 -0.4342763 61 3201430174448 1 0
0.18500774 4.074187 -1.9017822 1 3201430195184 1 0
-0.91594905 17.477348 -0.30548692 58 3201430195184 1 0
0.9216076 20.230444 -0.58937424 42 3201430197488 1 0
-0.023773683 7.1067476 -1.9894662 6 3201430197488 1 0
0.4886766 10.692856 -2.1408165 3 3201430199792 1 0
-0.08193958 25.607868 0 25 3201430199792 1 0
1.5205218 16.010872 -0.18723518 12 3201430202096 1 0
-0.04332663 14.185288 -2.2069113 10 3201430202096 1 0
-2.6895568 51.897476 0.30203354 23 3201430204400 1 0
0.8017805 17.432768 -2.2213106 4 3201430204400 1 0
-0.0465873 16.858414 -1.8159375 38 3201430206704 1 0
1.119586 24.265776 -0.141183 11 3201430206704 1 0
-0.061150186 23.357597 0.54352003 28 3201430209008 1 0
1.5293205 16.029207 -1.5030915 35 3201430209008 1 0
5.033888 52.680454 0.6160927 45 3201430211312 1 0
-0.043400962 17.553083 -1.2274349 22 3201430211312 1 0
-2.7186427 53.0559 1.5461037 42 3201430213616 1 0
0 0 0 87 3201430215920 1 0
0.8812355 18.920479 -1.5462505 24 3201430213616 1 0
-0.8392314 16.424833 -1.0540203 16 3201430215920 1 0
1.433208 14.929954 -0.8734807 3 3201430218224 1 0
-0.04809538 23.61993 1.3755692 24 3201430218224 1 0
1.0964789 23.32287 0.95124775 19 3201430220528 1 0
-0.03544002 18.743643 -0.87311 42 3201430220528 1 0
0.8986883 19.05664 -0.99982613 34 3201430222832 1 0
-0.04190826 24.01164 2.9482632 21 3201430222832 1 0
1.1033432 23.32424 1.9062068 9 3201430225136 1 0
-0.8839173 17.499155 -0.71384287 49 3201430225136 1 0
1.5418395 15.96394 -0.5600671 6 3201430227440 1 0
-0.02919906 20.07578 5.379295 20 3201430227440 1 0
0.973029 20.443455 3.7315898 20 3201430229744 1 0
-0.02455013 18.754908 -0.4364165 65 3201430229744 1 0
0.19887398 4.066274 -1.8984013 1 3201430250480 1 0
-0.8592343 17.568321 -0.30702272 53 3201430250480 1 0
0.9988799 20.362883 -0.59333056 44 3201430252784 1 0
0.0010342005 7.110639 -1.9905444 6 3201430252784 1 0
0.5261914 10.695002 -2.1416008 3 3201430255088 1 0
0.014851588 51.055996 0 29 3201430255088 1 0
1.5701282 15.941779 -0.18649015 6 3201430257392 1 0
0.006177456 14.157686 -2.202607 9 3201430257392 1 0
0.86243117 17.4259 -2.2208054 6 3201430259696 1 0
0 0 0 12 3201430259696 1 0
1.2026961 24.22976 -0.14099702 24 3201430262000 1 0
0.012320566 16.941992 -1.8249336 41 3201430262000 1 0
1.5825188 15.996028 -1.500489 47 3201430264304 1 0
0.020516025 23.509626 0.547056 30 3201430264304 1 0
5.2177463 52.66256 0.6160927 27 3201430266608 1 0
0.017940061 17.620962 -1.2321783 22 3201430266608 1 0
0.9516614 19.004887 -1.5534105 19 3201430268912 1 0
-2.532473 53.045097 1.5455219 42 3201430268912 1 0
1.2214417 24.32164 0.42507082 20 3201430271216 1 0
-0.786068 16.515383 -1.0596485 13 3201430271216 1 0
1.4825463 14.897045 -0.87185276 4 3201430273520 1 0
0.03400538 23.38036 1.3616159 28 3201430273520 1 0
1.221435 24.181086 0.98641884 33 3201430275824 1 0
0.030153923 18.847538 -0.87794924 44 3201430275824 1 0
0.96985114 19.145144 -1.004641 21 3201430278128 1 0
0.041991413 24.059282 2.9541128 25 3201430278128 1 0
1.2059927 23.738316 1.94038 13 3201430280432 1 0
-0.8271453 17.593956 -0.71758795 49 3201430280432 1 0
1.5939709 15.922661 -0.5588108 6 3201430282736 1 0
0.046739835 22.954214 6.1505756 13 3201430282736 1 0
1.0915731 21.363485 3.9001966 12 3201430285040 1 0
0.04113497 18.85485 -0.43874282 65 3201430285040 1 0
0.21306673 4.065555 -1.8984013 1 3201430305776 1 0
-0.8013512 17.647123 -0.3083491 52 3201430305776 1 0
1.0724101 20.403185 -0.5946105 91 3201430308080 1 0
0.025864564 7.099036 -1.9873096 5 3201430308080 1 0
0.56223094 10.665674 -2.1361096 4 3201430310384 1 0
0.20093422 52.931618 0 100 3201430310384 1 0
1.6269256 15.944124 -0.18658328 9 3201430312688 1 0
0.055796582 14.1299095 -2.1983025 6 3201430312688 1 0
0.9237605 17.422756 -2.2208054 6 3201430314992 1 0
-2.3763306 53.045902 0.3086126 47 3201430314992 1 0
1.289634 24.253326 -0.14115976 13 3201430317296 1 0
0.0724304 17.025358 -1.8339299 38 3201430317296 1 0
0 0 0 5 3201430319600 1 0
0.10337651 23.457422 0.54584634 26 3201430319600 1 0
5.4054465 52.65569 0.6162324 27 3201430321904 1 0
0.08127349 17.82429 -1.2464087 17 3201430321904 1 0
1.0385302 19.363663 -1.5830272 33 3201430324208 1 0
-2.3438563 53.04576 1.5452892 51 3201430324208 1 0
1.3068502 24.297174 0.42472178 20 3201430326512 1 0
-0.74278545 16.869013 -1.0821615 18 3201430326512 1 0
1.5348015 14.883723 -0.87138766 4 3201430328816 1 0
0.11896116 23.707531 1.3806854 21 3201430328816 1 0
1.3075534 24.172579 0.986256 27 3201430331120 1 0
0.09792677 18.93921 -0.8822301 42 3201430331120 1 0
1.0428883 19.225311 -1.0090373 18 3201430333424 1 0
0.12841141 24.1225 2.9619126 15 3201430333424 1 0
1.3413316 24.657396 2.015886 18 3201430335728 1 0
-0.7677032 17.68066 -0.72100735 42 3201430335728 1 0
1.652812 15.932736 -0.55936915 6 3201430338032 1 0
0.109454975 19.445711 5.210545 13 3201430338032 1 0
1.0878626 19.885946 3.6311433 29 3201430340336 1 0
0.10956201 18.950554 -0.44097608 61 3201430340336 1 0
0.2277633 4.0611277 -1.8967108 1 3201430361072 1 0
-0.7405018 17.741848 -0.30995473 53 3201430361072 1 0
1.1469598 20.395126 -0.59449416 81 3201430363376 1 0
0.05185551 7.0950418 -1.9862313 5 3201430363376 1 0
0.60109794 10.659625 -2.135325 3 3201430365680 1 0
0.39475787 52.90653 0 61 3201430365680 1 0
1.6748377 15.838614 -0.18541917 45 3201430367984 1 0
0.10755482 14.125658 -2.1976876 7 3201430367984 1 0
0.9876119 17.419254 -2.2208054 4 3201430370288 1 0
-2.1809053 53.030277 0.30847314 35 3201430370288 1 0
3.0094924 52.93763 -0.3081709 97 3201430372592 1 0
0.13561834 17.124401 -1.8446395 40 3201430372592 1 0
1.5802858 14.879265 -1.3967634 2 3201430374896 1 0
0.18922244 23.440891 0.5454741 33 3201430374896 1 0
2.247568 21.131369 0.2473963 5 3201430377200 1 0
0.14738989 17.919634 -1.2531053 27 3201430377200 1 0
1.1136005 19.43137 -1.5888854 21 3201430379504 1 0
0 0 0 73 3201430379504 1 0
1.4000249 24.364092 0.42597833 20 3201430381808 1 0
-0.67564005 16.74 -1.0737191 21 3201430381808 1 0
1.6326075 15.283003 -0.89510834 3 3201430384112 1 0
0.20668496 23.80277 1.3862668 24 3201430384112 1 0
1.4025955 24.279345 0.9908152 30 3201430386416 1 0
0.1682244 19.038612 -0.8868832 44 3201430386416 1 0
1.1253568 19.428728 -1.0199231 53 3201430388720 1 0
0.21636002 24.070257 2.9555752 18 3201430388720 1 0
1.4286916 24.600574 2.0116553 7 3201430391024 1 0
-0.7062287 17.76722 -0.72442675 45 3201430391024 1 0
0.18438897 19.83926 5.316143 12 3201430393328 1 0
1.6936882 15.76361 -0.5536456 48 3201430393328 1 0
0.1800007 19.053991 -0.44339547 60 3201430395632 1 0
1.1589062 19.850399 3.6254034 21 3201430395632 1 0
0.24264655 4.0602655 -1.8967108 1 3201430416368 1 0
-0.6788166 17.832367 -0.31149054 47 3201430416368 1 0
0.07774719 7.0986576 -1.9873096 4 3201430418672 1 0
1.2210201 20.38682 -0.5943778 78 3201430418672 1 0
0.63922834 10.649548 -2.1337562 3 3201430420976 1 0
0.5862703 52.89675 0 92 3201430420976 1 0
1.7261877 15.780795 -0.18481384 66 3201430423280 1 0
0.15835841 14.121227 -2.1970727 6 3201430423280 1 0
1.0499302 17.415607 -2.2208054 6 3201430425584 1 0
-1.9937046 53.10569 0.30886835 36 3201430425584 1 0
3.1972425 52.918606 -0.30812442 100 3201430427888 1 0
0.19747196 17.207321 -1.8536357 35 3201430427888 1 0
0 0 0 32 3201430430192 1 0
0.2963416 25.531368 0.5941406 25 3201430430192 1 0
2.3169703 21.07961 0.2468841 5 3201430432496 1 0
0.21496767 18.314014 -1.2807288 20 3201430432496 1 0
-0.87295026 23.581858 0.6867693 36 3201430434800 1 0
1.1833578 19.4592 -1.5914891 7 3201430434800 1 0
1.4857479 24.379047 0.42632738 8 3201430437104 1 0
-0.6169791 16.726286 -1.0726959 20 3201430437104 1 0
1.6410558 14.8764 -0.8716202 4 3201430439408 1 0
0.2812246 23.18301 1.3502207 23 3201430439408 1 0
0.23465924 19.137808 -0.89153636 40 3201430441712 1 0
1.4852606 24.26642 0.99048954 27 3201430441712 1 0
1.2484552 20.353762 -1.0687002 41 3201430444016 1 0
0.29680324 23.950285 2.940951 21 3201430444016 1 0
1.5064908 24.508059 2.0044951 18 3201430446320 1 0
-0.6490482 17.849386 -0.72768337 40 3201430446320 1 0
0.24879406 19.660812 5.2685204 16 3201430448624 1 0
0 0 0 32 3201430448624 1 0
0.24487877 19.15325 -0.44572178 58 3201430450928 1 0
1.2210373 19.77965 3.6132064 21 3201430450928 1 0
0.2560839 4.0703373 -1.9017822 1 3201430471664 1 0
-0.62572247 17.918346 -0.31295654 47 3201430471664 1 0
1.2856091 20.386856 -0.59449416 76 3201430473968 1 0
0.6715069 10.6239805 -2.1290493 3 3201430476272 1 0
0.10009676 7.0945253 -1.9862313 5 3201430473968 1 0
0.36282536 25.453415 0 15 3201430476272 1 0
0 0 0 12 3201430478576 1 0
0.20356447 14.136459 -2.1995323 6 3201430478576 1 0
1.1051477 17.40424 -2.2197955 4 3201430480880 1 0
-1.8258277 53.171764 0.30921707 24 3201430480880 1 0
3.3678308 52.91604 -0.3081709 97 3201430483184 1 0
0.25424108 17.306011 -1.8643454 36 3201430483184 1 0
1.6424032 14.527894 -1.3647907 28 3201430485488 1 0
0.3480478 23.459066 0.5459394 9 3201430485488 1 0
2.3817286 21.04019 0.24651158 11 3201430487792 1 0
0.27269247 18.201506 -1.2729161 24 3201430487792 1 0
1.2656155 19.749655 -1.6155729 12 3201430490096 1 0
-0.7985453 23.656504 0.6888639 22 3201430490096 1 0
0 0 0 92 3201430492400 1 0
-0.5638483 16.77609 -1.0757658 17 3201430492400 1 0
0 0 0 73 3201430494704 1 0
0.353548 22.930418 1.3355696 20 3201430494704 1 0
1.5543045 24.089884 0.9834879 20 3201430497008 1 0
0.2995839 19.248795 -0.8967478 40 3201430497008 1 0
1.2620687 19.516396 -1.0249474 15 3201430499312 1 0
0.37653542 23.969017 2.9433885 18 3201430499312 1 0
1.5829536 24.423338 1.997986 7 3201430501616 1 0
-0.59249675 17.939327 -0.7312656 42 3201430501616 1 0
1.7113276 14.981383 -0.5265636 36 3201430503920 1 0
0.31425312 19.640554 5.2633443 15 3201430503920 1 0
1.3692951 21.032017 3.8427985 9 3201430506224 1 0
0.3109706 19.260275 -0.44823417 55 3201430506224 1 0
0.2695697 4.0585666 -1.8967108 1 3201430526960 1 0
-0.56631255 18.020357 -0.3147018 47 3201430526960 1 0
1.3567647 20.382244 -0.59449416 76 3201430529264 1 0
0.124725096 7.08643 -1.9840747 6 3201430529264 1 0
0.7080652 10.613745 -2.1274803 3 3201430531568 1 0
0.45500788 25.639963 0 31 3201430531568 1 0
1.7821239 15.343806 -0.17983146 16 3201430533872 1 0
0.2532622 14.155422 -2.202607 6 3201430533872 1 0
1.1658932 17.400276 -2.2197955 6 3201430536176 1 0
-1.6367596 53.06587 0.30856612 71 3201430536176 1 0
3.5525217 52.90396 -0.3081709 100 3201430538480 1 0
0.3162394 17.392498 -1.87377 35 3201430538480 1 0
0.4299331 23.45771 0.5459394 57 3201430540784 1 0
1.6912602 14.506249 -1.3633035 79 3201430540784 1 0
2.4556217 21.03572 0.24655814 11 3201430543088 1 0
0.338437 18.320131 -1.281287 23 3201430543088 1 0
1.3404615 19.832626 -1.622733 19 3201430545392 1 0
-0.71620566 23.667141 0.68909657 30 3201430545392 1 0
-0.5057661 16.793917 -1.0767891 18 3201430547696 1 0
1.6986243 14.496089 -0.8499925 3 3201430550000 1 0
0.4446107 23.511951 1.3695228 28 3201430550000 1 0
0 0 0 87 3201430547696 1 0
1.6226516 23.853039 0.9740438 23 3201430552304 1 0
0.36867607 19.347506 -0.9014009 38 3201430552304 1 0
1.3339896 19.567665 -1.0278782 39 3201430554608 1 0
0.46477365 24.205725 2.972637 19 3201430554608 1 0
1.4149379 20.710665 1.6946592 7 3201430556912 1 0
-0.53282285 18.04116 -0.7353363 45 3201430556912 1 0
0 0 0 10 3201430559216 1 0
0.38393897 19.69728 5.2788734 9 3201430559216 1 0
1.3640485 19.880747 3.6332958 6 3201430561520 1 0
0.28904566 4.1335454 -1.9322107 1 3201430582256 1 0
0.38024095 19.363024 -0.45065355 55 3201430561520 1 0
-0.50552803 18.098183 -0.31602818 47 3201430582256 1 0
1.4281832 20.381372 -0.5946105 81 3201430584560 1 0
0.14929813 7.0782495 -1.9819181 6 3201430584560 1 0
0.745934 10.622947 -2.1298337 5 3201430586864 1 0
0.54977113 25.886162 0 9 3201430586864 1 0
1.8204628 15.210408 -0.17834139 27 3201430589168 1 0
0.3030948 14.17421 -2.2056816 8 3201430589168 1 0
1.2252289 17.376308 -2.21727 8 3201430591472 1 0
-1.4493281 52.991287 0.30810118 47 3201430591472 1 0
3.7371693 52.89124 -0.3081709 97 3201430593776 1 0
0.37936163 17.502619 -1.8857648 35 3201430593776 1 0
0 0 0 5 3201430596080 1 0
0.5096323 23.356117 0.5436131 28 3201430596080 1 0
2.5376325 21.098501 0.2473963 7 3201430598384 1 0
0.4029975 18.346764 -1.2832401 20 3201430598384 1 0
1.4444577 20.31696 -1.6627644 30 3201430600688 1 0
-0.6323037 23.621534 0.6877002 30 3201430600688 1 0
3.8123338 53.5122 0.93642634 32 3201430602992 1 0
-0.45245302 16.9951 -1.0895807 17 3201430602992 1 0
1.8980535 15.723016 -0.92231745 3 3201430605296 1 0
0.52775323 23.558163 1.3723135 24 3201430605296 1 0
1.7064748 23.855202 0.97436947 20 3201430607600 1 0
0.43882123 19.461945 -0.90679854 38 3201430607600 1 0
0 0 0 46 3201430609904 1 0
0.5488142 24.184109 2.9701996 19 3201430609904 1 0
-0.47192502 18.122818 -0.7385929 40 3201430612208 1 0
1.4849379 20.673788 1.6920556 18 3201430612208 1 0
1.9078239 15.727049 -0.5532268 4 3201430614512 1 0
0.45562276 19.82329 5.3130374 20 3201430614512 1 0
1.4269265 19.785591 3.6167936 19 3201430616816 1 0
0.4503249 19.46952 -0.45316598 55 3201430616816 1 0
0.30267614 4.121665 -1.9271393 1 3201430637552 1 0
-0.44479334 18.199793 -0.3177734 39 3201430637552 1 0
1.4990255 20.372274 -0.59449416 78 3201430639856 1 0
0.17400493 7.0776854 -1.9819181 6 3201430639856 1 0
0.78156847 10.600719 -2.1259115 3 3201430642160 1 0
0.6418085 25.952065 0 6 3201430642160 1 0
1.8711001 15.184113 -0.17810857 42 3201430644464 1 0
0.3524719 14.169113 -2.2050664 7 3201430644464 1 0
-0.6115183 25.632273 0.14901747 9 3201430646768 1 0
3.9164462 52.80607 -0.30775246 48 3201430649072 1 0
1.2855831 17.36797 -2.216765 6 3201430646768 1 0
1.8008007 14.561282 -1.3696238 5 3201430651376 1 0
0.5935858 23.450138 0.54584634 28 3201430651376 1 0
6.60213 53.321182 0.62549865 64 3201430653680 1 0
0.44255608 17.584677 -1.894761 31 3201430649072 1 0
0.4653108 18.277431 -1.2784966 23 3201430653680 1 0
1.4670212 19.663757 -1.6097147 12 3201430655984 1 0
-0.5501244 23.63559 0.6880493 32 3201430655984 1 0
0 0 0 65 3201430658288 1 0
-0.39561853 17.104324 -1.096488 18 3201430658288 1 0
1.949971 15.692518 -0.9209221 4 3201430660592 1 0
0.6099833 23.556177 1.3723135 10 3201430660592 1 0
1.7780701 23.693666 0.9680191 29 3201430662896 1 0
0.5090417 19.54817 -0.91089326 38 3201430662896 1 0
1.5208807 20.227066 -1.0630479 30 3201430665200 1 0
0.63468415 24.23761 2.9770243 19 3201430665200 1 0
1.8691715 24.81092 2.0311828 7 3201430667504 1 0
-0.41091403 18.224245 -0.7426636 40 3201430667504 1 0
1.9661767 15.74806 -0.554204 6 3201430669808 1 0
0.52317995 19.75978 5.296473 11 3201430669808 1 0
1.4912342 19.717707 3.6053143 12 3201430672112 1 0
0.5207312 19.559772 -0.45530617 55 3201430672112 1 0
-0.3796629 18.277273 -0.3190998 40 3201430692296 1 0
1.5741513 20.374628 -0.59472686 73 3201430694600 1 0
0.31861705 4.1313715 -1.9322107 1 3201430692296 1 0
0.19989331 7.077001 -1.9819181 6 3201430694600 1 0
0.819052 10.582153 -2.1227736 4 3201430696904 1 0
0.6811631 23.998335 0 31 3201430696904 1 0
1.924898 15.165291 -0.17796887 48 3201430699208 1 0
0.40375477 14.155883 -2.2032218 7 3201430699208 1 0
1.3471898 17.3434 -2.2142396 8 3201430701512 1 0
-0.5209004 25.762299 0.1497614 31 3201430701512 1 0
3.9150238 50.31105 -0.2932924 19 3201430703816 1 0
0.5092269 17.682339 -1.9054707 27 3201430703816 1 0
1.8550327 14.566518 -1.3707391 18 3201430706120 1 0
0.6818622 23.563755 0.5485448 23 3201430706120 1 0
6.7088137 52.62248 0.61758274 27 3201430708424 1 0
0.53496253 18.399277 -1.2871464 22 3201430708424 1 0
1.5335857 19.602694 -1.6051583 14 3201430710728 1 0
-0.4638451 23.585451 0.6865366 30 3201430710728 1 0
3.9376085 50.24226 0.8796711 19 3201430713032 1 0
-0.33568165 17.189451 -1.1018605 18 3201430713032 1 0
2.0083597 15.701255 -0.9218523 4 3201430715336 1 0
0.6781247 22.995024 1.3397557 43 3201430715336 1 0
0.582554 19.662043 -0.9162909 38 3201430717640 1 0
1.8711528 23.790733 0.97225267 6 3201430717640 1 0
1.5970068 20.269281 -1.0655601 41 3201430719944 1 0
0.7267159 24.413763 2.9989607 13 3201430719944 1 0
1.9630834 24.871653 2.0367155 10 3201430722248 1 0
-0.3472798 18.30152 -0.7457574 40 3201430722248 1 0
2.02279 15.744919 -0.5543436 6 3201430724552 1 0
0.5921958 19.711449 5.2840495 13 3201430724552 1 0
1.58185 19.971186 3.6526675 25 3201430726856 1 0
0.59402424 19.681707 -0.4581908 52 3201430726856 1 0
-0.3209358 18.386398 -0.32098466 32 3201430747592 1 0
0.33231542 4.130292 -1.9322107 1 3201430747592 1 0
1.6415343 20.3653 -0.5946105 28 3201430749896 1 0
0.2232903 7.072448 -1.9808397 5 3201430749896 1 0
0.854293 10.579367 -2.1227736 4 3201430752200 1 0
0.7607092 23.983938 0 21 3201430752200 1 0
1.9765419 15.166714 -0.178062 52 3201430754504 1 0
0.45100394 14.154456 -2.2032218 6 3201430754504 1 0
1.4042379 17.326931 -2.2127244 6 3201430756808 1 0
-0.43505466 25.783894 0.14987764 15 3201430756808 1 0
1.5193993 18.714104 -0.10912449 3 3201430759112 1 0
0.5718269 17.783882 -1.9166088 26 3201430759112 1 0
1.9039621 14.560203 -1.3707391 18 3201430761416 1 0
0.7696762 23.829119 0.55477935 20 3201430761416 1 0
0.59898067 18.461182 -1.2916108 24 3201430763720 1 0
6.931645 52.94859 0.6216804 27 3201430763720 1 0
1.5945326 19.53383 -1.599951 8 3201430766024 1 0
-0.38289046 23.50293 0.684093 20 3201430766024 1 0
4.642066 56.765835 0.99415886 64 3201430768328 1 0
-0.27903458 17.282288 -1.1077446 14 3201430768328 1 0
2.0625975 15.702277 -0.92231745 4 3201430770632 1 0
1.9512842 23.776274 0.97192705 32 3201430772936 1 0
0.6527545 19.76378 -0.9211301 36 3201430772936 1 0
1.5301502 18.611578 -0.9786824 7 3201430775240 1 0
0.838497 25.276173 3.1052308 21 3201430775240 1 0
0.7599844 23.112326 1.3467323 16 3201430770632 1 0
2.0233572 24.566816 2.0123062 10 3201430777544 1 0
-0.28647462 18.4065 -0.74999094 39 3201430777544 1 0
2.0886207 15.829067 -0.55755436 4 3201430779848 1 0
0.6581432 19.666832 5.2726617 16 3201430779848 1 0
1.632742 19.753876 3.6139238 21 3201430782152 1 0
0.6650614 19.787468 -0.46070322 47 3201430782152 1 0
0.34612408 4.121882 -1.9288298 1 3201430802888 1 0
-0.2578701 18.467386 -0.32238084 43 3201430802888 1 0
0 0 0 9 3201430805192 1 0
0.24792495 7.071627 -1.9808397 5 3201430805192 1 0
0.8897457 10.5606985 -2.1196356 4 3201430807496 1 0
0.8450603 24.009132 0 21 3201430807496 1 0
2.0286102 15.155802 -0.17801544 56 3201430809800 1 0
0.50037986 14.1607065 -2.2044516 7 3201430809800 1 0
-0.34510222 25.733252 0.14957541 9 3201430812104 1 0
0 0 0 38 3201430814408 1 0
1.4622024 17.298243 -2.209694 6 3201430812104 1 0
0.6369342 17.885136 -1.9277469 31 3201430814408 1 0
1.94354 14.474608 -1.3633035 5 3201430816712 1 0
0.8708132 24.357841 0.56715536 21 3201430816712 1 0
7.119062 52.964073 0.62214607 18 3201430819016 1 0
0.66305137 18.474962 -1.292727 15 3201430819016 1 0
0 0 0 109 3201430821320 1 0
-0.30005595 23.33619 0.6792058 24 3201430821320 1 0
4.554252 53.438114 0.9361471 34 3201430823624 1 0
-0.22044688 17.33104 -1.1108146 19 3201430823624 1 0
2.1167884 15.699094 -0.92254996 3 3201430825928 1 0
0.8356441 23.01781 1.3413835 23 3201430825928 1 0
4.550606 53.221497 2.176211 17 3201430828232 1 0
0.72452366 19.881231 -0.9267139 38 3201430828232 1 0
1.525995 17.818232 -0.9372323 4 3201430830536 1 0
0.92524236 25.293009 3.1076682 21 3201430830536 1 0
2.110866 24.60747 2.0162117 7 3201430832840 1 0
-0.22508077 18.499283 -0.753736 39 3201430832840 1 0
2.170142 16.027891 -0.56481344 6 3201430835144 1 0
0.727918 19.749432 5.295438 20 3201430835144 1 0
1.6833361 19.560051 3.579485 20 3201430837448 1 0
0.7361099 19.896997 -0.4633087 52 3201430837448 1 0
0.3604215 4.1279345 -1.9322107 1 3201430858184 1 0
-0.19773568 18.572119 -0.3241959 39 3201430858184 1 0
1.5049133 17.207003 -0.5026844 4 3201430860488 1 0
0.27127764 7.066915 -1.9797615 5 3201430860488 1 0
0.9242303 10.549862 -2.1180668 4 3201430862792 1 0
2.0416403 52.98468 0 100 3201430862792 1 0
0.5476446 14.1589575 -2.2044516 8 3201430865096 1 0
2.0759249 15.12517 -0.17773606 50 3201430865096 1 0
1.5204079 17.297207 -2.2101989 4 3201430867400 1 0
-0.2569238 25.526276 0.14836653 30 3201430867400 1 0
0.7007618 17.98225 -1.9384565 28 3201430869704 1 0
0 0 0 110 3201430872008 1 0
1.526064 17.332655 -0.1011273 4 3201430869704 1 0
0.9456111 24.174965 0.562968 25 3201430872008 1 0
7.306092 53.0032 0.62289107 18 3201430874312 1 0
0.7235313 18.428766 -1.2896577 20 3201430874312 1 0
1.4842919 16.774439 -1.3747342 5 3201430876616 1 0
-0.2215006 23.35706 0.6797876 36 3201430876616 1 0
5.023405 56.67715 0.9931815 38 3201430878920 1 0
-0.16251042 17.403536 -1.1154195 21 3201430878920 1 0
2.169978 15.69183 -0.92254996 3 3201430881224 1 0
0 0 0 13 3201430883528 1 0
0.79633343 19.986452 -0.9317392 38 3201430883528 1 0
1.525318 17.124609 -0.9010158 7 3201430885832 1 0
0.9694384 24.242422 2.9789743 19 3201430885832 1 0
0.90999985 22.923075 1.3360347 33 3201430881224 1 0
1.8560872 20.803885 1.705074 10 3201430888136 1 0
-0.16282459 18.59586 -0.7576439 37 3201430888136 1 0
2.216663 15.960988 -0.56271946 6 3201430890440 1 0
0.79774857 19.804737 5.310967 5 3201430890440 1 0
1.7352375 19.385633 3.5486336 8 3201430892744 1 0
0.8086181 20.002243 -0.46582112 50 3201430892744 1 0
0.3758123 4.137482 -1.9372821 1 3201430913480 1 0
-0.13359255 18.668678 -0.32587132 43 3201430913480 1 0
1.4733157 16.194233 -0.47324482 6 3201430915784 1 0
0.29578292 7.0620766 -1.9786831 5 3201430915784 1 0
0.95962673 10.530947 -2.114929 4 3201430918088 1 0
2.2264109 52.973232 0 12 3201430918088 1 0
2.1298242 15.125753 -0.17782919 51 3201430920392 1 0
0.59789795 14.176704 -2.2075262 8 3201430920392 1 0
1.5786098 17.268085 -2.2071686 6 3201430922696 1 0
-0.1678452 25.531017 0.14838979 12 3201430922696 1 0
1.5329424 16.74168 -0.097709894 4 3201430925000 1 0
0.76808316 18.086977 -1.950023 26 3201430925000 1 0
0 0 0 144 3201430927304 1 0
2.4920692 58.48308 1.3621033 34 3201430927304 1 0
7.502823 53.06054 0.62386894 27 3201430929608 1 0
0.8045601 18.816816 -1.3170022 24 3201430929608 1 0
1.5037544 16.344368 -1.3399101 48 3201430931912 1 0
-0.13886578 23.173773 0.67443496 30 3201430931912 1 0
4.926519 53.46131 0.93712443 40 3201430934216 1 0
-0.102296576 17.495806 -1.1213036 21 3201430934216 1 0
