# .PCD v.7 - Point Cloud Data file format
VERSION .7
FIELDS x y z rgb timestamp_ns device_id active
SIZE 4 4 4 4 8 1 1
TYPE F F F F F U U
COUNT 1 1 1 1 1 1 1
WIDTH 956
HEIGHT 1
VIEWPOINT 0 0 0 1 0 0 0
POINTS 956               
DATA ascii
-7.1973686 14.772058 -0.9569683 8 3203921413408 1 0
-11.920865 19.394783 1.3258022 10 3203921413408 1 0
-10.267544 18.701069 0.8691819 30 3203921415712 1 0
-11.2329235 18.281488 -0.99948853 54 3203921415712 1 0
-9.857576 17.960556 -1.0737245 5 3203921418016 1 0
-11.848525 19.289665 2.779596 16 3203921418016 1 0
-10.836797 19.751509 1.8391626 12 3203921420320 1 0
-12.536724 18.342598 -0.9051671 33 3203921420320 1 0
-10.059454 20.676815 -0.8029676 37 3203921422624 1 0
-12.125601 19.753632 6.210622 8 3203921422624 1 0
-11.209205 20.444372 4.251042 9 3203921424928 1 0
-19.396673 31.609137 -0.86296946 16 3203921424928 1 0
-1.982119 3.6264224 -1.9271393 3 3203921445664 1 0
-12.495568 18.345318 -0.38744342 20 3203921445664 1 0
-9.905768 18.129547 -0.60124314 13 3203921447968 1 0
-3.8528824 6.2992544 -2.0671039 4 3203921447968 1 0
-5.565355 10.1892395 -2.3220286 27 3203921450272 1 0
-10.821212 17.697878 0 35 3203921450272 1 0
-9.105463 18.806227 -0.24325207 30 3203921452576 1 0
-8.661695 14.170661 -2.583851 7 3203921452576 1 0
-9.153619 16.77035 -2.431926 22 3203921454880 1 0
-12.457336 18.312075 0.12872227 17 3203921454880 1 0
-9.277294 15.187718 -1.9170371 2 3203921457184 1 0
-10.274751 18.830887 -0.124677174 40 3203921457184 1 0
-7.052236 14.581756 -1.5120142 31 3203921459488 1 0
-10.939284 17.914394 0.48843288 24 3203921459488 1 0
-8.941319 18.494635 0.23915441 13 3203921461792 1 0
-9.395277 15.390927 -1.260918 55 3203921461792 1 0
-8.683361 15.93082 -1.4811589 45 3203921464096 1 0
-12.333768 18.153131 0.63871175 113 3203921464096 1 0
-10.055739 18.455025 0.36684957 34 3203921466400 1 0
-10.644642 15.671938 -1.21417 1 3203921466400 1 0
-7.1127667 14.728769 -0.9525497 1 3203921468704 1 0
-12.776224 20.949995 1.4290571 7 3203921468704 1 0
-10.160155 18.659573 0.86559963 49 3203921471008 1 0
-11.102485 18.211414 -0.99353254 49 3203921471008 1 0
-12.2336035 20.073359 2.8863535 18 3203921473312 1 0
-9.739442 17.89311 -1.0676535 19 3203921473312 1 0
-10.798272 19.845247 1.8443699 9 3203921475616 1 0
0 0 0 3 3203921475616 1 0
-9.999372 20.73701 -0.8039448 18 3203921477920 1 0
0 0 0 77 3203921477920 1 0
-19.96625 32.793568 -0.8933976 5 3203921480224 1 0
-11.265598 20.718458 4.2998304 27 3203921480224 1 0
-1.9694482 3.6333191 -1.9271393 3 3203921500960 1 0
-9.991004 18.438215 -0.6103194 8 3203921503264 1 0
-3.8308704 6.312665 -2.0671039 4 3203921503264 1 0
-5.527886 10.205155 -2.3212442 22 3203921505568 1 0
-10.931568 18.019394 0 36 3203921505568 1 0
-8.99477 18.74414 -0.2420414 28 3203921507872 1 0
-8.614226 14.204189 -2.584466 8 3203921507872 1 0
0 0 0 15 3203921510176 1 0
0 0 0 14 3203921500960 1 0
-12.386624 18.345503 0.12865253 4 3203921510176 1 0
-10.207052 18.86312 -0.12465393 38 3203921512480 1 0
0 0 0 100 3203921512480 1 0
-6.982357 14.566778 -1.5079246 28 3203921514784 1 0
-10.791727 17.812243 0.48461774 24 3203921514784 1 0
0 0 0 21 3203921517088 1 0
-9.32289 15.392912 -1.2584068 60 3203921517088 1 0
-8.661823 16.024162 -1.4870172 40 3203921519392 1 0
-12.303858 18.245798 0.6404572 200 3203921519392 1 0
-10.476074 15.540193 -1.2011226 1 3203921521696 1 0
-10.063507 18.623718 0.36950234 36 3203921521696 1 0
-7.131993 14.901187 -0.96208453 1 3203921524000 1 0
-11.849258 19.583445 1.3330115 16 3203921524000 1 0
-10.16902 18.832077 0.87195 35 3203921526304 1 0
-11.003692 18.191938 -0.9903684 47 3203921526304 1 0
-12.479437 23.118797 -1.3768543 68 3203921528608 1 0
-11.836828 19.575756 2.8088446 31 3203921528608 1 0
-10.630486 19.700377 1.8274461 24 3203921530912 1 0
-12.517738 18.592123 -0.9131457 4 3203921530912 1 0
-12.148805 25.421003 -0.9838866 27 3203921533216 1 0
0 0 0 77 3203921533216 1 0
-10.029623 18.599802 3.8528433 14 3203921535520 1 0
0 0 0 9 3203921535520 1 0
-1.9567536 3.6401715 -1.9271393 3 3203921556256 1 0
-12.380561 18.452032 -0.3878623 2 3203921556256 1 0
-9.886837 18.399015 -0.6078758 35 3203921558560 1 0
-3.8088117 6.325999 -2.0671039 4 3203921558560 1 0
-5.4903736 10.220934 -2.3204598 13 3203921560864 1 0
-10.577756 17.57422 0 30 3203921560864 1 0
-8.929286 18.775423 -0.2420414 27 3203921563168 1 0
-8.568667 14.240945 -2.5856957 8 3203921563168 1 0
-8.993154 16.753433 -2.4203093 3 3203921565472 1 0
-12.326965 18.395273 0.12869902 4 3203921565472 1 0
-10.097646 18.817568 -0.12411923 36 3203921567776 1 0
-9.13415 15.190765 -1.9093262 86 3203921567776 1 0
-6.9109597 14.547894 -1.5034633 25 3203921570080 1 0
-10.762448 17.904642 0.48610657 31 3203921570080 1 0
-8.611246 18.13388 0.23370638 11 3203921572384 1 0
-9.246495 15.387738 -1.2553375 60 3203921572384 1 0
-8.643506 16.124575 -1.4935262 32 3203921574688 1 0
-9.968213 18.602331 0.3683854 31 3203921576992 1 0
-12.264555 18.325186 0.64173716 212 3203921574688 1 0
0 0 0 4 3203921576992 1 0
-7.0679545 14.900736 -0.9604566 1 3203921579296 1 0
-11.786993 19.634958 1.3337091 20 3203921579296 1 0
-9.901345 18.490463 0.85452724 23 3203921581600 1 0
-10.89489 18.154863 -0.9862737 42 3203921581600 1 0
-12.372269 23.112915 -1.3739235 42 3203921583904 1 0
-11.486569 19.147127 2.7415729 19 3203921583904 1 0
-10.542845 19.702211 1.8241915 18 3203921586208 1 0
0 0 0 28 3203921586208 1 0
-12.316664 26.00518 -1.0048263 8 3203921588512 1 0
-10.718127 17.877987 5.585315 4 3203921588512 1 0
-9.968348 18.64164 3.854278 26 3203921590816 1 0
-10.813007 18.042198 -0.48945647 48 3203921590816 1 0
-1.9440352 3.6469798 -1.9271393 4 3203921611552 1 0
-18.17264 27.289978 -0.5722993 4 3203921611552 1 0
-9.484103 17.798265 -0.58693063 31 3203921613856 1 0
-3.7867067 6.3392553 -2.0671039 4 3203921613856 1 0
0 0 0 18 3203921616160 1 0
-11.498664 19.256062 0 11 3203921616160 1 0
-8.96089 19.012705 -0.24469557 24 3203921618464 1 0
-8.518905 14.270768 -2.5856957 8 3203921618464 1 0
-8.966314 16.844269 -2.4288955 3 3203921620768 1 0
-21.716637 32.653183 0.22792001 5 3203921620768 1 0
-10.022504 18.835045 -0.12400299 31 3203921623072 1 0
-9.060694 15.188403 -1.9050423 73 3203921623072 1 0
-6.8448687 14.539498 -1.5001173 33 3203921625376 1 0
-10.746993 18.021095 0.4882468 19 3203921625376 1 0
-8.522347 18.109543 0.23300792 9 3203921627680 1 0
-9.168206 15.378792 -1.2519892 61 3203921627680 1 0
-8.633949 16.242657 -1.5016627 34 3203921629984 1 0
-12.231485 18.414513 0.6433663 209 3203921629984 1 0
-9.905094 18.640545 0.3684552 34 3203921632288 1 0
0 0 0 4 3203921632288 1 0
-6.9224663 14.726554 -0.94766605 1 3203921634592 1 0
-11.718383 19.675983 1.3337091 6 3203921634592 1 0
-9.97732 18.789654 0.8667394 44 3203921636896 1 0
-10.79057 18.124117 -0.9825512 49 3203921636896 1 0
-12.312116 23.19477 -1.3762263 46 3203921639200 1 0
-11.33032 19.036995 2.7201238 28 3203921639200 1 0
-10.49643 19.781153 1.828097 9 3203921641504 1 0
-12.551097 18.925537 -0.9251951 42 3203921641504 1 0
-12.288658 26.18191 -1.0099914 12 3203921643808 1 0
-10.616154 17.848877 5.5646095 25 3203921643808 1 0
-9.914276 18.697182 3.858583 16 3203921646112 1 0
-10.794924 18.15545 -0.49150363 36 3203921646112 1 0
-1.9312929 3.6537435 -1.9271393 4 3203921667296 1 0
-24.939487 37.736668 -0.78954685 7 3203921667296 1 0
-9.466748 17.916107 -0.5897233 15 3203921669600 1 0
-3.7665193 6.3557487 -2.0681822 4 3203921669600 1 0
-5.4427 10.304102 -2.330658 1 3203921671904 1 0
-11.447688 19.323614 0 15 3203921671904 1 0
-8.469039 14.300418 -2.5856957 8 3203921674208 1 0
-9.029875 19.333786 -0.24842072 19 3203921674208 1 0
0 0 0 17 3203921676512 1 0
-21.545233 32.641994 0.22731557 5 3203921676512 1 0
-9.999629 18.951283 -0.124537684 31 3203921678816 1 0
-8.991417 15.192558 -1.9016151 68 3203921678816 1 0
-6.7705016 14.5127735 -1.4949124 22 3203921681120 1 0
0 0 0 1 3203921681120 1 0
-8.590938 18.421926 0.23663993 21 3203921683424 1 0
-9.110406 15.4038315 -1.2514311 15 3203921683424 1 0
-8.6236725 16.360865 -1.5097991 30 3203921685728 1 0
-12.208943 18.520523 0.64557713 198 3203921685728 1 0
-9.830645 18.657314 0.36810616 31 3203921688032 1 0
0 0 0 4 3203921688032 1 0
-6.882822 14.775967 -0.9492939 1 3203921690336 1 0
-11.296179 19.11856 1.2932444 9 3203921690336 1 0
-9.876292 18.757175 0.8636457 27 3203921692640 1 0
-10.717079 18.144472 -0.9816206 66 3203921692640 1 0
-9.25796 17.589039 -1.0416949 23 3203921694944 1 0
-11.281967 19.107197 2.7245111 23 3203921694944 1 0
-10.605531 20.156376 1.8593409 12 3203921697248 1 0
-12.51572 19.015972 -0.9274747 45 3203921697248 1 0
-12.273055 26.387756 -1.0162734 4 3203921699552 1 0
-10.516479 17.822601 5.544939 21 3203921699552 1 0
-9.993627 19.006834 3.9152634 17 3203921701856 1 0
-1.9202101 3.6636736 -1.9288298 3 3203921722592 1 0
-10.800562 18.31013 -0.4946674 34 3203921701856 1 0
-24.86464 37.910446 -0.7913619 23 3203921722592 1 0
-9.398585 17.938417 -0.58937424 44 3203921724896 1 0
-3.7423584 6.3655367 -2.0671039 4 3203921724896 1 0
-5.383041 10.277867 -2.3204598 2 3203921727200 1 0
-10.93631 18.608229 0 34 3203921727200 1 0
-8.965692 19.372448 -0.24851385 9 3203921729504 1 0
-8.419069 14.329893 -2.5856957 8 3203921729504 1 0
-9.1797 17.539259 -2.5198088 26 3203921731808 1 0
-21.363216 32.613277 0.2265949 5 3203921731808 1 0
-10.013149 19.138472 -0.12553734 44 3203921734112 1 0
0 0 0 6 3203921734112 1 0
-6.696405 14.485707 -1.4897075 18 3203921736416 1 0
-10.880017 18.537127 0.50015754 16 3203921736416 1 0
-8.524903 18.448172 0.23659338 13 3203921738720 1 0
0 0 0 1 3203921738720 1 0
-12.16611 18.596487 0.64674073 128 3203921741024 1 0
-9.758051 18.677338 0.3678269 38 3203921743328 1 0
-10.203455 15.601427 -1.1947268 1 3203921743328 1 0
-8.627449 16.507465 -1.5205393 27 3203921741024 1 0
-6.822835 14.781774 -0.94813114 1 3203921745632 1 0
-11.740259 20.029472 1.3520811 43 3203921745632 1 0
-9.827404 18.823421 0.8651111 33 3203921747936 1 0
-10.665798 18.202456 -0.9827373 42 3203921747936 1 0
-9.165088 17.561047 -1.038136 70 3203921750240 1 0
-11.267375 19.23553 2.7371855 19 3203921750240 1 0
-10.789587 20.68105 1.9042541 29 3203921752544 1 0
-12.567289 19.240234 -0.93626744 47 3203921752544 1 0
-12.271222 26.626488 -1.0238116 12 3203921754848 1 0
-10.721608 18.31602 5.686772 15 3203921754848 1 0
-10.833527 18.513388 -0.49913394 24 3203921757152 1 0
-9.889017 18.968325 3.9001966 17 3203921757152 1 0
-1.9057381 3.6671374 -1.9271393 4 3203921777888 1 0
-24.655794 37.879692 -0.78891855 15 3203921777888 1 0
-9.406217 18.105806 -0.59379596 31 3203921780192 1 0
-3.7221491 6.3818345 -2.0681822 4 3203921780192 1 0
-5.347431 10.29644 -2.3204598 2 3203921782496 1 0
0 0 0 77 3203921782496 1 0
-8.938879 19.490492 -0.24963139 37 3203921784800 1 0
-8.369624 14.358829 -2.5856957 9 3203921784800 1 0
-9.093852 17.521358 -2.5127378 31 3203921787104 1 0
-21.170475 32.562336 0.22573473 5 3203921787104 1 0
-9.8721485 19.027014 -0.12458418 38 3203921789408 1 0
-8.870229 15.226822 -1.8981881 5 3203921789408 1 0
-6.628818 14.468586 -1.485618 27 3203921791712 1 0
0 0 0 1 3203921791712 1 0
-8.435688 18.418772 0.23584835 14 3203921794016 1 0
-9.03835 15.524765 -1.2561746 1 3203921794016 1 0
-9.045051 17.44967 -1.6045074 40 3203921796320 1 0
-12.138133 18.691086 0.64860255 107 3203921796320 1 0
-9.88109 19.068663 0.3748777 34 3203921798624 1 0
-9.935789 15.304158 -1.1693996 1 3203921798624 1 0
-11.131092 19.136654 1.2892909 12 3203921800928 1 0
-6.6720057 14.58301 -0.93394524 7 3203921800928 1 0
-9.775682 18.877344 0.8660881 24 3203921803232 1 0
-9.068238 17.516848 -1.0337398 52 3203921805536 1 0
-11.141672 19.166386 2.7220736 23 3203921805536 1 0
-10.701093 20.677612 1.9006741 16 3203921807840 1 0
-12.595029 19.422462 -0.9431063 17 3203921807840 1 0
-10.574985 18.186066 -0.9799455 30 3203921803232 1 0
-12.389629 27.117548 -1.0411218 24 3203921810144 1 0
-10.620586 18.281004 5.6650314 18 3203921810144 1 0
-9.797966 18.94466 3.888717 27 3203921812448 1 0
-10.471628 18.03004 -0.48517606 46 3203921812448 1 0
-24.493246 37.88979 -0.7875224 15 3203921833184 1 0
-1.8925465 3.6698842 -1.9254488 4 3203921833184 1 0
-9.380171 18.19582 -0.5957741 23 3203921835488 1 0
-3.7000585 6.390217 -2.0671039 4 3203921835488 1 0
-5.320148 10.323803 -2.3228133 1 3203921837792 1 0
-8.883375 19.533428 -0.24981764 22 3203921840096 1 0
-8.319886 14.378573 -2.584466 9 3203921840096 1 0
0 0 0 15 3203921842400 1 0
-10.520097 18.174915 0 26 3203921837792 1 0
-21.031462 32.57614 0.22536276 5 3203921842400 1 0
-9.768832 18.97685 -0.124049485 38 3203921844704 1 0
0 0 0 4 3203921844704 1 0
-6.560653 14.442774 -1.4807849 25 3203921847008 1 0
-19.868626 34.371895 0.9238258 6 3203921847008 1 0
-8.246918 18.16197 0.23221633 24 3203921849312 1 0
-8.9979315 15.571273 -1.2575697 1 3203921849312 1 0
-8.971744 17.447138 -1.6015782 49 3203921851616 1 0
0 0 0 6 3203921851616 1 0
-9.829605 19.122238 0.37529656 29 3203921853920 1 0
-9.93972 15.420471 -1.1757954 1 3203921853920 1 0
-6.6141386 14.583042 -0.9325499 36 3203921856224 1 0
-11.070126 19.176596 1.2895235 6 3203921856224 1 0
-9.726088 18.9344 0.8672279 22 3203921858528 1 0
-10.466953 18.137823 -0.9754785 20 3203921858528 1 0
-8.979081 17.486414 -1.0301809 52 3203921860832 1 0
-11.121698 19.278885 2.732798 24 3203921860832 1 0
-10.641266 20.730873 1.9023014 13 3203921863136 1 0
-12.024039 18.677935 -0.90500426 4 3203921863136 1 0
-6.517168 14.391491 -0.55169123 4 3203921865440 1 0
-10.501481 18.216011 5.633973 11 3203921865440 1 0
-9.728873 18.966967 3.8865645 15 3203921867744 1 0
-10.434954 18.106697 -0.4862927 93 3203921867744 1 0
-1.8813751 3.6796958 -1.9271393 3 3203921888480 1 0
-20.912184 32.5991 -0.6760364 6 3203921888480 1 0
-9.3346615 18.264122 -0.5969378 13 3203921890784 1 0
-3.6834388 6.413141 -2.0703387 4 3203921890784 1 0
-5.2839284 10.342387 -2.3228133 1 3203921893088 1 0
-10.498151 18.284527 0 38 3203921893088 1 0
-8.707914 19.327477 -0.24679096 4 3203921895392 1 0
-8.263429 14.397424 -2.582621 9 3203921895392 1 0
-7.527137 14.744199 -2.1071641 25 3203921897696 1 0
-20.830364 32.515244 0.22443286 5 3203921897696 1 0
-9.683658 18.97556 -0.12381701 31 3203921900000 1 0
-8.802995 15.34837 -1.905899 2 3203921900000 1 0
-6.4883213 14.418656 -1.4759518 6 3203921902304 1 0
-11.112673 19.382242 0.51988465 4 3203921902304 1 0
-8.157932 18.136347 0.23151787 16 3203921904608 1 0
-8.918918 15.561499 -1.2542214 1 3203921904608 1 0
0 0 0 28 3203921906912 1 0
0 0 0 6 3203921906912 1 0
-9.708885 19.053734 0.37327206 36 3203921909216 1 0
-9.865464 15.425454 -1.1734929 1 3203921909216 1 0
-6.4770365 14.417108 -0.920457 9 3203921911520 1 0
-11.426315 19.957527 1.3392905 3 3203921911520 1 0
-9.798053 19.243252 0.87976575 44 3203921913824 1 0
-10.366397 18.11266 -0.9721282 18 3203921913824 1 0
-8.883844 17.45435 -1.0264127 52 3203921916128 1 0
-11.31684 19.780325 2.79812 25 3203921916128 1 0
-10.579528 20.793764 1.9045796 22 3203921918432 1 0
-11.875248 18.592928 -0.89881676 4 3203921918432 1 0
-6.4588814 14.400221 -0.55113286 4 3203921920736 1 0
-11.417822 19.970976 6.1640344 8 3203921920736 1 0
-9.680152 19.040453 3.8944566 22 3203921923040 1 0
-10.379628 18.161503 -0.48675793 43 3203921923040 1 0
-1.8678756 3.6865668 -1.9271393 3 3203921943776 1 0
-20.715265 32.554058 -0.67352325 6 3203921943776 1 0
-19.010714 37.53438 -1.2244787 8 3203921946080 1 0
-5.2443647 10.3581085 -2.3220286 1 3203921948384 1 0
-3.656143 6.4198775 -2.0681822 5 3203921946080 1 0
-10.540175 18.513916 0 42 3203921948384 1 0
-23.430277 52.514225 -0.6694554 8 3203921950688 1 0
-8.205053 14.4171295 -2.5807765 9 3203921950688 1 0
-20.711998 32.590767 0.22443286 5 3203921952992 1 0
-7.4555626 14.736065 -2.1021135 30 3203921952992 1 0
-9.602098 18.98559 -0.123654276 29 3203921955296 1 0
-8.798359 15.470096 -1.9170371 3 3203921955296 1 0
-6.4149857 14.394769 -1.4711187 7 3203921957600 1 0
-10.76768 18.939148 0.5069504 2 3203921957600 1 0
-8.951341 15.749742 -1.2667775 1 3203921959904 1 0
-8.299032 18.62972 0.23743153 8 3203921959904 1 0
-7.415667 14.678404 -1.3425138 4 3203921962208 1 0
-20.69534 32.606445 1.1239419 4 3203921962208 1 0
-9.82912 15.491202 -1.1757954 1 3203921964512 1 0
-8.956926 17.735546 0.34681422 24 3203921964512 1 0
-6.4105916 14.407447 -0.918364 6 3203921966816 1 0
0 0 0 9 3203921966816 1 0
-10.254058 18.066309 -0.96766126 13 3203921969120 1 0
-9.709191 19.239006 0.8779746 30 3203921969120 1 0
-8.787153 17.418262 -1.0224352 52 3203921971424 1 0
-10.889415 19.192228 2.7093992 15 3203921971424 1 0
-10.485467 20.79225 1.9009995 29 3203921973728 1 0
0 0 0 7 3203921973728 1 0
-6.383182 14.368346 -0.5490389 4 3203921976032 1 0
-10.302258 18.169695 5.596703 13 3203921976032 1 0
-9.653111 19.15558 3.9109588 15 3203921978336 1 0
-10.362304 18.281794 -0.4889912 31 3203921978336 1 0
-1.8533685 3.6898248 -1.9254488 3 3203921999072 1 0
-20.575882 32.585587 -0.67268556 6 3203921999072 1 0
0 0 0 13 3203922001376 1 0
-3.633711 6.4326005 -2.0681822 5 3203922001376 1 0
-10.49122 18.57846 0 42 3203922003680 1 0
-5.209936 10.379857 -2.3228133 1 3203922003680 1 0
-8.781631 19.868345 -0.25289088 5 3203922005984 1 0
-8.143021 14.425032 -2.577087 9 3203922005984 1 0
-7.375615 14.705251 -2.0940323 28 3203922008288 1 0
-9.492742 18.933174 -0.12309633 36 3203922010592 1 0
-20.559704 32.601967 0.2240144 5 3203922008288 1 0
-8.757983 15.52496 -1.9200358 1 3203922010592 1 0
0 0 0 17 3203922012896 1 0
-6.3453975 14.373352 -1.4666574 7 3203922012896 1 0
-9.793865 22.193424 0.28241268 17 3203922015200 1 0
-8.902188 15.79132 -1.2676146 1 3203922015200 1 0
-7.360814 14.69707 -1.3418629 1 3203922017504 1 0
-13.129989 20.847378 0.7170235 4 3203922017504 1 0
-9.553849 19.082756 0.37250417 27 3203922019808 1 0
0 0 0 4 3203922019808 1 0
-6.332881 14.367619 -0.91441053 6 3203922022112 1 0
-10.636079 18.886274 1.2623144 21 3203922022112 1 0
-9.649129 19.287079 0.8786259 27 3203922024416 1 0
-10.151729 18.032356 -0.9639388 18 3203922024416 1 0
-8.717365 17.430965 -1.0213885 57 3203922026720 1 0
-10.76394 19.126326 2.6947749 28 3203922026720 1 0
-9.583863 19.170557 1.7496617 5 3203922029024 1 0
-11.626652 18.490232 -0.88986117 10 3203922029024 1 0
-6.3168864 14.3539505 -0.5476429 4 3203922031328 1 0
-10.244452 18.215649 5.5998087 22 3203922031328 1 0
-9.644221 19.30533 3.9346354 25 3203922033632 1 0
-10.676655 18.99061 -0.5069504 44 3203922033632 1 0
-1.8420932 3.699517 -1.9271393 4 3203922054368 1 0
-11.362829 18.134989 -0.3735513 6 3203922054368 1 0
-10.367372 20.828617 -0.67711127 23 3203922056672 1 0
-3.6112351 6.4452453 -2.0681822 5 3203922056672 1 0
-5.1736717 10.397981 -2.3228133 1 3203922058976 1 0
-10.426306 18.614967 0 46 3203922058976 1 0
0 0 0 60 3203922061280 1 0
-8.07717 14.425778 -2.5721676 8 3203922061280 1 0
-7.301274 14.684717 -2.0874662 30 3203922063584 1 0
-20.369392 32.551468 0.2231775 5 3203922063584 1 0
-9.423034 18.959032 -0.12304984 34 3203922065888 1 0
-8.761995 15.659555 -1.9328876 1 3203922065888 1 0
-6.279229 14.358924 -1.4629396 7 3203922068192 1 0
-10.607868 18.964998 0.5056476 16 3203922068192 1 0
-8.389852 19.192957 0.24385741 7 3203922070496 1 0
-8.776906 15.696918 -1.2575697 1 3203922070496 1 0
-7.3378325 14.779809 -1.3470702 1 3203922072800 1 0
-13.13554 21.018538 0.72132885 2 3203922072800 1 0
-9.426729 18.994184 0.37013063 36 3203922075104 1 0
-9.667856 15.474809 -1.1693996 1 3203922075104 1 0
-6.2683096 14.3567 -0.9123175 6 3203922077408 1 0
-9.533801 19.223969 0.87422955 24 3203922079712 1 0
-10.082878 18.057217 -0.9633804 4 3203922079712 1 0
-8.675982 17.500656 -1.0236913 47 3203922082016 1 0
-10.568141 18.9198 1.2620819 9 3203922077408 1 0
-10.664215 19.104849 2.686488 26 3203922082016 1 0
-9.582386 19.336063 1.7617036 37 3203922084320 1 0
-11.562038 18.530704 -0.88986117 4 3203922084320 1 0
-6.2459764 14.328275 -0.5458281 4 3203922086624 1 0
-10.060345 18.035345 5.533551 23 3203922086624 1 0
-9.685045 19.557514 3.9791188 18 3203922088928 1 0
-9.909179 17.770422 -0.47345144 22 3203922088928 1 0
-1.8291683 3.7059247 -1.9271393 3 3203922109664 1 0
-11.276229 18.13718 -0.3727834 6 3203922109664 1 0
-3.5887148 6.457812 -2.0681822 5 3203922111968 1 0
-9.243736 18.734825 -0.6079922 13 3203922111968 1 0
-5.1304045 10.401906 -2.3196752 1 3203922114272 1 0
-10.405941 18.731672 0 34 3203922114272 1 0
-8.528132 19.664963 -0.24953826 30 3203922116576 1 0
-8.009496 14.422787 -2.5666335 8 3203922116576 1 0
-7.260495 14.731469 -2.0904968 10 3203922118880 1 0
0 0 0 7 3203922118880 1 0
-9.369171 19.016926 -0.12321257 63 3203922121184 1 0
-8.730437 15.731774 -1.9380282 1 3203922121184 1 0
-6.211656 14.340554 -1.4588501 7 3203922123488 1 0
-10.431027 18.80259 0.5003436 45 3203922123488 1 0
-8.803339 15.874021 -1.2692888 1 3203922125792 1 0
-7.2298646 14.690867 -1.3366556 1 3203922128096 1 0
-19.577333 31.570906 1.0811206 4 3203922128096 1 0
-9.3444805 18.994677 0.36950234 34 3203922130400 1 0
0 0 0 40 3203922130400 1 0
-8.33075 19.240479 0.24409023 15 3203922125792 1 0
-6.2023067 14.341841 -0.909992 6 3203922132704 1 0
-10.502034 18.956573 1.2620819 31 3203922132704 1 0
-9.521298 19.368319 0.8792772 22 3203922135008 1 0
-9.967518 17.997927 -0.958355 4 3203922135008 1 0
-8.621888 17.545176 -1.0245286 39 3203922137312 1 0
-10.578232 19.107224 2.681613 5 3203922137312 1 0
-9.317962 18.968624 1.7252523 11 3203922139616 1 0
-12.654375 20.43994 -0.97941715 8 3203922139616 1 0
-6.1784925 14.309619 -0.54429257 4 3203922141920 1 0
-9.978624 18.036545 5.5231986 12 3203922141920 1 0
-9.672206 19.704243 4.002078 18 3203922144224 1 0
-9.88386 17.871393 -0.47521943 28 3203922144224 1 0
-1.8130347 3.7057743 -1.9237583 4 3203922164960 1 0
-11.246446 18.230892 -0.37390035 31 3203922164960 1 0
-10.219953 20.896894 -0.6769949 16 3203922167264 1 0
-3.5661511 6.4702992 -2.0681822 5 3203922167264 1 0
-10.222745 18.554173 0 34 3203922169568 1 0
-5.0975094 10.426798 -2.3212442 1 3203922169568 1 0
-8.46733 19.712988 -0.24977107 9 3203922171872 1 0
-7.9457545 14.426423 -2.562329 9 3203922171872 1 0
0 0 0 15 3203922174176 1 0
-10.750603 17.449823 0.119120985 5 3203922174176 1 0
-8.928868 18.28394 -0.11826082 33 3203922176480 1 0
-8.694647 15.796994 -1.9423121 1 3203922176480 1 0
-6.138007 14.307248 -1.4532734 7 3203922178784 1 0
-10.336415 18.786333 0.49894783 31 3203922178784 1 0
-8.243045 19.221655 0.2434849 8 3203922181088 1 0
-7.2414637 14.845009 -1.3483721 1 3203922183392 1 0
-8.759414 15.9256315 -1.270963 1 3203922181088 1 0
-19.469107 31.642456 1.081237 4 3203922183392 1 0
-9.309672 19.091885 0.37075892 23 3203922185696 1 0
-9.488481 15.426322 -1.1607014 57 3203922185696 1 0
-10.287733 18.723637 1.2441751 27 3203922188000 1 0
-6.1254783 14.3010025 -0.9060385 6 3203922188000 1 0
-9.387107 19.264908 0.87308973 22 3203922190304 1 0
-9.862313 17.955563 -0.9542603 11 3203922190304 1 0
-8.501119 17.453064 -1.017411 15 3203922192608 1 0
-10.595548 19.297155 2.703062 23 3203922192608 1 0
-9.251692 19.001034 1.7252523 19 3203922194912 1 0
0 0 0 47 3203922194912 1 0
-6.117502 14.305369 -0.54331535 4 3203922197216 1 0
-10.51593 19.165365 5.8575926 14 3203922197216 1 0
-10.164624 20.891443 4.2359753 24 3203922199520 1 0
-9.692568 17.670874 -0.4689849 26 3203922199520 1 0
-1.800088 3.7120805 -1.9237583 2 3203922220256 1 0
0 0 0 21 3203922220256 1 0
-12.222379 25.213915 -0.81546587 36 3203922222560 1 0
-3.5416963 6.479328 -2.0671039 5 3203922222560 1 0
-5.0627923 10.448058 -2.3220286 1 3203922224864 1 0
-8.3577585 19.64673 -0.24856041 1 3203922227168 1 0
-10.209703 18.684519 0 36 3203922224864 1 0
-7.878296 14.4228525 -2.556795 8 3203922227168 1 0
-7.058905 14.578231 -2.0617075 3 3203922229472 1 0
-8.774372 18.127777 -0.117051944 31 3203922231776 1 0
-10.700057 17.504309 0.11923722 5 3203922229472 1 0
0 0 0 10 3203922231776 1 0
-6.069339 14.2846 -1.4488121 7 3203922234080 1 0
-10.272691 18.82581 0.49904087 28 3203922234080 1 0
-8.189971 19.283443 0.24390398 26 3203922236384 1 0
-8.761093 16.0612 -1.2793337 1 3203922236384 1 0
-7.108039 14.701502 -1.3330755 1 3203922238688 1 0
-20.02521 32.80227 1.1184728 4 3203922238688 1 0
-9.566676 19.79403 0.38374352 36 3203922240992 1 0
-9.407542 15.415052 -1.1573757 51 3203922240992 1 0
-6.063046 14.292888 -0.9041781 6 3203922243296 1 0
-10.168813 18.661253 1.2376635 39 3203922243296 1 0
-9.311111 19.279562 0.8722756 24 3203922245600 1 0
-9.753704 17.905666 -0.9497933 10 3203922245600 1 0
-8.403675 17.40709 -1.0130148 23 3203922247904 1 0
-10.429393 19.152714 2.6777132 26 3203922247904 1 0
-9.438292 19.557425 1.7727691 8 3203922250208 1 0
-11.086551 18.19004 -0.8678792 44 3203922250208 1 0
-6.058176 14.30455 -0.5424778 6 3203922252512 1 0
-9.782287 17.976805 5.483858 8 3203922252512 1 0
-10.057452 20.855907 4.2216253 36 3203922254816 1 0
-9.81427 18.04183 -0.47791794 20 3203922254816 1 0
-1.7871195 3.7183414 -1.9237583 2 3203922275552 1 0
0 0 0 94 3203922275552 1 0
-12.177579 25.346523 -0.81837493 13 3203922277856 1 0
-3.5190578 6.4916515 -2.0671039 5 3203922277856 1 0
-5.0381775 10.490417 -2.32752 1 3203922280160 1 0
-10.220652 18.860716 0 40 3203922280160 1 0
-7.7940154 14.38771 -2.5457265 8 3203922282464 1 0
-6.9993906 14.584895 -2.0591822 4 3203922284768 1 0
-10.607777 17.490252 0.118888505 14 3203922284768 1 0
-8.70412 18.14387 -0.11695895 33 3203922287072 1 0
-8.612551 15.909771 -1.9487379 46 3203922287072 1 0
0 0 0 14 3203922282464 1 0
-6.003993 14.26899 -1.4450943 9 3203922289376 1 0
-10.212624 18.872103 0.49932003 24 3203922289376 1 0
-8.088493 19.230803 0.24287955 19 3203922291680 1 0
-8.826485 16.316301 -1.2971914 1 3203922291680 1 0
-7.034281 14.679485 -1.3288445 1 3203922293984 1 0
-20.022444 33.05664 1.1247565 4 3203922293984 1 0
-8.9982 18.784899 0.36356854 44 3203922296288 1 0
-9.328865 15.406821 -1.1543057 51 3203922296288 1 0
-5.9991984 14.28083 -0.90208507 6 3203922298592 1 0
-10.170057 18.819593 1.245803 9 3203922298592 1 0
-9.2937975 19.41649 0.87699765 22 3203922300896 1 0
-12.494224 23.128485 -1.224513 68 3203922300896 1 0
-8.313552 17.375063 -1.0094559 23 3203922303200 1 0
-10.654879 19.730473 2.7532723 13 3203922303200 1 0
-9.132577 19.093931 1.7278559 30 3203922305504 1 0
-10.977489 18.153389 -0.864297 42 3203922305504 1 0
-5.9772844 14.251881 -0.53968585 4 3203922307808 1 0
-9.442406 17.497412 5.3275313 22 3203922307808 1 0
-9.994771 20.91219 4.22593 24 3203922310112 1 0
-9.785407 18.139328 -0.4795929 5 3203922310112 1 0
-1.7772472 3.7311027 -1.9271393 2 3203922331296 1 0
-10.838197 17.987972 -0.36657035 32 3203922331296 1 0
-10.11745 21.248247 -0.68490756 6 3203922333600 1 0
-3.4982 6.5072885 -2.0681822 6 3203922333600 1 0
-4.9930997 10.4902315 -2.3235977 1 3203922335904 1 0
-10.147179 18.882183 0 36 3203922335904 1 0
-10.6089 25.429932 -0.32078168 37 3203922338208 1 0
-7.6951137 14.324301 -2.529739 8 3203922338208 1 0
-6.931394 14.573405 -2.0541315 4 3203922340512 1 0
-11.03749 18.342869 0.12442145 5 3203922340512 1 0
-9.276208 19.510742 -0.12556058 42 3203922342816 1 0
-8.581417 15.98529 -1.954307 56 3203922342816 1 0
-5.9388304 14.253098 -1.4413766 7 3203922345120 1 0
-10.071049 18.766693 0.49559793 26 3203922345120 1 0
-8.108973 19.46938 0.24553372 29 3203922347424 1 0
-8.746841 16.304817 -1.293843 1 3203922347424 1 0
-6.9983897 14.7363615 -1.3317736 1 3203922349728 1 0
-20.065512 33.39022 1.1337163 4 3203922349728 1 0
-8.929144 18.808968 0.36342892 32 3203922352032 1 0
-9.2791395 15.4461355 -1.1548173 12 3203922352032 1 0
-5.9309077 14.2574415 -0.8992944 8 3203922354336 1 0
-10.185409 19.006325 1.2558029 9 3203922354336 1 0
-9.289344 19.58242 0.8830223 43 3203922356640 1 0
-12.385112 23.119125 -1.2217212 65 3203922356640 1 0
-7.0000334 14.761979 -0.85621625 6 3203922358944 1 0
-11.762991 21.965494 3.059408 27 3203922358944 1 0
-9.043672 19.078861 1.723625 13 3203922361248 1 0
-10.864708 18.109344 -0.86038905 40 3203922361248 1 0
-9.60368 17.94587 5.453835 36 3203922363552 1 0
-5.9137006 14.239432 -0.53842944 6 3203922363552 1 0
-10.486021 22.13833 4.4662848 6 3203922365856 1 0
0 0 0 100 3203922365856 1 0
-1.7642124 3.7372837 -1.9271393 4 3203922386592 1 0
-10.820486 18.101217 -0.36810616 30 3203922386592 1 0
-10.043218 21.283436 -0.68490756 6 3203922388896 1 0
-3.473652 6.516061 -2.0671039 5 3203922388896 1 0
-4.954778 10.504049 -2.3228133 1 3203922391200 1 0
-10.096255 18.945728 0 34 3203922391200 1 0
-9.235792 22.357855 -0.2816211 16 3203922393504 1 0
-7.622766 14.309214 -2.52236 8 3203922393504 1 0
-6.8567963 14.547262 -2.0470605 4 3203922395808 1 0
-10.954941 18.350374 0.12421222 20 3203922395808 1 0
-9.1944065 19.514055 -0.1253746 29 3203922398112 1 0
-8.5629425 16.085358 -1.9628747 50 3203922398112 1 0
-5.8692946 14.22588 -1.4365435 7 3203922400416 1 0
-9.967907 18.73113 0.4937369 37 3203922400416 1 0
-8.72548 16.402184 -1.2991446 4 3203922402720 1 0
-7.97844 19.345964 0.24362458 29 3203922402720 1 0
-6.943512 14.753486 -1.3311228 1 3203922405024 1 0
-19.985691 33.521873 1.1358109 4 3203922405024 1 0
-8.790224 18.68441 0.3604271 30 3203922407328 1 0
0 0 0 4 3203922407328 1 0
-5.8643746 14.237442 -0.89673626 6 3203922409632 1 0
-10.660556 20.06085 1.3230115 22 3203922409632 1 0
-9.292346 19.76664 0.88986117 17 3203922411936 1 0
-9.460692 17.809217 -0.93937033 17 3203922411936 1 0
-6.9195805 14.724865 -0.8526574 15 3203922414240 1 0
-10.818528 20.37242 2.8322434 40 3203922414240 1 0
-8.982104 19.12114 1.7246014 19 3203922416544 1 0
-10.799384 18.143724 -0.8602263 38 3203922416544 1 0
-5.847236 14.219319 -0.53689384 6 3203922418848 1 0
-9.4305 17.771093 5.390683 20 3203922418848 1 0
-10.433762 22.228231 4.477047 48 3203922421152 1 0
-9.435529 17.786818 -0.46851966 29 3203922421152 1 0
-1.7526922 3.746703 -1.9288298 4 3203922441888 1 0
-10.822517 18.248955 -0.37034008 31 3203922441888 1 0
-12.700732 27.160448 -0.87259966 4 3203922444192 1 0
-3.4526856 6.531552 -2.0681822 4 3203922444192 1 0
-4.921404 10.528387 -2.324382 1 3203922446496 1 0
-10.102945 19.118784 0 44 3203922446496 1 0
-10.46442 25.584822 -0.3218061 15 3203922448800 1 0
-7.559848 14.311272 -2.5180557 8 3203922448800 1 0
-6.809334 14.578299 -2.0480707 6 3203922451104 1 0
-9.061929 19.408306 -0.12449119 25 3203922453408 1 0
-8.543873 16.185492 -1.9714425 49 3203922453408 1 0
-10.935663 18.464218 0.124723665 14 3203922451104 1 0
-5.8060465 14.213099 -1.4331975 7 3203922455712 1 0
-9.95845 18.871912 0.49652848 30 3203922455712 1 0
-7.913885 19.381102 0.24371772 19 3203922458016 1 0
-8.716578 16.524303 -1.3063992 4 3203922458016 1 0
-6.7706447 14.517489 -1.3076898 1 3203922460320 1 0
-19.968296 33.76006 1.1415125 4 3203922460320 1 0
-8.412318 18.044386 0.3475123 19 3203922462624 1 0
-9.142636 15.462434 -1.1512357 1 3203922462624 1 0
-5.7965455 14.213455 -0.8939456 4 3203922464928 1 0
-10.09715 19.161757 1.2613842 15 3203922464928 1 0
-9.655343 20.72641 0.93154544 12 3203922467232 1 0
-12.2606535 23.275728 -1.2254437 43 3203922467232 1 0
-6.8512764 14.712717 -0.85056394 22 3203922469536 1 0
-10.723302 20.36439 2.8259063 17 3203922469536 1 0
-8.9910145 19.315022 1.739247 19 3203922471840 1 0
-10.766468 18.232933 -0.8626687 36 3203922471840 1 0
-5.7870135 14.213726 -0.5359167 6 3203922474144 1 0
-9.373808 17.814161 5.393789 22 3203922474144 1 0
-10.261508 22.061138 4.4361506 13 3203922476448 1 0
-9.365937 17.805489 -0.46814743 36 3203922476448 1 0
-1.739603 3.752798 -1.9288298 3 3203922497184 1 0
-10.365311 17.617893 -0.356797 11 3203922497184 1 0
-15.6052475 33.676327 -1.0801897 7 3203922499488 1 0
-3.4299605 6.5435143 -2.0681822 4 3203922499488 1 0
-4.8783355 10.531124 -2.3212442 1 3203922501792 1 0
-9.951302 18.990662 0 30 3203922501792 1 0
-6.9139414 17.071844 -0.21442875 6 3203922504096 1 0
-7.506804 14.330243 -2.516826 10 3203922504096 1 0
-6.7125807 14.500761 -2.0339286 39 3203922506400 1 0
0 0 0 3 3203922506400 1 0
-9.019057 19.489986 -0.124816656 36 3203922508704 1 0
-8.529081 16.292112 -1.980867 42 3203922508704 1 0
-5.7397175 14.188472 -1.4287362 7 3203922511008 1 0
-9.864497 18.849007 0.4950396 22 3203922511008 1 0
-6.903502 17.071753 0.21438219 9 3203922513312 1 0
0 0 0 92 3203922513312 1 0
0 0 0 33 3203922515616 1 0
-20.016176 34.103107 1.1508216 5 3203922515616 1 0
-8.497607 18.3884 0.35358575 28 3203922517920 1 0
-9.16942 15.6273365 -1.161213 1 3203922517920 1 0
-5.732515 14.192038 -0.89138746 4 3203922520224 1 0
-9.9886 19.11049 1.2558029 12 3203922520224 1 0
-9.1304865 19.77151 0.8872559 5 3203922522528 1 0
-9.176155 17.561695 -0.9229914 58 3203922522528 1 0
-6.772313 14.670075 -0.8467958 24 3203922524832 1 0
-10.021553 19.185772 2.6577265 10 3203922524832 1 0
-11.344421 24.582556 2.2101846 12 3203922527136 1 0
-10.732482 18.313206 -0.8647855 26 3203922527136 1 0
-5.7297945 14.206719 -0.53493947 6 3203922529440 1 0
-9.3116255 17.838028 5.3917184 20 3203922529440 1 0
-9.953602 21.5836 4.333552 9 3203922531744 1 0
-9.438972 18.087755 -0.47475415 31 3203922531744 1 0
-1.7247761 3.751657 -1.9254488 4 3203922552480 1 0
-10.495494 17.968084 -0.36321947 34 3203922552480 1 0
-15.511748 33.7547 -1.0811206 7 3203922554784 1 0
-3.4109733 6.557774 -2.0692606 5 3203922554784 1 0
-4.8478875 10.553808 -2.3228133 1 3203922557088 1 0
-9.833282 18.912388 0 30 3203922557088 1 0
-7.427685 14.29128 -2.5057573 10 3203922559392 1 0
-6.854315 17.082943 -0.21428905 13 3203922559392 1 0
-6.6470957 14.482883 -2.0283728 37 3203922561696 1 0
-10.751428 18.433313 0.12402624 3 3203922561696 1 0
-8.51764 16.401237 -1.9907199 39 3203922564000 1 0
-8.906575 19.414095 -0.124142475 29 3203922564000 1 0
-5.677822 14.170458 -1.4250184 7 3203922566304 1 0
-9.731923 18.746746 0.49150363 22 3203922566304 1 0
-6.8418937 17.083612 0.21424249 10 3203922568608 1 0
-9.095827 17.528282 -1.3808992 51 3203922568608 1 0
-6.635984 14.483114 -1.3005297 30 3203922570912 1 0
-19.999588 34.339752 1.1565232 5 3203922570912 1 0
-8.586522 18.748106 0.35993844 20 3203922573216 1 0
-9.11819 15.661902 -1.1614689 1 3203922573216 1 0
-5.6689386 14.174554 -0.8890619 6 3203922575520 1 0
-10.12324 19.531101 1.2811514 21 3203922575520 1 0
0 0 0 102 3203922577824 1 0
-9.080384 17.525948 -0.919455 54 3203922577824 1 0
-6.692817 14.631872 -0.8432369 29 3203922580128 1 0
-9.912527 19.139551 2.6465147 25 3203922580128 1 0
-11.208094 24.513561 2.2004209 8 3203922582432 1 0
-12.419503 21.363852 -1.0067725 34 3203922582432 1 0
-5.6496997 14.152711 -0.5321475 6 3203922584736 1 0
-9.312191 17.994493 5.4289885 8 3203922584736 1 0
0 0 0 94 3203922587040 1 0
-9.432991 18.23507 -0.47773185 30 3203922587040 1 0
-1.7118598 3.7615516 -1.9271393 3 3203922607776 1 0
-10.420412 17.997868 -0.36301005 60 3203922607776 1 0
0 0 0 16 3203922610080 1 0
-3.3841949 6.5673003 -2.0681822 5 3203922610080 1 0
-4.809567 10.575635 -2.3235977 1 3203922612384 1 0
-9.763526 18.952993 0 38 3203922612384 1 0
-20.670013 52.080307 -0.6523197 8 3203922614688 1 0
-7.363148 14.297968 -2.502068 10 3203922614688 1 0
-6.5717826 14.460571 -2.0218067 37 3203922616992 1 0
0 0 0 35 3203922616992 1 0
-8.7967415 19.363106 -0.12360778 46 3203922619296 1 0
0 0 0 6 3203922619296 1 0
-5.6097016 14.150447 -1.420929 7 3203922621600 1 0
-9.765596 18.98142 0.49671456 24 3203922621600 1 0
-8.708588 21.975767 0.2751952 23 3203922623904 1 0
-8.995532 17.49027 -1.3753186 55 3203922623904 1 0
-6.554044 14.441609 -1.2946715 12 3203922626208 1 0
-19.919588 34.487835 1.1590832 5 3203922626208 1 0
-8.575566 18.902538 0.36231196 44 3203922628512 1 0
-9.050118 15.673685 -1.1599339 1 3203922628512 1 0
-5.603903 14.157453 -0.88673633 6 3203922630816 1 0
-10.048389 19.55625 1.2804538 25 3203922630816 1 0
-9.03514 19.929413 0.89148945 14 3203922633120 1 0
-8.987605 17.497377 -0.9162909 54 3203922633120 1 0
-6.6153197 14.596932 -0.83988744 18 3203922635424 1 0
-9.885554 19.251736 2.6572392 17 3203922635424 1 0
-9.774111 21.574427 1.9335454 6 3203922637728 1 0
-10.45462 18.128021 -0.8525733 7 3203922637728 1 0
-5.590802 14.145995 -0.53117037 6 3203922640032 1 0
-9.125127 17.782288 5.3554835 14 3203922640032 1 0
-9.478086 20.935589 4.190057 11 3203922642336 1 0
-9.390953 18.306206 -0.4787554 18 3203922642336 1 0
-1.7000341 3.766911 -1.9271393 3 3203922663072 1 0
-10.3977 18.08946 -0.3641968 32 3203922663072 1 0
-12.294891 27.25447 -0.87015605 73 3203922665376 1 0
-3.3616016 6.574568 -2.0671039 5 3203922665376 1 0
-4.770866 10.580244 -2.3212442 1 3203922667680 1 0
-9.708292 18.994823 0 40 3203922667680 1 0
-7.3133473 14.314629 -2.500838 10 3203922669984 1 0
-6.5083365 14.445727 -2.016756 28 3203922672288 1 0
-10.469164 18.240797 0.12223617 26 3203922672288 1 0
-8.733047 19.391916 -0.12360778 31 3203922674592 1 0
-7.5367804 14.763618 -1.785522 33 3203922674592 1 0
-5.5467362 14.128192 -1.4168394 7 3203922676896 1 0
-9.617169 18.846287 0.4923411 35 3203922676896 1 0
-8.629181 21.989883 0.27500895 14 3203922679200 1 0
0 0 0 14 3203922669984 1 0
-8.904337 17.456284 -1.3702961 55 3203922679200 1 0
0 0 0 94 3203922681504 1 0
-8.576781 19.077524 0.36510435 22 3203922683808 1 0
-6.477476 14.401832 -1.2891387 8 3203922681504 1 0
-9.095936 15.877581 -1.1727254 1 3203922683808 1 0
-5.5407057 14.139425 -0.8844108 4 3203922686112 1 0
-9.943135 19.515905 1.2755702 25 3203922686112 1 0
-8.985751 20.004318 0.8934434 25 3203922688416 1 0
-8.890717 17.457174 -0.9125684 56 3203922688416 1 0
-6.467792 14.404937 -0.82753617 6 3203922690720 1 0
-9.721028 19.095068 2.6309154 15 3203922690720 1 0
-9.667098 21.539587 1.9273616 27 3203922693024 1 0
-10.347091 18.088385 -0.84899104 3 3203922693024 1 0
-5.5260043 14.128518 -0.52977437 6 3203922695328 1 0
-9.079481 17.848995 5.3658366 22 3203922695328 1 0
-9.712263 21.658772 4.3278117 9 3203922697632 1 0
-9.323583 18.336124 -0.47866237 28 3203922697632 1 0
-1.6870363 3.7767208 -1.9288298 3 3203922718368 1 0
-10.4410095 18.32733 -0.36817595 22 3203922718368 1 0
-12.169356 27.253841 -0.86864334 73 3203922720672 1 0
-3.3399088 6.594251 -2.0692606 5 3203922720672 1 0
-4.7337112 10.605511 -2.3228133 1 3203922722976 1 0
-9.619577 18.999561 0 42 3203922722976 1 0
-10.74822 27.646147 -0.3453211 37 3203922725280 1 0
-7.25717 14.33876 -2.5002232 12 3203922725280 1 0
-6.4973016 14.568081 -2.0303931 22 3203922727584 1 0
-10.5148325 18.481903 0.12358453 28 3203922727584 1 0
-8.734857 19.59273 -0.124677174 34 3203922729888 1 0
-5.4821496 14.119205 -1.4138652 9 3203922732192 1 0
-7.4452143 14.720926 -1.7769542 26 3203922729888 1 0
-9.602314 18.992874 0.49522573 18 3203922732192 1 0
-8.565738 22.07046 0.2756143 14 3203922734496 1 0
-8.813827 17.439587 -1.3663898 24 3203922734496 1 0
-10.659796 18.762093 0.62800646 30 3203922736800 1 0
-8.96298 20.135912 0.38472086 18 3203922739104 1 0
-6.404347 14.382147 -1.2852333 8 3203922736800 1 0
-9.046844 15.928561 -1.1740046 1 3203922739104 1 0
-5.4754443 14.126287 -0.8823178 6 3203922741408 1 0
-9.924959 19.659447 1.2825468 31 3203922741408 1 0
-9.430205 21.202162 0.9453859 25 3203922743712 1 0
-8.794016 17.425562 -0.90921813 58 3203922743712 1 0
-6.392233 14.377445 -0.82460535 6 3203922746016 1 0
-9.792245 19.410599 2.6694262 32 3203922746016 1 0
0 0 0 17 3203922748320 1 0
-10.26127 18.091274 -0.84736276 3 3203922748320 1 0
-5.467382 14.129876 -0.5290764 6 3203922750624 1 0
-9.068437 17.988846 5.39793 20 3203922750624 1 0
0 0 0 13 3203922752928 1 0
-9.253517 18.362629 -0.47847626 5 3203922752928 1 0
-1.6709088 3.7759564 -1.9254488 4 3203922773664 1 0
-10.404517 18.41241 -0.3691533 42 3203922773664 1 0
-12.085868 27.321573 -0.8694579 34 3203922775968 1 0
-3.311781 6.595494 -2.0660255 4 3203922775968 1 0
-4.698558 10.625421 -2.3235977 2 3203922778272 1 0
-8.920304 17.770807 0 24 3203922778272 1 0
-10.645678 27.664368 -0.34508827 37 3203922780576 1 0
-7.1917467 14.331898 -2.494689 11 3203922780576 1 0
-6.471316 14.644738 -2.037969 19 3203922782880 1 0
-10.490652 18.587555 0.124049485 18 3203922782880 1 0
-8.693699 19.681011 -0.12504913 27 3203922785184 1 0
-7.366332 14.689407 -1.7701 27 3203922785184 1 0
-5.419776 14.100606 -1.4101474 7 3203922787488 1 0
-8.903211 17.759941 0.46228513 12 3203922787488 1 0
-8.5009365 22.125496 0.27594024 23 3203922789792 1 0
-7.3852496 14.736758 -1.152656 8 3203922789792 1 0
-6.3364673 14.359905 -1.2813277 8 3203922792096 1 0
-10.641584 18.878065 0.63068277 29 3203922792096 1 0
-8.942086 20.272028 0.38674533 33 3203922794400 1 0
-8.997196 15.965822 -1.1745162 1 3203922794400 1 0
-5.4081283 14.092331 -0.879062 6 3203922796704 1 0
-9.798357 19.571133 1.2746398 40 3203922796704 1 0
-9.382104 21.284653 0.9476655 31 3203922799008 1 0
-8.72341 17.429743 -0.9079153 64 3203922799008 1 0
-6.3284135 14.362009 -0.8225119 6 3203922801312 1 0
-9.688742 19.364851 2.6587017 27 3203922801312 1 0
-10.3029785 23.390379 2.0865107 11 3203922803616 1 0
-10.148556 18.031015 -0.8429664 3 3203922803616 1 0
-5.409465 14.1179085 -0.5279596 6 3203922805920 1 0
-8.990251 17.980541 5.386542 22 3203922805920 1 0
-9.307479 21.145346 4.2122984 17 3203922808224 1 0
-8.878706 17.763264 -0.46209902 27 3203922808224 1 0
-1.6561248 3.7745476 -1.9220679 3 3203922828960 1 0
0 0 0 9 3203922831264 1 0
-10.325099 18.406637 -0.3683854 30 3203922828960 1 0
-3.2909482 6.6059136 -2.0660255 7 3203922831264 1 0
-4.6601195 10.629488 -2.3212442 2 3203922833568 1 0
-9.470177 19.016396 0 38 3203922833568 1 0
-10.581724 27.761671 -0.34587985 28 3203922835872 1 0
-7.1390147 14.340579 -2.4922295 10 3203922835872 1 0
-6.408501 14.6290245 -2.0329185 16 3203922838176 1 0
-10.347063 18.47097 0.12304984 33 3203922838176 1 0
-9.697359 22.14544 -0.14050883 8 3203922840480 1 0
-7.2978215 14.67028 -1.7649593 25 3203922840480 1 0
-5.36005 14.0808115 -1.4064296 5 3203922842784 1 0
-9.520652 19.145657 0.49755204 31 3203922842784 1 0
-8.433397 22.164165 0.27607992 45 3203922845088 1 0
-7.3285327 14.742768 -1.1512609 2 3203922845088 1 0
-6.2672834 14.329336 -1.2767713 8 3203922847392 1 0
-9.545382 21.832932 0.41592574 5 3203922849696 1 0
-10.5566 18.870762 0.6292864 17 3203922847392 1 0
-8.937107 15.981243 -1.1734929 1 3203922849696 1 0
-5.3518476 14.083902 -0.87743413 7 3203922852000 1 0
-9.2861805 21.256914 0.94506025 31 3203922854304 1 0
-9.787252 19.710533 1.2816166 15 3203922852000 1 0
-8.685358 17.497818 -0.90996265 64 3203922854304 1 0
-6.256774 14.328006 -0.81937176 6 3203922856608 1 0
-9.63506 19.418213 2.6616266 27 3203922856608 1 0
-9.469026 21.69266 1.9322435 10 3203922858912 1 0
0 0 0 10 3203922858912 1 0
-5.3338504 14.061172 -0.52516764 6 3203922861216 1 0
-8.964378 18.079746 5.4072475 20 3203922861216 1 0
-9.244249 21.194532 4.2158856 14 3203922863520 1 0
-1.6458291 3.786955 -1.9254488 3 3203922884256 1 0
-9.259392 18.681568 -0.48517606 28 3203922863520 1 0
-9.891342 17.778536 -0.35512155 26 3203922884256 1 0
-15.389551 35.425243 -1.1240582 7 3203922886560 1 0
-4.6275196 10.65655 -2.3235977 2 3203922888864 1 0
-3.2695267 6.620838 -2.0671039 6 3203922886560 1 0
-9.166207 18.568842 0 22 3203922888864 1 0
-10.492616 27.821123 -0.34615925 31 3203922891168 1 0
-7.0851016 14.358478 -2.4909997 8 3203922891168 1 0
-10.287814 18.517763 0.12311958 31 3203922893472 1 0
-6.3332806 14.596889 -2.0253422 21 3203922893472 1 0
0 0 0 94 3203922895776 1 0
-7.2231703 14.649558 -1.7593904 25 3203922895776 1 0
-5.2976174 14.066123 -1.4030837 7 3203922898080 1 0
-8.3435755 22.163948 0.27570742 30 3203922900384 1 0
-7.262166 14.739995 -1.1490287 1 3203922900384 1 0
-6.200546 14.314904 -1.2735168 8 3203922902688 1 0
-10.4139185 18.77175 0.6247483 18 3203922902688 1 0
-9.398122 19.067991 0.4946674 30 3203922898080 1 0
-9.351679 21.598818 0.41082963 36 3203922904992 1 0
-8.992504 16.215399 -1.1883311 1 3203922904992 1 0
-9.785718 19.885015 1.2906862 100 3203922907296 1 0
-5.287576 14.065505 -0.87510854 7 3203922907296 1 0
-9.297499 21.491684 0.95401585 16 3203922909600 1 0
-8.652807 17.58967 -0.91312677 60 3203922909600 1 0
-6.189615 14.313636 -0.81727827 6 3203922911904 1 0
-9.586545 19.495314 2.6674762 25 3203922911904 1 0
-9.34532 21.620344 1.9228052 23 3203922914208 1 0
-12.54065 22.646065 -1.0546442 6 3203922914208 1 0
-5.272067 14.050301 -0.52405083 6 3203922916512 1 0
0 0 0 9 3203922916512 1 0
-9.166334 21.224058 4.2151685 14 3203922918816 1 0
-9.230868 18.793745 -0.4872232 65 3203922918816 1 0
-1.6348038 3.799622 -1.9288298 3 3203922939552 1 0
-9.816456 17.79716 -0.3547725 15 3203922939552 1 0
-6.3929224 14.864727 -0.47091755 2 3203922941856 1 0
-3.245238 6.632777 -2.0671039 5 3203922941856 1 0
-4.58843 10.673439 -2.3235977 1 3203922944160 1 0
-12.459187 33.40579 -0.41507447 3 3203922946464 1 0
-7.023748 14.366595 -2.487925 7 3203922946464 1 0
-6.2578135 14.56896 -2.0182712 19 3203922948768 1 0
-10.24882 18.6079 0.123468295 33 3203922948768 1 0
-8.417408 19.605019 -0.12400299 42 3203922951072 1 0
-8.936406 18.271734 0 24 3203922944160 1 0
-7.1484804 14.633053 -1.7542497 25 3203922951072 1 0
-9.307115 19.059189 0.49355078 31 3203922953376 1 0
-5.2293468 14.040659 -1.3986224 9 3203922953376 1 0
-8.277634 22.235613 0.27621964 11 3203922955680 1 0
-7.1800866 14.70914 -1.1445643 1 3203922955680 1 0
-6.127612 14.289902 -1.2692858 10 3203922957984 1 0
-10.293022 18.7152 0.6216065 31 3203922957984 1 0
-9.22676 21.526346 0.40880516 68 3203922960288 1 0
-8.917626 16.220264 -1.1862844 1 3203922960288 1 0
-5.2220736 14.04736 -0.872783 7 3203922962592 1 0
-9.31901 19.11315 1.2383611 33 3203922962592 1 0
0 0 0 29 3203922964896 1 0
-10.037749 20.595259 -1.0672379 27 3203922964896 1 0
-6.124535 14.306849 -0.81560355 6 3203922967200 1 0
-9.579365 19.662378 2.6855128 28 3203922967200 1 0
-9.262877 21.64712 1.9221543 27 3203922969504 1 0
-12.584506 22.923105 -1.065391 32 3203922969504 1 0
-5.2121906 14.047042 -0.52321327 6 3203922971808 1 0
-8.799104 18.074852 5.386542 18 3203922971808 1 0
-9.082294 21.24304 4.2122984 31 3203922974112 1 0
-10.178554 20.916594 -0.54128677 30 3203922974112 1 0
-9.692105 17.71033 -0.352399 20 3203922994296 1 0
-1.6179296 3.795018 -1.9237583 4 3203922994296 1 0
-6.392186 14.999871 -0.4745248 6 3203922996600 1 0
-3.223225 6.643502 -2.0671039 6 3203922996600 1 0
-4.551473 10.684988 -2.3228133 1 3203922998904 1 0
-8.854819 18.258078 0 31 3203922998904 1 0
-18.839739 51.02963 -0.6332749 7 3203923001208 1 0
-6.9708953 14.379138 -2.4860804 8 3203923001208 1 0
-6.1861577 14.534866 -2.0106952 11 3203923003512 1 0
-10.19473 18.655825 0.123561285 26 3203923003512 1 0
-8.352349 19.632824 -0.12400299 46 3203923005816 1 0
-7.0704417 14.595832 -1.7469671 23 3203923005816 1 0
-5.170358 14.024291 -1.3952763 9 3203923008120 1 0
-9.21249 19.025164 0.49187583 31 3203923008120 1 0
-10.49822 28.489206 0.35346985 19 3203923010424 1 0
-7.127793 14.725686 -1.1440061 1 3203923010424 1 0
-6.063042 14.269781 -1.2657057 10 3203923012728 1 0
-10.148551 18.59831 0.61660296 22 3203923012728 1 0
-9.138127 21.516333 0.40803728 94 3203923015032 1 0
-8.873347 16.26727 -1.1875635 1 3203923015032 1 0
-5.161672 14.027124 -0.8704574 6 3203923017336 1 0
-9.304245 19.244612 1.2448727 30 3203923017336 1 0
-10.8598995 25.592083 1.1326394 12 3203923019640 1 0
-8.42548 17.433796 -0.9019593 18 3203923019640 1 0
-6.0583405 14.282951 -0.8130914 6 3203923021944 1 0
-9.534833 19.736935 2.6913626 28 3203923021944 1 0
-9.156805 21.596968 1.9149942 27 3203923024248 1 0
-12.569596 23.077024 -1.0706015 54 3203923024248 1 0
-5.1531763 14.030477 -0.52195686 6 3203923026552 1 0
0 0 0 19 3203923026552 1 0
-8.99645 21.236807 4.2051234 23 3203923028856 1 0
-9.205448 19.077425 -0.49289942 42 3203923028856 1 0
-1.6040093 3.8009226 -1.9237583 3 3203923049592 1 0
-9.651921 17.791433 -0.3533065 26 3203923049592 1 0
-6.351261 15.056308 -0.47557205 16 3203923051896 1 0
-3.195565 6.648305 -2.0649474 6 3203923051896 1 0
-4.517008 10.712375 -2.3251667 2 3203923054200 1 0
-8.994254 18.719328 0 26 3203923054200 1 0
-18.286106 50.091003 -0.62079567 7 3203923056504 1 0
-6.9133267 14.393751 -2.4842355 8 3203923056504 1 0
-10.387858 19.174597 0.12674621 22 3203923058808 1 0
-8.285707 19.674063 -0.12407273 27 3203923061112 1 0
-6.99678 14.578368 -1.7418264 23 3203923061112 1 0
-5.1058936 14.005506 -1.3915586 9 3203923063416 1 0
-6.1132383 14.509727 -2.0041292 11 3203923058808 1 0
-9.162557 19.098063 0.49289942 31 3203923063416 1 0
-11.160684 30.627686 0.37949932 38 3203923065720 1 0
-5.9960737 14.254808 -1.2624512 8 3203923068024 1 0
