# .PCD v.7 - Point Cloud Data file format
VERSION .7
FIELDS x y z rgb timestamp_ns device_id active
SIZE 4 4 4 4 8 1 1
TYPE F F F F F U U
COUNT 1 1 1 1 1 1 1
WIDTH 984
HEIGHT 1
VIEWPOINT 0 0 0 1 0 0 0
POINTS 984               
DATA ascii
36.26784 -50.34832 3.613689 28 3198270217336 1 0
18.403988 -25.556913 -1.4670333 14 3198270219640 1 0
16.625088 -25.649366 -1.6018989 15 3198270221944 1 0
0 0 0 8 3198270224248 1 0
0 0 0 1 3198270221944 1 0
15.46666 -26.645647 -1.0758817 40 3198270226552 1 0
21.5209 -27.015131 -1.4071692 11 3198270224248 1 0
9.57414 -13.307481 4.392677 3 3198270226552 1 0
17.812777 -27.508036 5.9751353 28 3198270228856 1 0
18.85939 -26.221468 -0.75158554 40 3198270228856 1 0
0 0 0 4 3198270249592 1 0
0 0 0 43 3198270249592 1 0
17.054146 -26.420639 -0.9151882 44 3198270251896 1 0
3.49479 -4.8739786 -1.6789154 1 3198270251896 1 0
4.5638375 -7.0726495 -1.6834708 3 3198270254200 1 0
0 0 0 110 3198270254200 1 0
18.334602 -31.724487 -0.42657584 58 3198270256504 1 0
6.1699386 -8.610139 -1.6479583 6 3198270256504 1 0
6.1825724 -9.587348 -1.4520845 37 3198270258808 1 0
29.63415 -37.366657 0.27718177 28 3198270258808 1 0
29.453407 -45.688145 -0.31593564 30 3198270261112 1 0
6.8193536 -9.522246 -1.2616032 39 3198270261112 1 0
8.955068 -15.5106325 -1.6718779 4 3198270263416 1 0
29.338041 -40.978943 1.1727414 25 3198270263416 1 0
18.302147 -31.7109 0.4262499 76 3198270265720 1 0
13.12591 -18.339712 -1.5770544 4 3198270265720 1 0
10.832224 -16.819065 -1.6331477 37 3198270268024 1 0
29.5681 -37.327957 1.3858731 21 3198270268024 1 0
29.225819 -45.393078 0.94236016 34 3198270270328 1 0
14.893616 -18.807919 -1.5375392 4 3198270270328 1 0
13.441641 -23.312918 -1.5671954 17 3198270272632 1 0
36.228912 -50.666256 3.6274097 28 3198270272632 1 0
36.36184 -56.512745 2.737809 58 3198270274936 1 0
18.228693 -25.500729 -1.4601467 24 3198270274936 1 0
16.492235 -25.640053 -1.597712 19 3198270277240 1 0
22.976994 -32.153168 4.8523498 7 3198270277240 1 0
0 0 0 8 3198270279544 1 0
21.416552 -27.07755 -1.406518 11 3198270279544 1 0
15.383528 -26.716795 -1.0765797 36 3198270281848 1 0
9.547838 -13.369117 4.401994 4 3198270281848 1 0
17.69112 -27.530321 5.966526 28 3198270284152 1 0
18.71895 -26.218794 -0.7496314 45 3198270284152 1 0
0 0 0 4 3198270304888 1 0
28.620068 -36.304382 -0.80692947 47 3198270304888 1 0
16.942408 -26.449707 -0.91414094 48 3198270307192 1 0
4.545467 -7.0984464 -1.6858243 3 3198270309496 1 0
29.535053 -41.508694 0 114 3198270309496 1 0
3.4755218 -4.88301 -1.677837 1 3198270307192 1 0
18.19988 -31.746655 -0.42601708 54 3198270311800 1 0
6.1421366 -8.634845 -1.6485732 6 3198270311800 1 0
6.142652 -9.598845 -1.4505694 23 3198270314104 1 0
29.595093 -37.58615 0.27804196 19 3198270314104 1 0
29.438166 -46.01643 -0.31749323 30 3198270316408 1 0
6.774552 -9.529785 -1.2594613 39 3198270316408 1 0
8.910768 -15.559077 -1.6737368 2 3198270318712 1 0
29.336126 -41.279938 1.1784177 17 3198270318712 1 0
18.173458 -31.743353 0.4258308 71 3198270321016 1 0
10.767008 -16.846695 -1.6321713 35 3198270323320 1 0
29.568619 -37.59751 1.3920403 36 3198270323320 1 0
13.057191 -18.378912 -1.5764964 4 3198270321016 1 0
29.202845 -45.70714 0.94675815 34 3198270325624 1 0
14.822938 -18.853516 -1.5370276 4 3198270325624 1 0
36.218246 -51.026867 3.6441538 28 3198270327928 1 0
44.219276 -69.25467 3.347604 29 3198270330232 1 0
18.139568 -25.564203 -1.4601467 29 3198270330232 1 0
16.430574 -25.741236 -1.6004336 40 3198270332536 1 0
13.354235 -23.349297 -1.5664978 7 3198270327928 1 0
23.411312 -33.003872 4.9683695 8 3198270332536 1 0
0 0 0 8 3198270334840 1 0
21.316967 -27.145857 -1.4061923 11 3198270334840 1 0
15.294141 -26.777273 -1.0768589 40 3198270337144 1 0
9.5234585 -13.433884 4.4123473 4 3198270337144 1 0
17.580103 -27.568682 5.9615035 28 3198270339448 1 0
18.588007 -26.22851 -0.74804956 45 3198270339448 1 0
0 0 0 4 3198270360184 1 0
16.834963 -26.485065 -0.9133264 43 3198270362488 1 0
28.58191 -36.517445 -0.80944264 32 3198270360184 1 0
3.462901 -4.901404 -1.6799936 2 3198270362488 1 0
4.520661 -7.1142697 -1.6858243 3 3198270364792 1 0
29.521517 -41.79777 0 115 3198270364792 1 0
18.164085 -31.942112 -0.42778653 15 3198270367096 1 0
6.114238 -8.659461 -1.649188 7 3198270367096 1 0
0 0 0 15 3198270369400 1 0
29.618914 -37.88776 0.27950656 29 3198270369400 1 0
29.431711 -46.36205 -0.31916705 30 3198270371704 1 0
6.7297807 -9.5371275 -1.2573193 24 3198270371704 1 0
8.895746 -15.659346 -1.6811723 2 3198270374008 1 0
29.32555 -41.571617 1.1838146 26 3198270374008 1 0
18.098095 -31.869202 0.42666897 23 3198270376312 1 0
13.002155 -18.437422 -1.5776124 4 3198270376312 1 0
10.706001 -16.88081 -1.6318458 24 3198270378616 1 0
29.567616 -37.867523 1.3982074 22 3198270378616 1 0
29.175894 -46.018223 0.95108634 35 3198270380920 1 0
14.825811 -18.99325 -1.5441909 4 3198270380920 1 0
13.274619 -23.399242 -1.5667304 7 3198270383224 1 0
36.166405 -51.332523 3.6569445 28 3198270383224 1 0
37.77608 -59.621376 2.8755622 29 3198270385528 1 0
18.077831 -25.666567 -1.4623802 14 3198270385528 1 0
16.312834 -25.754564 -1.597712 29 3198270387832 1 0
23.158821 -32.89062 4.939121 7 3198270387832 1 0
0 0 0 8 3198270390136 1 0
21.204878 -27.198038 -1.4050525 11 3198270390136 1 0
15.192696 -26.816584 -1.0763005 31 3198270392440 1 0
17.454304 -27.583324 5.951459 28 3198270394744 1 0
9.578788 -13.612395 4.45997 3 3198270392440 1 0
18.454924 -26.234362 -0.7463746 45 3198270394744 1 0
0 0 0 4 3198270415480 1 0
28.61623 -36.82542 -0.81405 40 3198270415480 1 0
16.386189 -25.97891 -0.89389396 47 3198270417784 1 0
4.497892 -7.1333246 -1.6866087 4 3198270420088 1 0
3.445771 -4.913462 -1.6799936 1 3198270417784 1 0
29.508615 -42.09053 0 115 3198270420088 1 0
18.254871 -32.36415 -0.43258265 11 3198270422392 1 0
6.0862417 -8.683988 -1.649803 6 3198270422392 1 0
29.658155 -38.21211 0.2811339 30 3198270424696 1 0
29.386955 -46.650646 -0.3204457 30 3198270427000 1 0
6.058567 -9.614637 -1.4465288 3 3198270424696 1 0
0 0 0 6 3198270427000 1 0
8.839076 -15.686832 -1.6808006 2 3198270429304 1 0
29.29953 -41.844067 1.1886535 26 3198270429304 1 0
18.198742 -32.30855 0.43169793 19 3198270431608 1 0
12.942294 -18.489235 -1.5781704 4 3198270431608 1 0
10.655505 -16.931576 -1.6331477 11 3198270433912 1 0
29.881094 -38.54562 1.4193853 15 3198270433912 1 0
29.17268 -46.37029 0.9562523 35 3198270436216 1 0
14.761868 -19.04804 -1.5444467 4 3198270436216 1 0
13.218317 -23.490679 -1.5697535 7 3198270438520 1 0
36.101425 -51.622074 3.6685722 28 3198270438520 1 0
41.1522 -65.454094 3.1499293 29 3198270440824 1 0
18.02476 -25.78191 -1.4653581 9 3198270440824 1 0
16.237713 -25.835024 -1.5991775 25 3198270443128 1 0
23.062065 -32.99729 4.9430203 15 3198270443128 1 0
0 0 0 8 3198270445432 1 0
21.097578 -27.256088 -1.4042383 16 3198270445432 1 0
15.097037 -26.865969 -1.0761609 45 3198270447736 1 0
9.604224 -13.7502775 4.494134 3 3198270447736 1 0
17.341173 -27.617422 5.9457192 28 3198270450040 1 0
18.31516 -26.229769 -0.74442047 40 3198270450040 1 0
0 0 0 4 3198270470776 1 0
28.55347 -37.010582 -0.8159349 32 3198270470776 1 0
16.254913 -25.971672 -0.89168304 56 3198270473080 1 0
3.4285629 -4.925485 -1.6799936 2 3198270473080 1 0
4.4687 -7.1423965 -1.6850398 5 3198270475384 1 0
0 0 0 69 3198270475384 1 0
28.949572 -51.748775 -0.69031626 18 3198270477688 1 0
6.055702 -8.705312 -1.649803 7 3198270477688 1 0
29.660192 -38.493694 0.28243575 30 3198270479992 1 0
29.391836 -47.025356 -0.32230547 30 3198270482296 1 0
6.0141706 -9.619081 -1.4440035 3 3198270479992 1 0
8.795236 -15.738834 -1.6830312 2 3198270484600 1 0
6.6467967 -9.561261 -1.2543206 1 3198270482296 1 0
29.286102 -42.1411 1.1941435 26 3198270484600 1 0
12.883562 -18.544785 -1.5790075 4 3198270486904 1 0
29.03109 -51.96898 0.69301695 10 3198270486904 1 0
10.612242 -16.996336 -1.6357514 5 3198270489208 1 0
29.575861 -38.43278 1.4113563 22 3198270489208 1 0
29.143127 -46.690872 0.96072006 36 3198270491512 1 0
14.70134 -19.109907 -1.5452142 4 3198270491512 1 0
13.1929035 -23.642242 -1.5767303 7 3198270493816 1 0
35.97417 -51.8324 3.674386 28 3198270493816 1 0
40.861115 -65.50906 3.145533 29 3198270496120 1 0
17.943975 -25.862518 -1.4662888 9 3198270496120 1 0
16.13672 -25.879396 -1.5983402 30 3198270498424 1 0
23.041153 -33.219875 4.963982 16 3198270498424 1 0
0 0 0 8 3198270500728 1 0
20.994854 -27.325212 -1.4039127 16 3198270500728 1 0
14.992641 -26.906063 -1.0756025 45 3198270503032 1 0
0 0 0 9 3198270503032 1 0
17.216679 -27.639585 5.9371095 28 3198270505336 1 0
18.181902 -26.23965 -0.7428386 40 3198270505336 1 0
0 0 0 4 3198270526072 1 0
16.136795 -25.993475 -0.8904031 46 3198270528376 1 0
28.534334 -37.26741 -0.81928575 24 3198270526072 1 0
4.4447684 -7.1619306 -1.6858243 3 3198270530680 1 0
3.4061809 -4.9316297 -1.677837 2 3198270528376 1 0
0 0 0 19 3198270530680 1 0
0 0 0 10 3198270532984 1 0
6.026381 -8.730438 -1.6504179 7 3198270532984 1 0
29.652369 -38.772 0.28369114 30 3198270535288 1 0
5.973161 -9.630594 -1.4424882 3 3198270535288 1 0
29.399767 -47.4162 -0.3242583 30 3198270537592 1 0
6.610147 -9.581804 -1.2538923 2 3198270537592 1 0
8.740798 -15.773685 -1.683403 2 3198270539896 1 0
29.273626 -42.446426 1.1998197 27 3198270539896 1 0
29.018217 -52.383484 0.6971612 21 3198270542200 1 0
12.812868 -18.584005 -1.5784495 4 3198270542200 1 0
29.509672 -38.629642 1.4147309 22 3198270544504 1 0
29.133745 -47.045193 0.965886 36 3198270546808 1 0
10.568654 -17.061003 -1.638355 3 3198270544504 1 0
14.640976 -19.171263 -1.5459816 4 3198270546808 1 0
13.10574 -23.681543 -1.5762651 7 3198270549112 1 0
0 0 0 3 3198270549112 1 0
40.52818 -65.48536 3.1375544 29 3198270551416 1 0
17.848679 -25.918676 -1.4659165 14 3198270551416 1 0
16.044184 -25.932169 -1.5981307 25 3198270553720 1 0
0 0 0 8 3198270556024 1 0
22.97008 -33.3655 4.9737315 16 3198270553720 1 0
19.886509 -26.069756 -1.3358501 10 3198270556024 1 0
14.7099085 -26.614922 -1.0619218 52 3198270558328 1 0
0 0 0 9 3198270558328 1 0
17.100613 -27.665295 5.9299345 28 3198270560632 1 0
18.043755 -26.232977 -0.7408845 39 3198270560632 1 0
0 0 0 4 3198270581368 1 0
19.88451 -26.149458 -0.5734163 9 3198270581368 1 0
15.999978 -25.965265 -0.8876104 46 3198270583672 1 0
3.3984864 -4.9556293 -1.6821502 2 3198270583672 1 0
4.4208894 -7.176695 -1.6858243 3 3198270585976 1 0
17.974428 -26.218256 0 78 3198270585976 1 0
17.155165 -31.172901 -0.4142363 48 3198270588280 1 0
5.99944 -8.753765 -1.6510328 7 3198270588280 1 0
5.934671 -9.640385 -1.4409729 23 3198270590584 1 0
19.830856 -26.110415 0.19056103 14 3198270590584 1 0
29.399965 -47.77339 -0.3260251 30 3198270592888 1 0
6.5689974 -9.590786 -1.2521787 2 3198270592888 1 0
8.699265 -15.823904 -1.6856337 2 3198270595192 1 0
29.264149 -42.739212 1.2053099 27 3198270595192 1 0
28.868645 -52.52997 0.6978131 21 3198270597496 1 0
10.523553 -17.116945 -1.6403078 3 3198270599800 1 0
12.822348 -18.73241 -1.5873783 4 3198270597496 1 0
29.13574 -47.405804 0.9712613 36 3198270602104 1 0
14.580888 -19.227024 -1.5464933 4 3198270602104 1 0
29.50481 -38.89464 1.4207817 22 3198270599800 1 0
13.029255 -23.732822 -1.5767303 7 3198270604408 1 0
0 0 0 3 3198270604408 1 0
40.223972 -65.4898 3.1312041 58 3198270606712 1 0
17.77183 -25.995634 -1.4668472 9 3198270606712 1 0
15.957924 -25.990028 -1.5983402 20 3198270609016 1 0
0 0 0 8 3198270611320 1 0
22.84743 -33.430374 4.9717817 8 3198270609016 1 0
14.751456 -26.906912 -1.0715542 39 3198270613624 1 0
0 0 0 9 3198270613624 1 0
16.989292 -27.69687 5.924195 33 3198270615928 1 0
19.761282 -26.08964 -1.3334076 25 3198270611320 1 0
17.913206 -26.235182 -0.73920953 43 3198270615928 1 0
0 0 0 4 3198270636664 1 0
19.752146 -26.164446 -0.5722295 9 3198270636664 1 0
15.894646 -25.997078 -0.8867958 51 3198270638968 1 0
3.3724976 -4.954725 -1.677837 2 3198270638968 1 0
4.3978567 -7.1954293 -1.6866087 3 3198270641272 1 0
0 0 0 11 3198270641272 1 0
5.9688473 -8.774654 -1.6510328 7 3198270643576 1 0
5.896847 -9.654269 -1.4399629 51 3198270645880 1 0
17.088402 -31.309834 -0.41526073 56 3198270643576 1 0
0 0 0 72 3198270645880 1 0
16.24034 -26.597246 -0.18112248 41 3198270648184 1 0
6.531008 -9.60708 -1.2513219 10 3198270648184 1 0
8.640163 -15.84718 -1.68489 2 3198270650488 1 0
29.25639 -43.04947 1.2111721 27 3198270650488 1 0
18.375618 -33.714935 0.44701758 5 3198270652792 1 0
12.756881 -18.777054 -1.5873783 4 3198270652792 1 0
10.467892 -17.160383 -1.6409587 3 3198270655096 1 0
29.48913 -39.15709 1.4265997 22 3198270655096 1 0
29.14291 -47.79063 0.97705555 37 3198270657400 1 0
14.513684 -19.277803 -1.5464933 4 3198270657400 1 0
12.959699 -23.802708 -1.5783582 7 3198270659704 1 0
0 0 0 3 3198270659704 1 0
39.895294 -65.46599 3.1233883 58 3198270662008 1 0
17.698927 -26.083963 -1.4683361 9 3198270662008 1 0
15.827619 -25.980759 -1.5943626 43 3198270664312 1 0
22.712767 -33.48364 4.9678817 8 3198270664312 1 0
19.674894 -26.16485 -1.3337333 25 3198270666616 1 0
14.443578 -26.564894 -1.0559192 38 3198270668920 1 0
0 0 0 9 3198270668920 1 0
0 0 0 8 3198270666616 1 0
16.870005 -27.719028 5.9163027 27 3198270671224 1 0
17.801329 -26.267757 -0.7383721 43 3198270671224 1 0
0 0 0 4 3198270691960 1 0
29.305157 -39.101826 -0.852934 25 3198270691960 1 0
15.793433 -26.03531 -0.886214 51 3198270694264 1 0
3.3659632 -4.982426 -1.6832286 1 3198270694264 1 0
4.3747473 -7.214091 -1.6873932 3 3198270696568 1 0
29.456821 -43.616776 0 40 3198270696568 1 0
16.685804 -30.827593 -0.40808982 47 3198270698872 1 0
5.942605 -8.801988 -1.6522627 7 3198270698872 1 0
5.842546 -9.64086 -1.4349121 48 3198270701176 1 0
29.605167 -39.550053 0.2871318 101 3198270701176 1 0
16.134962 -26.633247 -0.18098299 8 3198270703480 1 0
6.5018816 -9.636413 -1.2521787 31 3198270703480 1 0
8.59237 -15.891256 -1.6863772 2 3198270705784 1 0
29.237875 -43.34693 1.2166623 27 3198270705784 1 0
18.328188 -33.90906 0.44874048 5 3198270708088 1 0
12.697951 -18.831394 -1.5882154 4 3198270708088 1 0
10.424441 -17.224104 -1.6435623 3 3198270710392 1 0
29.483944 -39.435913 1.4329997 23 3198270710392 1 0
29.137396 -48.15897 0.9825007 37 3198270712696 1 0
14.448693 -19.331547 -1.5467491 4 3198270712696 1 0
12.880327 -23.854828 -1.5788232 7 3198270715000 1 0
0 0 0 3 3198270715000 1 0
39.57968 -65.461205 3.1165495 58 3198270717304 1 0
17.612232 -26.152212 -1.4687084 9 3198270717304 1 0
22.595749 -33.562717 4.9678817 8 3198270719608 1 0
15.631453 -25.861502 -1.583686 19 3198270719608 1 0
0 0 0 8 3198270721912 1 0
20.6139 -27.613735 -1.4039127 11 3198270721912 1 0
14.538589 -26.963497 -1.0697393 43 3198270724216 1 0
0 0 0 9 3198270724216 1 0
16.750769 -27.740692 5.9084105 27 3198270726520 1 0
17.689444 -26.299871 -0.7375346 48 3198270726520 1 0
0 0 0 4 3198270747256 1 0
19.430538 -26.115599 -0.56818056 4 3198270747256 1 0
15.739569 -26.151943 -0.8883085 41 3198270749560 1 0
3.3464057 -4.990946 -1.6821502 1 3198270749560 1 0
4.349539 -7.2293177 -1.6873932 3 3198270751864 1 0
25.587334 -38.173843 0 39 3198270751864 1 0
16.598904 -30.924416 -0.40860203 50 3198270754168 1 0
5.9140444 -8.82596 -1.6528776 8 3198270754168 1 0
5.8027234 -9.650993 -1.4333969 54 3198270756472 1 0
29.605309 -39.839367 0.28848016 102 3198270756472 1 0
18.976213 -31.571321 -0.21408765 60 3198270758776 1 0
8.542493 -15.931683 -1.6874925 2 3198270761080 1 0
6.4549274 -9.639223 -1.2496084 16 3198270758776 1 0
29.224312 -43.654755 1.2224315 28 3198270761080 1 0
18.319305 -34.177296 0.4514412 5 3198270763384 1 0
12.627702 -18.86897 -1.5876573 4 3198270763384 1 0
10.362202 -17.25697 -1.6432369 3 3198270765688 1 0
29.477169 -39.71517 1.4393996 23 3198270765688 1 0
18.957335 -31.581509 0.64294666 100 3198270767992 1 0
14.393019 -19.397892 -1.5480282 4 3198270767992 1 0
12.80829 -23.920765 -1.5802186 7 3198270770296 1 0
0 0 0 3 3198270770296 1 0
0 0 0 11 3198270772600 1 0
17.531939 -26.23014 -1.4696391 9 3198270772600 1 0
15.555464 -25.939888 -1.5851514 34 3198270774904 1 0
22.469633 -33.62818 4.965932 8 3198270774904 1 0
20.529282 -27.701578 -1.4047269 16 3198270777208 1 0
14.431185 -26.989407 -1.0687622 39 3198270779512 1 0
0 0 0 34 3198270777208 1 0
16.627544 -27.75511 5.899083 33 3198270781816 1 0
0 0 0 9 3198270779512 1 0
17.577549 -26.331526 -0.73669714 39 3198270781816 1 0
0 0 0 4 3198270802552 1 0
19.25847 -26.073887 -0.56580704 4 3198270802552 1 0
15.570293 -26.076277 -0.8838868 46 3198270804856 1 0
3.3268297 -4.9993896 -1.681072 2 3198270804856 1 0
4.320256 -7.2377205 -1.6858243 2 3198270807160 1 0
29.446266 -44.2643 0 30 3198270807160 1 0
14.3616085 -26.98185 -0.35584462 30 3198270809464 1 0
5.8853884 -8.849842 -1.6534925 8 3198270809464 1 0
5.762902 -9.660967 -1.4318817 51 3198270811768 1 0
29.596664 -40.1195 0.28975877 95 3198270811768 1 0
18.853601 -31.616756 -0.21394816 100 3198270814072 1 0
6.4234424 -9.665008 -1.2500367 13 3198270814072 1 0
8.48496 -15.957888 -1.6871207 2 3198270816376 1 0
29.213379 -43.96967 1.2283869 28 3198270816376 1 0
18.286247 -34.4035 0.45358315 5 3198270818680 1 0
12.566175 -18.919584 -1.5882154 4 3198270818680 1 0
10.308022 -17.303308 -1.6442133 3 3198270820984 1 0
29.47592 -40.00452 1.4461486 15 3198270820984 1 0
18.820377 -31.60282 0.6420391 100 3198270823288 1 0
14.320485 -19.441587 -1.5475166 4 3198270823288 1 0
12.73033 -23.97591 -1.5809163 7 3198270825592 1 0
0 0 0 3 3198270825592 1 0
18.802542 -31.593773 1.4978651 58 3198270827896 1 0
15.456653 -25.980297 -1.5843141 34 3198270830200 1 0
17.449106 -26.304499 -1.4703835 10 3198270827896 1 0
22.30384 -33.633617 4.9552073 8 3198270830200 1 0
18.791412 -31.595982 3.0010471 32 3198270832504 1 0
20.437197 -27.779509 -1.4050525 16 3198270832504 1 0
14.158986 -26.704092 -1.0555004 72 3198270834808 1 0
0 0 0 9 3198270834808 1 0
16.510454 -27.779156 5.891908 27 3198270837112 1 0
17.459024 -26.352718 -0.7355805 39 3198270837112 1 0
0 0 0 4 3198270857296 1 0
19.155514 -26.124826 -0.56545794 4 3198270857296 1 0
3.30299 -5.0013294 -1.677837 2 3198270859600 1 0
15.448608 -26.078867 -0.88214135 45 3198270859600 1 0
4.298963 -7.2595067 -1.6873932 5 3198270861904 1 0
29.379728 -44.500343 0 31 3198270861904 1 0
16.397543 -31.06784 -0.40897453 58 3198270864208 1 0
5.858815 -8.876929 -1.6547223 8 3198270864208 1 0
5.7291436 -9.681025 -1.4318817 18 3198270866512 1 0
29.581696 -40.393604 0.2909909 66 3198270866512 1 0
18.716648 -31.63762 -0.21364595 90 3198270868816 1 0
6.3918557 -9.690691 -1.2504652 11 3198270868816 1 0
8.427347 -15.983886 -1.686749 2 3198270871120 1 0
29.189596 -44.26835 1.233877 28 3198270871120 1 0
18.199614 -34.53081 0.4544213 5 3198270873424 1 0
12.511037 -18.97999 -1.5896106 4 3198270873424 1 0
10.255672 -17.352915 -1.6455151 3 3198270875728 1 0
29.458843 -40.274982 1.4521995 23 3198270875728 1 0
18.6835 -31.623558 0.6411316 100 3198270878032 1 0
14.264315 -19.507568 -1.5487958 4 3198270878032 1 0
12.646562 -24.0202 -1.5809163 7 3198270880336 1 0
0 0 0 3 3198270880336 1 0
18.671824 -31.624798 1.4962368 72 3198270882640 1 0
17.374758 -26.391947 -1.4718724 10 3198270882640 1 0
15.367901 -26.037533 -1.5845234 48 3198270884944 1 0
22.1863 -33.71127 4.9552073 8 3198270884944 1 0
18.652643 -31.613312 2.9964907 40 3198270887248 1 0
14.205208 -27.018728 -1.0659702 39 3198270889552 1 0
19.060156 -26.098108 -1.3166363 15 3198270887248 1 0
16.401394 -27.816278 5.8876038 27 3198270891856 1 0
0 0 0 9 3198270889552 1 0
17.340567 -26.373405 -0.7344639 35 3198270891856 1 0
0 0 0 4 3198270912592 1 0
19.04773 -26.168898 -0.5649693 13 3198270912592 1 0
15.343302 -26.108503 -0.8813268 45 3198270914896 1 0
3.289735 -5.019272 -1.6799936 2 3198270914896 1 0
4.27757 -7.2812324 -1.6889621 4 3198270917200 1 0
29.414936 -44.893707 0 31 3198270917200 1 0
16.251904 -31.054014 -0.40804324 58 3198270919504 1 0
5.825628 -8.89402 -1.6541073 8 3198270919504 1 0
0 0 0 22 3198270921808 1 0
29.574583 -40.68103 0.29231602 39 3198270921808 1 0
18.581802 -31.661366 -0.21336697 90 3198270924112 1 0
6.353634 -9.706288 -1.2496084 4 3198270924112 1 0
8.380727 -16.030853 -1.6886078 2 3198270926416 1 0
29.192549 -44.61089 1.2405767 28 3198270926416 1 0
18.123428 -34.679207 0.45553887 5 3198270928720 1 0
12.442524 -19.020206 -1.5893315 4 3198270928720 1 0
10.211168 -17.41612 -1.6481187 3 3198270931024 1 0
29.440237 -40.545807 1.4582503 24 3198270931024 1 0
18.552776 -31.65408 0.6404335 98 3198270933328 1 0
14.193789 -19.55401 -1.54854 4 3198270933328 1 0
0 0 0 3 3198270935632 1 0
18.54516 -31.662191 1.4949342 65 3198270937936 1 0
17.29127 -26.465815 -1.472617 10 3198270937936 1 0
12.573727 -24.085438 -1.5823116 7 3198270935632 1 0
15.242607 -26.032417 -1.5809646 33 3198270940240 1 0
18.518013 -31.636942 2.9925854 40 3198270942544 1 0
22.048952 -33.75859 4.95082 8 3198270940240 1 0
20.252146 -27.934452 -1.4057038 16 3198270942544 1 0
13.835466 -26.539974 -1.0451701 45 3198270944848 1 0
0 0 0 9 3198270944848 1 0
16.280354 -27.832602 5.878994 27 3198270947152 1 0
17.228733 -26.403633 -0.73362637 39 3198270947152 1 0
28.986013 -40.116264 -0.8638941 25 3198270967888 1 0
15.219852 -26.106636 -0.87946504 50 3198270970192 1 0
0 0 0 4 3198270967888 1 0
3.2784953 -5.0404115 -1.6832286 2 3198270970192 1 0
4.2560773 -7.3028975 -1.690531 3 3198270972496 1 0
29.410685 -45.23085 0 31 3198270972496 1 0
14.046955 -27.070408 -0.35505304 24 3198270974800 1 0
5.7967005 -8.917615 -1.6547223 8 3198270974800 1 0
5.6454425 -9.693355 -1.4278411 3 3198270977104 1 0
29.617317 -41.040257 0.2941526 34 3198270977104 1 0
18.451046 -31.691467 -0.2131345 95 3198270979408 1 0
6.3218803 -9.731743 -1.2500367 3 3198270979408 1 0
8.324718 -16.060009 -1.6886078 2 3198270981712 1 0
29.160795 -44.903687 1.2458807 29 3198270981712 1 0
20.50856 -39.579113 0.51895946 6 3198270984016 1 0
12.384747 -19.07691 -1.5904475 4 3198270984016 1 0
10.156326 -17.461998 -1.6490952 3 3198270986320 1 0
18.426088 -31.690989 0.63987505 100 3198270988624 1 0
29.42711 -40.82672 1.4646502 24 3198270986320 1 0
14.137115 -19.61963 -1.5498191 6 3198270988624 1 0
12.537302 -24.221386 -1.588358 7 3198270990928 1 0
0 0 0 3 3198270990928 1 0
18.41043 -31.685265 1.4929802 72 3198270993232 1 0
17.168348 -26.479074 -1.4700112 15 3198270993232 1 0
15.157662 -26.095827 -1.5815926 38 3198270995536 1 0
21.926659 -33.828686 4.9498453 8 3198270995536 1 0
18.389448 -31.670359 2.9896562 48 3198270997840 1 0
20.163853 -28.01795 -1.4063551 16 3198270997840 1 0
13.750082 -26.602312 -1.0457286 45 3198271000144 1 0
0 0 0 9 3198271000144 1 0
16.165325 -27.858627 5.8725367 27 3198271002448 1 0
17.108206 -26.419975 -0.7324167 48 3198271002448 1 0
0 0 0 4 3198271023184 1 0
18.771336 -26.171242 -0.56217694 4 3198271023184 1 0
15.124817 -26.152573 -0.8792323 55 3198271025488 1 0
3.2546506 -5.0420923 -1.6799936 2 3198271025488 1 0
4.228703 -7.314252 -1.6897466 5 3198271027792 1 0
29.394255 -45.551277 0 31 3198271027792 1 0
17.402325 -33.823135 -0.4428268 48 3198271030096 1 0
5.770017 -8.944312 -1.6559521 8 3198271030096 1 0
5.603914 -9.699095 -1.4258208 3 3198271032400 1 0
29.54962 -41.246582 0.2948965 74 3198271032400 1 0
18.323458 -31.72384 -0.21292527 90 3198271034704 1 0
8.278413 -16.10632 -1.6904668 2 3198271037008 1 0
29.133654 -45.20225 1.2513708 29 3198271037008 1 0
6.2903814 -9.7568655 -1.2504652 4 3198271034704 1 0
0 0 0 12 3198271039312 1 0
12.325537 -19.129461 -1.5912846 4 3198271039312 1 0
10.106291 -17.51402 -1.6507224 3 3198271041616 1 0
29.417097 -41.109577 1.4711665 24 3198271041616 1 0
18.291452 -31.70888 0.6389675 100 3198271043920 1 0
14.134861 -19.758842 -1.5569824 4 3198271043920 1 0
12.454442 -24.264097 -1.588358 7 3198271046224 1 0
0 0 0 3 3198271046224 1 0
18.278303 -31.706322 1.4910263 65 3198271048528 1 0
17.170916 -26.681957 -1.4780146 15 3198271048528 1 0
15.0448265 -26.105732 -1.5790805 38 3198271050832 1 0
21.8114 -33.90312 4.9498453 8 3198271050832 1 0
18.261885 -31.698086 2.9864016 47 3198271053136 1 0
20.082525 -28.10578 -1.4073321 16 3198271053136 1 0
13.703616 -26.734135 -1.0490788 46 3198271055440 1 0
0 0 0 9 3198271055440 1 0
16.047466 -27.87221 5.863927 27 3198271057744 1 0
16.999308 -26.447401 -0.73157924 43 3198271057744 1 0
0 0 0 4 3198271078480 1 0
26.443142 -37.126717 -0.7956203 7 3198271078480 1 0
15.021897 -26.174952 -0.8783014 45 3198271080784 1 0
3.237876 -5.052881 -1.6799936 2 3198271080784 1 0
4.20627 -7.331698 -1.690531 4 3198271083088 1 0
29.389093 -45.877964 0 31 3198271083088 1 0
17.272966 -33.848972 -0.44240773 44 3198271085392 1 0
5.737998 -8.960194 -1.6553372 8 3198271085392 1 0
5.5694637 -9.714345 -1.4253157 3 3198271087696 1 0
29.552912 -41.544025 0.2963146 54 3198271087696 1 0
18.205069 -31.764269 -0.21278578 60 3198271090000 1 0
6.2640676 -9.787948 -1.2517503 5 3198271090000 1 0
8.220635 -16.126945 -1.6897231 2 3198271092304 1 0
29.113083 -45.505356 1.257047 20 3198271092304 1 0
20.322214 -39.88172 0.5211015 13 3198271094608 1 0
12.254608 -19.160769 -1.5904475 4 3198271094608 1 0
10.053079 -17.558403 -1.6516988 3 3198271096912 1 0
29.396318 -41.374832 1.477101 16 3198271096912 1 0
14.067964 -19.806528 -1.5569824 6 3198271099216 1 0
12.384823 -24.331076 -1.589986 7 3198271101520 1 0
18.170216 -31.746254 0.6384788 73 3198271099216 1 0
50.468536 -78.986305 5.458789 28 3198271101520 1 0
18.154644 -31.740461 1.4897237 43 3198271103824 1 0
14.955892 -26.156784 -1.5790805 28 3198271106128 1 0
0 0 0 24 3198271103824 1 0
21.676659 -33.947037 4.945458 8 3198271106128 1 0
18.133883 -31.725573 2.9831471 23 3198271108432 1 0
19.96805 -28.148031 -1.4060295 16 3198271108432 1 0
13.782426 -27.115799 -1.062201 43 3198271110736 1 0
0 0 0 9 3198271110736 1 0
15.93629 -27.899675 5.858187 27 3198271113040 1 0
16.884962 -26.468388 -0.73055565 39 3198271113040 1 0
0 0 0 4 3198271133776 1 0
0 0 0 36 3198271133776 1 0
14.932416 -26.230703 -0.8784178 45 3198271136080 1 0
3.2243521 -5.0706534 -1.6821502 2 3198271136080 1 0
4.182592 -7.349745 -1.6913155 5 3198271138384 1 0
29.37898 -46.216568 0 32 3198271138384 1 0
17.13665 -33.87337 -0.4419421 52 3198271140688 1 0
0 0 0 29 3198271142992 1 0
5.702446 -8.973496 -1.6541073 9 3198271140688 1 0
29.550762 -41.84951 0.29775596 22 3198271142992 1 0
18.258158 -32.116238 -0.21471535 25 3198271145296 1 0
6.2426553 -9.829897 -1.2543206 11 3198271145296 1 0
8.207403 -16.240852 -1.6986458 2 3198271147600 1 0
29.091234 -45.82277 1.2630024 30 3198271147600 1 0
20.065649 -39.720364 0.51807475 20 3198271149904 1 0
12.189788 -19.206797 -1.5907266 4 3198271149904 1 0
9.999602 -17.607254 -1.6530006 3 3198271152208 1 0
29.389977 -41.67324 1.4840827 24 3198271152208 1 0
18.233051 -32.115547 0.6446221 25 3198271154512 1 0
12.308811 -24.391983 -1.5911487 7 3198271156816 1 0
14.003341 -19.862038 -1.557494 6 3198271154512 1 0
50.12623 -79.05744 5.4515796 28 3198271156816 1 0
18.183765 -32.05045 1.5012845 22 3198271159120 1 0
0 0 0 61 3198271159120 1 0
14.801435 -26.097645 -1.5723815 28 3198271161424 1 0
21.551655 -34.012436 4.9439955 8 3198271161424 1 0
18.168535 -32.04532 3.007231 16 3198271163728 1 0
13.6733 -27.135183 -1.0610843 43 3198271166032 1 0
0 0 0 9 3198271166032 1 0
15.823286 -27.927744 5.852447 22 3198271168336 1 0
16.773218 -26.496758 -0.7297182 30 3198271168336 1 0
19.860468 -28.20449 -1.4053781 16 3198271163728 1 0
0 0 0 4 3198271189072 1 0
29.604113 -42.184963 -0.8995668 27 3198271189072 1 0
14.805185 -26.220106 -0.8763232 40 3198271191376 1 0
3.2024846 -5.0753856 -1.6799936 2 3198271191376 1 0
4.156804 -7.364361 -1.6913155 5 3198271193680 1 0
29.370451 -46.562855 0 32 3198271193680 1 0
17.003222 -33.90475 -0.44156957 48 3198271195984 1 0
5.675108 -9.000157 -1.6553372 9 3198271195984 1 0
5.491479 -9.735869 -1.4227903 57 3198271198288 1 0
29.52036 -42.120316 0.29894158 100 3198271198288 1 0
18.3039 -32.462658 -0.2165984 15 3198271200592 1 0
6.193105 -9.828301 -1.2513219 11 3198271200592 1 0
8.15352 -16.27688 -1.6993893 2 3198271202896 1 0
29.063377 -46.138466 1.2688648 30 3198271202896 1 0
19.915897 -39.773296 0.51784194 60 3198271205200 1 0
12.134447 -19.270107 -1.5924008 4 3198271205200 1 0
9.9429245 -17.653051 -1.653977 3 3198271207504 1 0
29.379467 -41.973816 1.4910644 24 3198271207504 1 0
18.27178 -32.45201 0.6500672 12 3198271209808 1 0
13.9394865 -19.921522 -1.5582615 6 3198271209808 1 0
0 0 0 3 3198271212112 1 0
12.227175 -24.446404 -1.5918463 7 3198271212112 1 0
18.24167 -32.42169 1.5156134 15 3198271214416 1 0
0 0 0 4 3198271214416 1 0
21.431936 -34.09269 4.944483 8 3198271216720 1 0
14.753004 -26.230513 -1.5771964 38 3198271216720 1 0
18.235237 -32.433437 3.0374985 16 3198271219024 1 0
19.73175 -28.2362 -1.4034241 11 3198271219024 1 0
13.559654 -27.151941 -1.0598279 35 3198271221328 1 0
0 0 0 9 3198271221328 1 0
15.703376 -27.950214 5.8452725 21 3198271223632 1 0
16.320438 -25.988031 -0.71408534 72 3198271223632 1 0
0 0 0 4 3198271244368 1 0
29.57728 -42.476982 -0.9034762 27 3198271244368 1 0
14.674019 -26.211288 -0.8742287 50 3198271246672 1 0
3.1838977 -5.087066 -1.6799936 2 3198271246672 1 0
4.129892 -7.3794866 -1.6913155 3 3198271248976 1 0
29.23634 -46.72741 0 32 3198271248976 1 0
16.870682 -33.948566 -0.44133675 36 3198271251280 1 0
5.6464715 -9.027476 -1.656567 8 3198271251280 1 0
5.4463577 -9.738457 -1.420265 57 3198271253584 1 0
0 0 0 3 3198271253584 1 0
29.216242 -52.25846 -0.3479709 21 3198271255888 1 0
6.155291 -9.847338 -1.2508935 14 3198271255888 1 0
8.09629 -16.30987 -1.6997612 2 3198271258192 1 0
29.033836 -46.463852 1.2749132 30 3198271258192 1 0
19.80224 -39.905926 0.51863354 47 3198271260496 1 0
12.06472 -19.313839 -1.5924008 4 3198271260496 1 0
9.888905 -17.706203 -1.6556042 3 3198271262800 1 0
29.36473 -42.276546 1.4980462 24 3198271262800 1 0
32.022476 -57.356224 1.1466231 18 3198271265104 1 0
13.867684 -19.971571 -1.5582615 6 3198271265104 1 0
12.142819 -24.497326 -1.5923115 7 3198271267408 1 0
0 0 0 3 3198271267408 1 0
28.628962 -51.313084 2.3939137 53 3198271269712 1 0
16.280626 -26.096659 -1.4327863 61 3198271269712 1 0
14.651277 -26.269176 -1.576359 38 3198271272016 1 0
21.31612 -34.179256 4.9459453 8 3198271272016 1 0
0 0 0 8 3198271274320 1 0
18.166294 -26.194738 -1.2987251 14 3198271274320 1 0
13.267755 -26.805988 -1.0444721 41 3198271276624 1 0
0 0 0 9 3198271276624 1 0
15.58473 -27.971506 5.8380976 26 3198271278928 1 0
16.181396 -25.971235 -0.7120382 61 3198271278928 1 0
0 0 0 4 3198271299664 1 0
29.549343 -42.75434 -0.9071761 18 3198271299664 1 0
14.566907 -26.234385 -0.8732978 50 3198271301968 1 0
3.1823785 -5.1243267 -1.6886201 2 3198271301968 1 0
4.1041074 -7.3938575 -1.6913155 5 3198271304272 1 0
29.338888 -47.25737 0 33 3198271304272 1 0
16.739704 -33.982132 -0.4410108 48 3198271306576 1 0
5.6149254 -9.047131 -1.656567 8 3198271306576 1 0
5.4065566 -9.746999 -1.4187498 54 3198271308880 1 0
18.078373 -26.189793 0.18495834 13 3198271308880 1 0
29.22762 -52.709938 -0.35029566 21 3198271311184 1 0
6.116688 -9.862004 -1.2500367 10 3198271311184 1 0
8.032275 -16.323738 -1.698274 2 3198271313488 1 0
29.021086 -46.806217 1.2815199 31 3198271313488 1 0
19.692833 -40.03582 0.51942515 54 3198271315792 1 0
0 0 0 7 3198271315792 1 0
9.832833 -17.751078 -1.6565807 3 3198271318096 1 0
29.355417 -42.579594 1.5051442 24 3198271318096 1 0
31.41521 -56.732906 1.1319631 17 3198271320400 1 0
13.804682 -20.029716 -1.559029 6 3198271320400 1 0
12.111824 -24.650667 -1.5995208 7 3198271322704 1 0
0 0 0 3 3198271322704 1 0
28.420645 -51.36025 2.3914714 79 3198271325008 1 0
16.147371 -26.08538 -1.4290639 57 3198271325008 1 0
14.532421 -26.271223 -1.5734282 28 3198271327312 1 0
21.188326 -34.239952 4.9439955 8 3198271327312 1 0
0 0 0 8 3198271329616 1 0
18.038488 -26.205317 -1.2961198 34 3198271329616 1 0
13.056131 -26.611681 -1.035119 45 3198271331920 1 0
0 0 0 9 3198271331920 1 0
15.473673 -28.001627 5.8330755 26 3198271334224 1 0
16.075922 -26.00375 -0.7113868 61 3198271334224 1 0
0 0 0 4 3198271354960 1 0
17.983839 -26.21563 -0.55491674 36 3198271354960 1 0
14.454218 -26.246443 -0.87201786 48 3198271357264 1 0
3.1645093 -5.135381 -1.6886201 1 3198271357264 1 0
4.082164 -7.4149513 -1.6928844 7 3198271359568 1 0
29.331787 -47.614494 0 33 3198271359568 1 0
16.600664 -33.996864 -0.440452 40 3198271361872 1 0
5.581436 -9.063189 -1.6559521 8 3198271361872 1 0
5.368959 -9.758702 -1.4177396 53 3198271364176 1 0
17.964998 -26.219217 0.18472587 45 3198271364176 1 0
18.478159 -33.597176 -0.22285202 10 3198271366480 1 0
6.082585 -9.883074 -1.2500367 11 3198271366480 1 0
7.993419 -16.387123 -1.7019918 2 3198271368784 1 0
29.014639 -47.158012 1.2884058 31 3198271368784 1 0
19.889832 -40.789986 0.52831894 14 3198271371088 1 0
11.936851 -19.407185 -1.5932379 24 3198271371088 1 0
9.775685 -17.791712 -1.6572316 3 3198271373392 1 0
29.342321 -42.87478 1.5120096 24 3198271373392 1 0
31.197601 -56.798115 1.1311253 35 3198271375696 1 0
13.742757 -20.086767 -1.5597965 6 3198271375696 1 0
12.030996 -24.6991 -1.5999858 7 3198271378000 1 0
40.006996 -65.10468 4.4501934 28 3198271378000 1 0
28.210691 -51.39382 2.3885405 79 3198271380304 1 0
16.039486 -26.109661 -1.4273888 66 3198271380304 1 0
14.473672 -26.376562 -1.5767777 47 3198271382608 1 0
20.863905 -33.973553 4.895248 7 3198271382608 1 0
0 0 0 8 3198271384912 1 0
17.911053 -26.21033 -1.2933518 43 3198271384912 1 0
12.979862 -26.684532 -1.0362358 53 3198271387216 1 0
0 0 0 9 3198271387216 1 0
15.359979 -28.019285 5.8259006 21 3198271389520 1 0
15.9502535 -25.99661 -0.7097119 61 3198271389520 1 0
0 0 0 4 3198271410256 1 0
29.523314 -43.34453 -0.9154136 18 3198271410256 1 0
14.376496 -26.311878 -0.87259966 48 3198271412560 1 0
3.1413953 -5.1360116 -1.6853851 2 3198271412560 1 0
4.0555644 -7.425064 -1.6920999 4 3198271414864 1 0
29.283627 -47.892796 0 11 3198271414864 1 0
16.471405 -34.019688 -0.44003293 44 3198271417168 1 0
5.5511527 -9.081768 -1.6559521 8 3198271417168 1 0
0 0 0 99 3198271419472 1 0
17.850191 -26.239481 0.18444689 18 3198271419472 1 0
0 0 0 100 3198271421776 1 0
6.053564 -9.910198 -1.2508935 5 3198271421776 1 0
7.927913 -16.392374 -1.6997612 2 3198271424080 1 0
29.020678 -47.52485 1.2957569 31 3198271424080 1 0
24.95248 -51.612854 0.66740656 20 3198271426384 1 0
11.877675 -19.457483 -1.594075 31 3198271426384 1 0
9.721319 -17.835098 -1.658208 3 3198271428688 1 0
29.332302 -43.171974 1.5189914 25 3198271428688 1 0
30.724062 -56.387035 1.1208633 52 3198271430992 1 0
13.685967 -20.149635 -1.5610756 6 3198271430992 1 0
11.954172 -24.754114 -1.600916 7 3198271433296 1 0
39.746635 -65.17511 4.4457746 28 3198271433296 1 0
28.003498 -51.42966 2.3857722 78 3198271435600 1 0
15.932003 -26.133278 -1.4257137 66 3198271435600 1 0
14.368541 -26.3976 -1.5751029 52 3198271437904 1 0
20.644852 -33.874855 4.870874 7 3198271437904 1 0
0 0 0 8 3198271440208 1 0
17.796875 -26.234884 -1.2915606 42 3198271440208 1 0
12.8521185 -26.653124 -1.0333043 57 3198271442512 1 0
0 0 0 9 3198271442512 1 0
15.84656 -26.027182 -0.7090605 66 3198271444816 1 0
15.250759 -28.047531 5.8208785 21 3198271444816 1 0
29.060486 -42.986774 -0.9057101 18 3198271465552 1 0
0 0 0 4 3198271465552 1 0
14.341709 -26.467363 -0.8760905 45 3198271467856 1 0
4.035226 -7.449522 -1.6944534 4 3198271470160 1 0
3.127445 -5.153532 -1.6875417 2 3198271467856 1 0
0 0 0 34 3198271470160 1 0
16.34044 -34.051735 -0.43970698 40 3198271472464 1 0
5.5194173 -9.1010895 -1.6559521 11 3198271472464 1 0
17.727154 -26.255219 0.18412143 31 3198271474768 1 0
0 0 0 22 3198271474768 1 0
18.194517 -33.624336 -0.22220108 57 3198271477072 1 0
6.0189342 -9.931269 -1.2508935 4 3198271477072 1 0
7.8792524 -16.437906 -1.70162 2 3198271479376 1 0
29.036957 -47.926834 1.3039455 32 3198271479376 1 0
24.697847 -51.544537 0.6654043 30 3198271481680 1 0
11.817952 -19.512478 -1.595191 31 3198271481680 1 0
9.668483 -17.886457 -1.6598352 3 3198271483984 1 0
29.324492 -43.48626 1.5264385 25 3198271483984 1 0
30.277979 -56.03301 1.1117183 51 3198271486288 1 0
13.620011 -20.203905 -1.5615873 6 3198271486288 1 0
11.869415 -24.799294 -1.6011486 7 3198271488592 1 0
39.425865 -65.15971 4.4353094 28 3198271488592 1 0
27.801016 -51.484898 2.3838184 52 3198271490896 1 0
15.830343 -26.171638 -1.424783 33 3198271490896 1 0
14.232667 -26.366747 -1.5702881 33 3198271493200 1 0
20.783268 -34.371384 4.9318085 7 3198271493200 1 0
0 0 0 8 3198271495504 1 0
17.682869 -26.263693 -1.2899323 42 3198271495504 1 0
12.848637 -26.88538 -1.0405633 41 3198271497808 1 0
0 0 0 9 3198271497808 1 0
15.13782 -28.072887 5.8151383 21 3198271500112 1 0
15.720461 -26.024149 -0.70747864 66 3198271500112 1 0
0 0 0 4 3198271521296 1 0
17.62826 -26.273222 -0.552264 4 3198271521296 1 0
14.15082 -26.334118 -0.8700397 43 3198271523600 1 0
3.1014893 -5.1512175 -1.6832286 1 3198271523600 1 0
4.0054855 -7.4566517 -1.6928844 4 3198271525904 1 0
29.299229 -48.678673 0 22 3198271525904 1 0
15.273236 -32.114716 -0.4140035 63 3198271528208 1 0
5.493728 -9.130461 -1.6577969 13 3198271528208 1 0
5.247257 -9.7751665 -1.4121838 3 3198271530512 1 0
17.61313 -26.28371 0.18388894 36 3198271530512 1 0
14.449525 -26.927557 -0.17761208 20 3198271532816 1 0
7.8252435 -16.472504 -1.7023636 2 3198271535120 1 0
5.9903793 -9.962443 -1.2521787 5 3198271532816 1 0
29.03018 -48.29524 1.3112036 32 3198271535120 1 0
0 0 0 13 3198271537424 1 0
11.764155 -19.577553 -1.5971442 31 3198271537424 1 0
9.61729 -17.941181 -1.661788 3 3198271539728 1 0
29.314844 -43.801018 1.5338857 25 3198271539728 1 0
30.010422 -56.004402 1.1090655 51 3198271542032 1 0
13.5538435 -20.25796 -1.562099 6 3198271542032 1 0
11.782777 -24.840574 -1.6011486 7 3198271544336 1 0
39.212563 -65.3209 4.4369373 28 3198271544336 1 0
27.59283 -51.528774 2.381376 52 3198271546640 1 0
15.576465 -25.956076 -1.4100791 13 3198271546640 1 0
14.063252 -26.27188 -1.561705 27 3198271548944 1 0
20.665205 -34.44713 4.9322963 7 3198271548944 1 0
31.335102 -58.558277 5.421803 28 3198271551248 1 0
17.573318 -26.298674 -1.2886297 33 3198271551248 1 0
12.915557 -27.269672 -1.0536855 42 3198271553552 1 0
0 0 0 9 3198271553552 1 0
15.021179 -28.090855 5.807964 26 3198271555856 1 0
15.705585 -26.205778 -0.7109216 49 3198271555856 1 0
0 0 0 4 3198271576592 1 0
29.495626 -44.293785 -0.9288869 28 3198271576592 1 0
14.026845 -26.323368 -0.86806154 48 3198271578896 1 0
3.0854647 -5.165319 -1.6843069 2 3198271578896 1 0
3.9831204 -7.4775114 -1.6944534 4 3198271581200 1 0
18.875282 -31.609201 0 82 3198271581200 1 0
15.113296 -32.06653 -0.41269967 72 3198271583504 1 0
5.465875 -9.156369 -1.6590266 14 3198271583504 1 0
5.2075105 -9.782915 -1.4106686 3 3198271585808 1 0
17.494696 -26.305063 0.18360998 36 3198271585808 1 0
17.921755 -33.679916 -0.22173613 47 3198271588112 1 0
5.963717 -9.996954 -1.2538923 10 3198271588112 1 0
7.7693925 -16.503323 -1.7027353 2 3198271590416 1 0
18.851786 -31.61162 0.85645574 75 3198271590416 1 0
15.111669 -32.111507 0.41316533 13 3198271592720 1 0
11.703918 -19.632208 -1.5982603 33 3198271592720 1 0
9.560218 -17.985203 -1.6627644 3 3198271595024 1 0
29.294506 -44.10291 1.5408674 25 3198271595024 1 0
29.904827 -56.27834 1.1124164 51 3198271597328 1 0
13.5515 -20.408237 -1.5700297 7 3198271597328 1 0
11.699393 -24.888779 -1.6016138 7 3198271599632 1 0
0 0 0 36 3198271599632 1 0
27.386553 -51.57536 2.3790963 52 3198271601936 1 0
15.428533 -25.914158 -1.4048676 9 3198271601936 1 0
13.960223 -26.299639 -1.5604489 32 3198271604240 1 0
0 0 0 19 3198271604240 1 0
30.861412 -58.160183 5.374937 28 3198271606544 1 0
17.46595 -26.33654 -1.2874899 28 3198271606544 1 0
12.801605 -27.274782 -1.05215 38 3198271608848 1 0
0 0 0 9 3198271608848 1 0
14.910128 -28.118782 5.8029413 21 3198271611152 1 0
15.536352 -26.129826 -0.70738554 53 3198271611152 1 0
0 0 0 4 3198271631888 1 0
17.42677 -26.368956 -0.5517055 4 3198271631888 1 0
13.925534 -26.354494 -0.86747974 53 3198271634192 1 0
3.0693793 -5.179372 -1.6853851 2 3198271634192 1 0
3.951499 -7.480965 -1.6920999 4 3198271636496 1 0
18.738327 -31.630157 0 92 3198271636496 1 0
5.4338803 -9.175393 -1.6590266 18 3198271638800 1 0
5.17333 -9.801033 -1.4106686 2 3198271641104 1 0
17.380733 -26.332588 0.1833775 36 3198271641104 1 0
15.011426 -32.14083 -0.41297907 72 3198271638800 1 0
17.787281 -33.71043 -0.2215269 57 3198271643408 1 0
5.928785 -10.017711 -1.2538923 10 3198271643408 1 0
7.7218404 -16.551996 -1.704966 2 3198271645712 1 0
18.720964 -31.642815 0.85552526 75 3198271645712 1 0
14.985963 -32.13506 0.4127928 27 3198271648016 1 0
11.655631 -19.707289 -1.6010506 20 3198271648016 1 0
9.49738 -18.018465 -1.6627644 3 3198271650320 1 0
29.290022 -44.431896 1.5487801 17 3198271650320 1 0
30.084793 -57.097115 1.1265179 53 3198271652624 1 0
13.484573 -20.462082 -1.5705414 7 3198271652624 1 0
18.69222 -31.636217 2.139981 63 3198271654928 1 0
11.620874 -24.947565 -1.6027765 7 3198271654928 1 0
27.185871 -51.63174 2.3773053 77 3198271657232 1 0
0 0 0 30 3198271657232 1 0
13.905546 -26.418905 -1.5646358 41 3198271659536 1 0
18.661978 -31.606018 4.506728 54 3198271659536 1 0
30.57467 -58.108788 5.3602915 28 3198271661840 1 0
12.487159 -26.848093 -1.0340023 45 3198271664144 1 0
17.345346 -26.353947 -1.2853731 28 3198271661840 1 0
0 0 0 9 3198271664144 1 0
14.797234 -28.142792 5.7972016 21 3198271666448 1 0
15.408477 -26.1219 -0.70571065 66 3198271666448 1 0
0 0 0 4 3198271687184 1 0
13.811189 -26.360443 -0.8660834 53 3198271689488 1 0
29.589272 -45.113964 -0.94173187 28 3198271687184 1 0
3.0551856 -5.1966953 -1.6875417 2 3198271689488 1 0
3.9326408 -7.508611 -1.6952379 4 3198271691792 1 0
18.609562 -31.664337 0 92 3198271691792 1 0
12.631261 -27.292755 -0.3501172 30 3198271694096 1 0
5.3958125 -9.184081 -1.6571819 26 3198271694096 1 0
0 0 0 40 3198271696400 1 0
17.262407 -26.352945 0.18309852 31 3198271696400 1 0
17.652813 -33.740414 -0.22131768 57 3198271698704 1 0
5.901835 -10.052063 -1.2556058 11 3198271698704 1 0
18.586105 -31.666586 0.8544086 75 3198271701008 1 0
7.6640162 -16.57885 -1.704966 2 3198271701008 1 0
14.855244 -32.147236 0.4122806 32 3198271703312 1 0
11.592827 -19.758179 -1.6018877 4 3198271703312 1 0
29.263893 -44.731277 1.5556453 25 3198271705616 1 0
29.624176 -56.701973 1.1166748 34 3198271707920 1 0
9.438119 -18.058575 -1.6634153 3 3198271705616 1 0
11.543761 -25.009731 -1.6041719 7 3198271710224 1 0
13.417435 -20.515709 -1.571053 7 3198271707920 1 0
18.557444 -31.659931 2.1371903 63 3198271710224 1 0
26.972183 -51.66255 2.3743742 77 3198271712528 1 0
15.344205 -26.186714 -1.4138017 64 3198271712528 1 0
13.761494 -26.368128 -1.5587741 50 3198271714832 1 0
18.533478 -31.640137 4.502341 54 3198271714832 1 0
30.366114 -58.204556 5.359315 28 3198271717136 1 0
17.233578 -26.384218 -1.2839077 38 3198271717136 1 0
12.378306 -26.858843 -1.032746 41 3198271719440 1 0
0 0 0 9 3198271719440 1 0
14.684353 -28.166357 5.791462 21 3198271721744 1 0
0 0 0 4 3198271742480 1 0
15.294984 -26.137562 -0.70468706 57 3198271721744 1 0
29.475248 -45.28401 -0.94312805 28 3198271742480 1 0
13.715403 -26.401396 -0.8658506 48 3198271744784 1 0
3.0350866 -5.204001 -1.6864635 2 3198271744784 1 0
3.9027915 -7.515331 -1.693669 4 3198271747088 1 0
18.474743 -31.687635 0 92 3198271747088 1 0
14.753332 -32.172134 -0.41204777 58 3198271749392 1 0
5.3657117 -9.206275 -1.6577969 33 3198271749392 1 0
5.099297 -9.826345 -1.4091533 57 3198271751696 1 0
17.152872 -26.386213 0.18291254 22 3198271751696 1 0
17.520193 -33.773426 -0.2211317 26 3198271754000 1 0
5.860706 -10.062293 -1.2543206 12 3198271754000 1 0
7.6143913 -16.623606 -1.7068249 2 3198271756304 1 0
18.453321 -31.693256 0.85338503 75 3198271756304 1 0
14.734612 -32.180714 0.41204777 37 3198271758608 1 0
11.5318165 -19.812319 -1.6030037 4 3198271758608 1 0
9.424551 -18.186981 -1.6722027 4 3198271760912 1 0
29.244741 -45.044426 1.5629762 25 3198271760912 1 0
20.520617 -39.613663 0.7787264 66 3198271763216 1 0
13.35226 -20.572466 -1.5718205 7 3198271763216 1 0
11.459712 -25.057137 -1.604637 7 3198271765520 1 0
18.424738 -31.686544 2.1346323 63 3198271765520 1 0
20.601778 -39.798683 1.8258029 28 3198271767824 1 0
15.228607 -26.198662 -1.4115682 60 3198271767824 1 0
13.687725 -26.45148 -1.5608675 41 3198271770128 1 0
18.400978 -31.666878 4.4969788 54 3198271770128 1 0
20.626879 -39.87558 3.6649814 39 3198271772432 1 0
17.123983 -26.417383 -1.282605 42 3198271772432 1 0
0 0 0 9 3198271774736 1 0
12.312705 -26.963705 -1.035119 41 3198271774736 1 0
14.567875 -28.182487 5.784287 21 3198271777040 1 0
15.167517 -26.12854 -0.7030121 57 3198271777040 1 0
0 0 0 4 3198271797776 1 0
29.447199 -45.588196 -0.94731665 19 3198271797776 1 0
13.604853 -26.413567 -0.864687 48 3198271800080 1 0
3.0169027 -5.214564 -1.6864635 2 3198271800080 1 0
3.8783298 -7.532396 -1.6944534 5 3198271802384 1 0
18.345997 -31.720768 0 92 3198271802384 1 0
14.632668 -32.20523 -0.41181496 72 3198271804688 1 0
5.331565 -9.221527 -1.6571819 23 3198271804688 1 0
5.048627 -9.81233 -1.4046078 49 3198271806992 1 0
17.045485 -26.4224 0.18274981 13 3198271806992 1 0
17.38573 -33.802364 -0.22092247 15 3198271809296 1 0
5.8275356 -10.086133 -1.2547491 7 3198271809296 1 0
7.5563173 -16.650084 -1.7068249 2 3198271811600 1 0
18.322578 -31.722849 0.8524545 80 3198271811600 1 0
14.627149 -32.242878 0.4121875 46 3198271813904 1 0
11.476555 -19.87664 -1.604957 4 3198271813904 1 0
9.364653 -18.22686 -1.6728536 4 3198271816208 1 0
29.210764 -45.33782 1.5696088 25 3198271816208 1 0
20.360289 -39.64236 0.77788866 82 3198271818512 1 0
13.28469 -20.62566 -1.5723321 7 3198271818512 1 0
18.296062 -31.719534 2.1325393 63 3198271820816 1 0
11.421621 -25.206104 -1.6116136 7 3198271820816 1 0
20.453606 -39.852573 1.8249888 86 3198271823120 1 0
15.109121 -26.2032 -1.4089624 60 3198271823120 1 0
13.619014 -26.545301 -1.563589 46 3198271825424 1 0
18.268518 -31.69308 4.4916167 54 3198271825424 1 0
0 0 0 34 3198271827728 1 0
17.010044 -26.443384 -1.2809767 42 3198271827728 1 0
12.381642 -27.367094 -1.0489392 42 3198271830032 1 0
0 0 0 9 3198271830032 1 0
15.08021 -26.188257 -0.7031982 57 3198271832336 1 0
14.453258 -28.201649 5.7778296 26 3198271832336 1 0
0 0 0 4 3198271853072 1 0
29.443283 -45.933132 -0.9523429 29 3198271853072 1 0
13.538027 -26.510748 -0.8663161 43 3198271855376 1 0
2.9948475 -5.2183814 -1.6843069 2 3198271855376 1 0
3.8573632 -7.5563684 -1.6968068 4 3198271857680 1 0
18.217243 -31.75339 0 92 3198271857680 1 0
14.505385 -32.223286 -0.41139588 65 3198271859984 1 0
5.305242 -9.250367 -1.6590266 19 3198271859984 1 0
5.0089355 -9.819289 -1.4030925 51 3198271862288 1 0
16.925114 -26.437944 0.1824476 9 3198271862288 1 0
17.251278 -33.830772 -0.22071323 52 3198271864592 1 0
5.788338 -10.099513 -1.2538923 6 3198271864592 1 0
7.5095844 -16.701786 -1.7094274 2 3198271866896 1 0
18.19583 -31.758856 0.8517101 80 3198271866896 1 0
14.486636 -32.23172 0.41139588 32 3198271869200 1 0
11.409086 -19.920044 -1.6052359 4 3198271869200 1 0
29.188015 -45.65173 1.5769397 25 3198271871504 1 0
9.302782 -18.26299 -1.673179 4 3198271871504 1 0
20.205454 -39.681114 0.77726036 82 3198271873808 1 0
13.214762 -20.67527 -1.572588 7 3198271873808 1 0
11.33193 -25.242176 -1.611381 7 3198271876112 1 0
18.163414 -31.745079 2.1299813 63 3198271876112 1 0
20.288994 -39.87386 1.8227092 67 3198271878416 1 0
15.051288 -26.314743 -1.4121265 32 3198271878416 1 0
13.462886 -26.468065 -1.556262 13 3198271880720 1 0
18.130188 -31.708405 4.4847918 54 3198271880720 1 0
20.268488 -39.862244 3.6506612 39 3198271883024 1 0
16.898281 -26.472279 -1.2795112 42 3198271883024 1 0
12.279498 -27.395555 -1.0483809 38 3198271885328 1 0
0 0 0 9 3198271885328 1 0
14.345815 -28.234386 5.7742424 26 3198271887632 1 0
0 0 0 4 3198271908368 1 0
14.98077 -26.226847 -0.70282596 66 3198271887632 1 0
29.44805 -46.29547 -0.95771825 29 3198271908368 1 0
13.526673 -26.718367 -0.8715524 43 3198271910672 1 0
2.9766138 -5.2288036 -1.6843069 2 3198271910672 1 0
3.829192 -7.566287 -1.6960223 4 3198271912976 1 0
18.167624 -31.924557 0 30 3198271912976 1 0
14.384671 -32.25546 -0.41116306 65 3198271915280 1 0
5.27292 -9.26883 -1.6590266 17 3198271915280 1 0
4.971048 -9.829632 -1.4020823 48 3198271917584 1 0
16.811275 -26.4631 0.18221512 9 3198271917584 1 0
17.118645 -33.86223 -0.22052725 52 3198271919888 1 0
5.749118 -10.112741 -1.2530354 6 3198271919888 1 0
7.4512386 -16.727898 -1.7094274 2 3198271922192 1 0
18.09869 -31.846514 0.85236144 21 3198271922192 1 0
