# .PCD v.7 - Point Cloud Data file format
VERSION .7
FIELDS x y z rgb timestamp_ns device_id active
SIZE 4 4 4 4 8 1 1
TYPE F F F F F U U
COUNT 1 1 1 1 1 1 1
WIDTH 985
HEIGHT 1
VIEWPOINT 0 0 0 1 0 0 0
POINTS 985               
DATA ascii
2.3453372 -75.047035 1.7471548 49 3198679674416 1 0
-4.660407 -69.82791 0.8147361 39 3198679676720 1 0
0 0 0 19 3198679679024 1 0
0.5095177 -16.38006 -1.1459594 25 3198679676720 1 1
6.024458 -75.315445 2.1988952 72 3198679679024 1 0
1.2959319 -16.230942 -1.0435312 50 3198679681328 1 1
-1.196467 -66.227104 1.156187 56 3198679681328 1 0
-1.1343457 -16.885265 -0.9855727 3 3198679683632 1 1
2.299017 -74.96168 4.3676357 28 3198679683632 1 0
-1.210801 -65.95816 2.6876576 29 3198679685936 1 0
0.5038357 -16.506405 -0.76925254 1 3198679685936 1 1
-0.30711314 -16.598377 -0.87003297 2 3198679688240 1 1
0 0 0 1 3198679688240 1 0
0 0 0 8 3198679690544 1 0
1.3089011 -16.514467 -0.6749267 1 3198679690544 1 1
-2.798388 -41.296062 -1.4453975 31 3198679692848 1 0
0 0 0 9 3198679692848 1 0
0 0 0 29 3198679695152 1 0
0.5003792 -16.711985 -0.38905275 1 3198679695152 1 1
-0.07551909 -3.7295983 -1.7394967 1 3198679715888 1 0
5.880173 -75.72848 -1.3258244 25 3198679715888 1 0
-0.92408454 -45.31139 -1.3189648 28 3198679718192 1 0
0.17636529 -6.1913714 -1.7339088 6 3198679718192 1 0
-0.18187267 -8.854735 -1.7713314 3 3198679720496 1 0
2.1180818 -74.73799 0 72 3198679720496 1 0
-4.4971538 -64.55516 -0.7533643 10 3198679722800 1 0
0.3010961 -10.679237 -1.6621011 4 3198679722800 1 0
-0.2322943 -11.151586 -1.4197599 10 3198679725104 1 0
5.8347545 -75.714226 0.44135672 37 3198679725104 1 0
-0.94705707 -45.149307 -0.262466 15 3198679727408 1 0
0.46057537 -16.506056 -1.7786678 2 3198679727408 1 0
2.0742612 -74.72698 1.7395246 48 3198679729712 1 0
-1.1797746 -16.829353 -1.5748442 2 3198679729712 1 0
-4.902442 -69.78728 0.81445676 19 3198679732016 1 0
0.45255783 -16.389715 -1.1465174 23 3198679732016 1 1
5.781339 -75.59515 2.2064588 36 3198679734320 1 0
-0.35589713 -16.620886 -1.3571594 4 3198679734320 1 1
1.2398751 -16.243326 -1.0440428 46 3198679736624 1 1
-1.4427203 -66.92226 1.1684037 38 3198679736624 1 0
2.0309374 -74.733734 4.353915 28 3198679738928 1 0
-1.1932793 -16.881203 -0.9855727 3 3198679738928 1 1
-1.4558722 -66.632805 2.7153385 29 3198679741232 1 0
0.44848177 -16.591942 -0.7731612 1 3198679741232 1 1
-0.36566526 -16.625158 -0.87149835 2 3198679743536 1 1
0 0 0 1 3198679743536 1 0
0 0 0 8 3198679745840 1 0
1.230418 -16.243954 -0.6636915 1 3198679745840 1 1
-2.9428053 -41.29003 -1.4455372 23 3198679748144 1 0
0 0 0 9 3198679748144 1 0
0 0 0 29 3198679750448 1 0
0.44278052 -16.741611 -0.38970414 1 3198679750448 1 1
2.231593 -30.100794 -0.52685326 12 3198679771184 1 0
-1.0780859 -45.120014 -1.3134958 19 3198679773488 1 0
0.15480347 -6.1958013 -1.734987 6 3198679773488 1 0
-0.213192 -8.865807 -1.7736847 4 3198679775792 1 0
1.8189597 -73.24942 0 46 3198679775792 1 0
-0.08853736 -3.729312 -1.7394967 1 3198679771184 1 0
-3.1366944 -42.854446 -0.5002406 5 3198679778096 1 0
0.26348627 -10.676277 -1.6614863 8 3198679778096 1 0
5.4925537 -74.70509 0.43535882 71 3198679780400 1 0
-0.27192995 -11.166566 -1.4217802 10 3198679780400 1 0
0.40264615 -16.519505 -1.779953 3 3198679782704 1 0
-1.1025697 -44.993732 -0.2615826 15 3198679782704 1 0
-1.2424651 -16.86877 -1.5789338 2 3198679785008 1 0
1.803751 -74.46999 1.733383 48 3198679785008 1 0
-5.144856 -69.70566 0.8137117 19 3198679787312 1 0
0.39498994 -16.411161 -1.1479125 20 3198679787312 1 1
-0.41497904 -16.623505 -1.3574848 11 3198679789616 1 1
5.6240916 -77.138504 2.250909 39 3198679789616 1 0
-1.6680409 -66.41293 1.1596076 57 3198679791920 1 0
1.182394 -16.251614 -1.0442986 46 3198679791920 1 1
-1.254313 -16.888792 -0.98627037 3 3198679794224 1 1
1.7559491 -74.37322 4.33252 28 3198679794224 1 0
-1.6879956 -66.399445 2.706057 29 3198679796528 1 0
0.38923496 -16.593437 -0.7731612 1 3198679796528 1 1
-0.4276995 -16.723574 -0.87673193 2 3198679798832 1 1
0 0 0 1 3198679798832 1 0
0 0 0 8 3198679801136 1 0
0 0 0 1 3198679801136 1 0
-3.0923133 -41.29514 -1.4460956 23 3198679803440 1 0
0 0 0 9 3198679803440 1 0
0 0 0 29 3198679805744 1 0
0.38287765 -16.759089 -0.39007634 1 3198679805744 1 1
2.1159124 -30.03297 -0.5255269 8 3198679826480 1 0
-1.2387185 -44.955894 -1.3088413 19 3198679828784 1 0
-0.10250335 -3.739834 -1.7445682 1 3198679826480 1 0
0.13222086 -6.200177 -1.7360654 6 3198679828784 1 0
1.5676334 -74.0154 0 47 3198679831088 1 0
-0.24566504 -8.86889 -1.7744693 3 3198679831088 1 0
-3.2961795 -42.886604 -0.5007528 10 3198679833392 1 0
0.22475317 -10.68507 -1.6627162 44 3198679833392 1 0
-0.31286392 -11.1774025 -1.4232954 11 3198679835696 1 0
-1.2617868 -44.845493 -0.2607457 14 3198679838000 1 0
5.211125 -74.584915 0.43454516 35 3198679835696 1 0
-1.3115283 -16.967402 -1.5886 2 3198679840304 1 0
0.34319204 -16.544714 -1.7825233 3 3198679838000 1 0
1.5266308 -74.11621 1.7250084 70 3198679840304 1 0
0.33591765 -16.42445 -1.1487496 21 3198679842608 1 1
-5.396449 -69.68262 0.81366515 19 3198679842608 1 0
-0.47573447 -16.649796 -1.359763 15 3198679844912 1 1
5.318733 -76.76739 2.2395058 38 3198679844912 1 0
-1.9035399 -66.28257 1.1574436 38 3198679847216 1 0
-1.3168377 -16.908064 -0.9876657 1 3198679849520 1 1
1.1247108 -16.267712 -1.0450662 48 3198679847216 1 1
1.4838802 -74.13551 4.318334 28 3198679849520 1 0
-1.9158406 -66.041405 2.691728 29 3198679851824 1 0
0.32632855 -16.422947 -0.7651578 1 3198679851824 1 1
-0.4883472 -16.749886 -0.8781974 2 3198679854128 1 1
0 0 0 1 3198679854128 1 0
0 0 0 8 3198679856432 1 0
1.1209817 -16.352024 -0.6677622 1 3198679856432 1 1
0 0 0 9 3198679858736 1 0
-3.2416325 -41.311756 -1.4470727 24 3198679858736 1 0
0 0 0 29 3198679861040 1 0
0.32343245 -16.768341 -0.39026242 1 3198679861040 1 1
-0.11555719 -3.7394536 -1.7445682 1 3198679881776 1 0
0 0 0 37 3198679884080 1 0
0.110553786 -6.1967487 -1.734987 6 3198679884080 1 0
5.046363 -75.37976 -1.3187039 25 3198679881776 1 0
-0.2761261 -8.856221 -1.7721158 2 3198679886384 1 0
1.304887 -73.71245 0 46 3198679886384 1 0
0.18768707 -10.685785 -1.6627162 41 3198679888688 1 0
-3.43916 -42.803146 -0.49991468 4 3198679888688 1 0
4.93092 -74.27124 0.4326156 35 3198679890992 1 0
-0.35192758 -11.18815 -1.4248106 10 3198679890992 1 0
0.2858335 -16.533873 -1.7812381 2 3198679893296 1 0
-1.41151 -44.676952 -0.25979254 14 3198679893296 1 0
-1.3748168 -17.022326 -1.5941767 1 3198679895600 1 0
1.2648333 -73.75319 1.7164476 70 3198679895600 1 0
-5.6370754 -69.675606 0.81380486 19 3198679897904 1 0
0.2796912 -16.441467 -1.1498657 20 3198679897904 1 1
5.0654435 -76.94079 2.2440438 38 3198679900208 1 0
-0.5332643 -16.660017 -1.3607395 11 3198679900208 1 1
-2.1292748 -66.23569 1.1567456 38 3198679902512 1 0
1.068984 -16.27147 -1.0450662 42 3198679902512 1 1
-1.3762388 -16.923365 -0.9888285 3 3198679904816 1 1
1.224584 -73.784805 4.2976365 28 3198679904816 1 0
-2.1735833 -67.03713 2.7325983 29 3198679907120 1 0
0.27248347 -16.555803 -0.7712999 1 3198679907120 1 1
-0.5443107 -16.716188 -0.8765226 2 3198679909424 1 1
0 0 0 1 3198679909424 1 0
0 0 0 8 3198679911728 1 0
1.0589468 -16.256031 -0.6636915 1 3198679911728 1 1
-3.3842227 -41.332405 -1.4481895 24 3198679914032 1 0
0 0 0 9 3198679914032 1 0
0.2664729 -16.753345 -0.38989022 1 3198679916336 1 1
0 0 0 29 3198679916336 1 0
-0.12770905 -3.7318034 -1.7411872 1 3198679937072 1 0
1.9165154 -30.126503 -0.52692306 4 3198679937072 1 0
-0.8338703 -24.263395 -0.7065509 32 3198679939376 1 1
0.08990304 -6.19323 -1.7339088 5 3198679939376 1 0
-0.30589223 -8.863092 -1.7736847 3 3198679941680 1 0
1.0545977 -73.38442 0 23 3198679941680 1 0
0.15218621 -10.698208 -1.6645608 35 3198679943984 1 0
-5.328648 -63.657032 -0.743679 10 3198679943984 1 0
-0.3894903 -11.190876 -1.4253157 11 3198679946288 1 0
4.6675944 -74.05179 0.431244 34 3198679946288 1 0
-1.5555524 -44.50807 -0.2588394 14 3198679948592 1 0
0.23067948 -16.55462 -1.78338 3 3198679948592 1 0
-1.7001659 -20.204445 -1.892713 1 3198679950896 1 0
1.0136153 -73.50911 1.7106782 69 3198679950896 1 0
-5.8608923 -69.52869 0.8123148 19 3198679953200 1 0
0.22443967 -16.450294 -1.1504238 20 3198679953200 1 1
-0.590887 -16.697966 -1.363994 5 3198679955504 1 1
0 0 0 3 3198679955504 1 0
-2.3475626 -66.06824 1.1539531 37 3198679957808 1 0
-1.4463934 -17.069803 -0.9976656 3 3198679960112 1 1
0.9709987 -73.521 4.2820554 28 3198679960112 1 0
-2.5164192 -70.24463 2.8636758 29 3198679962416 1 0
1.0149477 -16.290928 -1.0460895 40 3198679957808 1 1
0.21609995 -16.544647 -0.7707415 1 3198679962416 1 1
-0.6020607 -16.73819 -0.87777865 2 3198679964720 1 1
0 0 0 1 3198679964720 1 0
0 0 0 8 3198679967024 1 0
0 0 0 1 3198679967024 1 0
-3.5268335 -41.33653 -1.4487479 24 3198679969328 1 0
0 0 0 9 3198679969328 1 0
0 0 0 29 3198679971632 1 0
0.210485 -16.866121 -0.3924957 1 3198679971632 1 1
-0.1411446 -3.742203 -1.7462586 1 3198679992368 1 0
4.452284 -74.067 -1.2951779 23 3198679992368 1 0
-0.9134168 -24.124493 -0.7025946 31 3198679994672 1 1
0.068411484 -6.2050614 -1.7371436 7 3198679994672 1 0
-0.33712628 -8.86981 -1.7752538 5 3198679996976 1 0
0.7965607 -73.21567 0 68 3198679996976 1 0
-5.531009 -63.410923 -0.7410248 10 3198679999280 1 0
0.114884 -10.702626 -1.6651758 27 3198679999280 1 0
-0.42885512 -11.197379 -1.4263258 12 3198680001584 1 0
4.3950534 -73.832054 0.4298724 34 3198680001584 1 0
-1.2041183 -31.320333 -0.18216862 28 3198680003888 1 0
-1.7720734 -20.214256 -1.8942001 3 3198680006192 1 0
0.17301625 -16.567255 -1.7846652 2 3198680003888 1 0
0.7533084 -73.15232 1.7023035 68 3198680006192 1 0
-6.108105 -69.5596 0.8129201 19 3198680008496 1 0
-0.6485506 -16.679867 -1.3626922 19 3198680010800 1 1
0.16713758 -16.462948 -1.1512609 20 3198680008496 1 1
-2.6078036 -66.81895 1.1672169 38 3198680013104 1 0
4.3531537 -73.85249 2.1530485 33 3198680010800 1 0
0.9585442 -16.302341 -1.0466012 42 3198680013104 1 1
-2.9259334 -33.154747 -1.938355 9 3198680015408 1 0
0.7111753 -73.19652 4.2629857 28 3198680015408 1 0
-2.597355 -66.05811 2.6933565 29 3198680017712 1 0
0.15857647 -16.569273 -0.7718583 1 3198680017712 1 1
-0.6601692 -16.728004 -0.87736 2 3198680020016 1 1
0 0 0 1 3198680020016 1 0
0 0 0 8 3198680022320 1 0
0 0 0 1 3198680022320 1 0
-3.6732259 -41.34786 -1.4495854 24 3198680024624 1 0
0 0 0 9 3198680024624 1 0
0 0 0 29 3198680026928 1 0
0.15182564 -16.890745 -0.393054 1 3198680026928 1 1
4.1815085 -73.86647 -1.2914083 47 3198680047664 1 0
-0.9994284 -24.169104 -0.70399094 21 3198680049968 1 1
0.046796486 -6.205262 -1.7371436 6 3198680049968 1 0
-0.15390791 -3.7344432 -1.7428777 1 3198680047664 1 0
-0.36811924 -8.872503 -1.7760382 5 3198680052272 1 0
0.53900033 -72.80601 0 45 3198680052272 1 0
-5.750215 -63.38339 -0.7409317 10 3198680054576 1 0
-0.46777856 -11.199792 -1.4268309 12 3198680056880 1 0
0.07778637 -10.706913 -1.6657907 20 3198680054576 1 0
4.1401243 -73.8588 0.42994213 69 3198680056880 1 0
0.11587049 -16.579685 -1.7859504 2 3198680059184 1 0
0 0 0 19 3198680059184 1 0
-1.8417418 -20.208029 -1.8942001 3 3198680061488 1 0
0.49936596 -72.894554 1.6962551 67 3198680061488 1 0
-6.350972 -69.57801 0.8133858 39 3198680063792 1 0
0.110642135 -16.483377 -1.152656 18 3198680063792 1 1
-0.7063057 -16.689491 -1.3636686 22 3198680066096 1 1
4.572231 -82.382286 2.401249 42 3198680066096 1 0
0.9031411 -16.3135 -1.0471128 38 3198680068400 1 1
0 0 0 10 3198680070704 1 0
-2.842934 -66.957466 1.1697999 58 3198680068400 1 0
0.45933083 -72.934975 4.247637 28 3198680070704 1 0
-2.8054063 -65.64558 2.6769109 29 3198680073008 1 0
0.10208804 -16.573713 -0.7720444 1 3198680073008 1 1
-0.7177816 -16.741623 -0.8781974 2 3198680075312 1 1
0 0 0 1 3198680075312 1 0
0 0 0 8 3198680077616 1 0
-3.8144279 -41.347115 -1.4500043 24 3198680079920 1 0
0 0 0 9 3198680079920 1 0
0 0 0 29 3198680082224 1 0
0.094864495 -16.919153 -0.3937054 1 3198680082224 1 1
-0.16629092 -3.7339122 -1.7428777 1 3198680102960 1 0
3.934833 -73.84798 -1.2908498 23 3198680102960 1 0
-1.972634 -44.149242 -1.2861507 18 3198680105264 1 0
0 0 0 1 3198680077616 1 0
0.026189959 -6.209235 -1.7382219 5 3198680105264 1 0
-0.39784417 -8.875146 -1.7768227 4 3198680107568 1 0
0.29565796 -72.599396 0 67 3198680107568 1 0
-2.9816258 -31.689884 -0.37055895 6 3198680109872 1 0
0.042109035 -10.722922 -1.6682503 18 3198680109872 1 0
-0.5052416 -11.198164 -1.4268309 11 3198680112176 1 0
3.9321814 -74.6152 0.43426618 35 3198680112176 1 0
-1.9928005 -44.026176 -0.25614265 14 3198680114480 1 0
-1.9174962 -20.284992 -1.9020075 3 3198680116784 1 0
0.25319916 -72.53592 1.6878804 67 3198680116784 1 0
-6.5765367 -69.46465 0.8123148 38 3198680119088 1 0
0.060315695 -16.587933 -1.7868072 2 3198680114480 1 0
0.05515492 -16.487646 -1.152935 17 3198680119088 1 1
-0.762617 -16.687014 -1.3636686 4 3198680121392 1 1
4.8327694 -92.730835 2.7023942 34 3198680121392 1 0
-3.0636606 -66.823616 1.1676358 58 3198680123696 1 0
0.84797066 -16.31646 -1.0471128 36 3198680123696 1 1
-3.0169342 -31.718859 -1.855565 27 3198680126000 1 0
0.21109448 -72.56873 4.2262416 28 3198680126000 1 0
-3.0736444 -66.617805 2.7169666 58 3198680128304 1 0
-0.77586377 -16.763025 -0.8794534 2 3198680130608 1 1
0.045823324 -16.581957 -0.77241665 1 3198680128304 1 1
0 0 0 1 3198680130608 1 0
0 0 0 8 3198680132912 1 0
0 0 0 1 3198680132912 1 0
-3.0398204 -31.763424 -1.1142712 14 3198680135216 1 0
0 0 0 9 3198680135216 1 0
0 0 0 29 3198680137520 1 0
0.036921144 -16.923378 -0.39379844 1 3198680137520 1 1
-0.17967156 -3.7405512 -1.7462586 1 3198680158256 1 0
3.5541391 -71.3927 -1.2477075 21 3198680158256 1 0
-2.1215365 -44.034256 -1.2830089 9 3198680160560 1 0
0.0045127217 -6.2054367 -1.7371436 6 3198680160560 1 0
-0.42920044 -8.881539 -1.7783916 3 3198680162864 1 0
0.04199029 -72.17599 0 44 3198680162864 1 0
-3.1023288 -31.782785 -0.37176964 9 3198680165168 1 0
0.004680518 -10.726956 -1.6688652 22 3198680165168 1 0
-0.54394203 -11.188406 -1.4258208 10 3198680167472 1 0
-2.140624 -43.899097 -0.25544524 14 3198680169776 1 0
0.00241379 -16.595997 -1.7876639 2 3198680169776 1 0
3.6807435 -74.81224 0.43533558 35 3198680167472 1 0
-1.9890697 -20.286102 -1.902751 3 3198680172080 1 0
0.0000000000000044273692 -72.30443 1.6824833 44 3198680172080 1 0
-6.8279634 -69.53282 0.8133858 58 3198680174384 1 0
-0.002399205 -16.49572 -1.153493 16 3198680174384 1 1
-0.82242817 -16.716105 -1.3662722 2 3198680176688 1 1
4.498176 -92.5235 2.695878 34 3198680176688 1 0
-3.3225245 -67.3318 1.1767111 39 3198680178992 1 0
0.79178345 -16.33527 -1.0481361 31 3198680178992 1 1
-3.1335151 -31.767744 -1.8590534 9 3198680181296 1 0
-0.042079564 -72.32944 4.2122884 28 3198680181296 1 0
-3.4803302 -70.11544 2.8600936 87 3198680183600 1 0
-0.012070407 -16.597998 -0.7731612 1 3198680183600 1 1
0 0 0 1 3198680185904 1 0
0 0 0 8 3198680188208 1 0
-0.835366 -16.780163 -0.88050014 2 3198680185904 1 1
0.80407286 -16.790813 -0.6848593 1 3198680188208 1 1
-4.1063004 -41.383427 -1.4522378 24 3198680190512 1 0
0 0 0 9 3198680190512 1 0
0 0 0 29 3198680192816 1 0
-0.022351611 -17.075363 -0.39733443 2 3198680192816 1 1
-0.19254085 -3.7362807 -1.7445682 1 3198680213552 1 0
1.4068012 -30.394827 -0.53111166 4 3198680213552 1 0
-3.3670375 -65.153435 -1.8986809 23 3198680215856 1 0
-0.017169612 -6.2131186 -1.7393003 6 3198680215856 1 0
-0.4602002 -8.879987 -1.7783916 4 3198680218160 1 0
-0.20896216 -71.83569 0 43 3198680218160 1 0
-4.213772 -41.664623 -0.48752856 4 3198680220464 1 0
-0.032811865 -10.742718 -1.6713248 18 3198680220464 1 0
-0.5829935 -11.186439 -1.4258208 10 3198680222768 1 0
3.419395 -74.82064 0.43531233 71 3198680222768 1 0
-2.2850795 -43.72359 -0.25446883 7 3198680225072 1 0
-0.055543672 -16.603859 -1.7885207 2 3198680225072 1 0
-0.25144035 -72.03206 1.6761558 22 3198680227376 1 0
-2.0602717 -20.282997 -1.9031228 3 3198680227376 1 0
-7.070232 -69.504585 0.8133392 58 3198680229680 1 0
-0.060023524 -16.507582 -1.1543301 16 3198680229680 1 1
-0.88790673 -16.848494 -1.3773378 4 3198680231984 1 1
3.653464 -80.9753 2.3590095 43 3198680231984 1 0
0.73529595 -16.349897 -1.0489037 31 3198680234288 1 1
-3.699576 -70.00764 1.2236929 65 3198680234288 1 0
-3.412409 -33.401253 -1.9553316 9 3198680236592 1 0
-3.7248454 -70.09887 2.8599308 87 3198680238896 1 0
-0.07007557 -16.613836 -0.77390563 1 3198680238896 1 1
-0.89372206 -16.773155 -0.8802908 2 3198680241200 1 1
-0.29319012 -71.993416 4.192754 28 3198680236592 1 0
0 0 0 1 3198680241200 1 0
0 0 0 8 3198680243504 1 0
-4.253591 -41.396675 -1.453215 24 3198680245808 1 0
0 0 0 9 3198680245808 1 0
0.7502425 -16.901321 -0.68925565 1 3198680243504 1 1
0 0 0 29 3198680248112 1 0
-0.08208997 -17.103172 -0.39798582 4 3198680248112 1 1
-0.20558172 -3.735586 -1.7445682 1 3198680269296 1 0
-3.6587691 -66.307014 -1.9326587 23 3198680271600 1 0
2.0449016 -47.792984 -0.83499295 8 3198680269296 1 0
-0.038857337 -6.213021 -1.7393003 5 3198680271600 1 0
-0.4905443 -8.866577 -1.7760382 3 3198680273904 1 0
-0.45897192 -71.71853 0 21 3198680273904 1 0
-4.3446107 -41.51043 -0.48589882 4 3198680276208 1 0
-0.070207275 -10.726728 -1.6688652 26 3198680276208 1 0
-0.6222583 -11.188297 -1.4263258 10 3198680278512 1 0
3.1664658 -75.02795 0.43645146 72 3198680278512 1 0
-2.4301176 -43.57956 -0.2536784 7 3198680280816 1 0
-0.1135288 -16.60754 -1.7889491 2 3198680280816 1 0
-2.132309 -20.287565 -1.9042381 3 3198680283120 1 0
-7.311549 -69.46755 0.8131995 58 3198680285424 1 0
-0.11770224 -16.515251 -1.1548882 16 3198680285424 1 1
-0.9393313 -16.713936 -1.3665977 4 3198680287728 1 1
-0.4657474 -66.71232 1.5523958 35 3198680283120 1 0
3.2721872 -78.618614 2.2900069 41 3198680287728 1 0
-3.9432507 -69.982315 1.2234834 65 3198680290032 1 0
0.67871594 -16.36433 -1.0496712 30 3198680290032 1 1
-3.5373747 -33.46856 -1.9599826 9 3198680292336 1 0
-0.5081606 -67.18823 3.9129887 28 3198680292336 1 0
-3.9620554 -69.953766 2.8545573 87 3198680294640 1 0
-0.12812985 -16.621483 -0.7742779 1 3198680294640 1 1
-0.9531717 -16.785887 -0.88112813 2 3198680296944 1 1
0 0 0 1 3198680296944 1 0
0 0 0 8 3198680299248 1 0
0.6718088 -16.428629 -0.669879 1 3198680299248 1 1
-4.401024 -41.4094 -1.4541923 24 3198680301552 1 0
0 0 0 9 3198680301552 1 0
0 0 0 29 3198680303856 1 0
-0.14318307 -17.270731 -0.401894 4 3198680303856 1 1
1.8766474 -47.763866 -0.83436465 8 3198680324592 1 0
-3.8944175 -66.365685 -1.9347532 23 3198680326896 1 0
-0.2186201 -3.7348456 -1.7445682 1 3198680324592 1 0
-0.060582127 -6.216699 -1.7403785 6 3198680326896 1 0
-0.5224128 -8.880473 -1.7791761 3 3198680329200 1 0
-0.69815755 -70.58855 0 41 3198680329200 1 0
-4.479157 -41.399574 -0.48478127 32 3198680331504 1 0
-0.10772944 -10.734323 -1.670095 24 3198680331504 1 0
-0.66130894 -11.186057 -1.4263258 11 3198680333808 1 0
2.9070256 -75.10249 0.43682343 72 3198680333808 1 0
-0.17174564 -16.630903 -1.7915194 2 3198680336112 1 0
-2.577491 -43.490955 -0.25321347 6 3198680336112 1 0
-2.2022526 -20.27208 -1.9034945 3 3198680338416 1 0
-0.70062405 -66.90222 1.5568624 17 3198680338416 1 0
-7.545341 -69.36208 0.8122682 58 3198680340720 1 0
-0.1756047 -16.53868 -1.1565623 22 3198680340720 1 1
3.098271 -81.266525 2.3668058 43 3198680343024 1 0
-4.1841655 -69.91223 1.2225062 64 3198680345328 1 0
-0.9995689 -16.742393 -1.3692013 2 3198680343024 1 1
0.62189263 -16.374577 -1.0501828 23 3198680345328 1 1
-3.658516 -33.495705 -1.9623083 9 3198680347632 1 0
-0.78881377 -71.35873 4.1560097 28 3198680347632 1 0
-4.2050157 -69.91956 2.853743 87 3198680349936 1 0
-0.18605939 -16.612944 -0.77390563 1 3198680349936 1 1
-1.0194517 -16.91005 -0.88782716 2 3198680352240 1 1
0 0 0 1 3198680352240 1 0
0 0 0 8 3198680354544 1 0
0.61804265 -16.526728 -0.6737869 1 3198680354544 1 1
-4.5525246 -41.457367 -1.4564258 32 3198680356848 1 0
0 0 0 9 3198680356848 1 0
0 0 0 29 3198680359152 1 0
-0.8237192 -69.91622 -1.627024 20 3198680359152 1 0
-0.23098241 -3.7232049 -1.7394967 1 3198680379888 1 0
1.0975921 -30.663689 -0.53557944 4 3198680379888 1 0
-2.565414 -41.25481 -1.2029518 8 3198680382192 1 0
-0.5536523 -8.88251 -1.7799605 3 3198680384496 1 0
-0.082333066 -6.220301 -1.7414569 6 3198680382192 1 0
-0.94439274 -70.573685 0 62 3198680384496 1 0
-7.3309426 -65.615265 -0.7686374 10 3198680386800 1 0
-0.1454124 -10.749689 -1.6725546 19 3198680386800 1 0
-0.70084757 -11.191602 -1.427336 11 3198680389104 1 0
2.5463202 -72.313965 0.42055008 32 3198680389104 1 0
-4.05885 -64.66364 -0.37656552 14 3198680391408 1 0
-2.2765534 -20.29593 -1.9064687 3 3198680393712 1 0
-0.22979729 -16.630203 -1.7915194 2 3198680391408 1 0
-0.9265029 -66.35157 1.5441142 34 3198680393712 1 0
-7.7829494 -69.29557 0.81180257 58 3198680396016 1 0
-0.23350328 -16.549936 -1.1573994 42 3198680396016 1 1
-1.060268 -16.77461 -1.3721305 4 3198680398320 1 1
2.599265 -75.05921 2.1857464 35 3198680398320 1 0
-4.4274206 -69.88523 1.2222967 64 3198680400624 1 0
0.5651436 -16.388617 -1.0509503 24 3198680400624 1 1
-3.7772052 -33.4986 -1.9632385 9 3198680402928 1 0
-1.0349355 -71.1519 4.1441493 28 3198680402928 1 0
-4.447786 -69.884514 2.852929 87 3198680405232 1 0
-1.0805069 -16.93828 -0.8895019 2 3198680407536 1 1
-0.24422432 -16.624178 -0.774464 1 3198680405232 1 1
0 0 0 1 3198680407536 1 0
0 0 0 8 3198680409840 1 0
0.5581832 -16.464874 -0.6711816 1 3198680409840 1 1
-4.685054 -41.333973 -1.4526566 24 3198680412144 1 0
0 0 0 29 3198680414448 1 0
0 0 0 9 3198680412144 1 0
-1.061172 -69.48109 -1.6169744 20 3198680414448 1 0
-0.2446887 -3.7332282 -1.7445682 1 3198680435184 1 0
0.99067837 -30.67133 -0.53564924 4 3198680435184 1 0
-2.71386 -41.31343 -1.20493 8 3198680437488 1 0
-0.5846546 -8.880524 -1.7799605 3 3198680439792 1 0
-0.10398105 -6.2161245 -1.7403785 5 3198680437488 1 0
-1.1746742 -69.61809 0 60 3198680439792 1 0
-7.551236 -65.51378 -0.7677527 21 3198680442096 1 0
-0.18300219 -10.753068 -1.6731696 25 3198680442096 1 0
-0.7406947 -11.200965 -1.4288512 10 3198680444400 1 0
2.2987006 -72.47433 0.42143348 32 3198680444400 1 0
-4.2795177 -64.57325 -0.37612382 14 3198680446704 1 0
-0.28791496 -16.633276 -1.7919478 2 3198680446704 1 0
-2.346928 -20.283905 -1.9060969 3 3198680449008 1 0
-1.1650865 -66.747765 1.5534195 17 3198680449008 1 0
-8.024328 -69.26401 0.811756 58 3198680451312 1 0
-0.29141235 -16.557 -1.1579574 48 3198680451312 1 1
-1.1201428 -16.790697 -1.3737577 4 3198680453616 1 1
2.3267918 -74.73213 2.175972 69 3198680453616 1 0
-4.669738 -69.845406 1.2218779 64 3198680455920 1 0
0.5083041 -16.402458 -1.0517178 22 3198680455920 1 1
-3.8982656 -33.52091 -1.9653314 9 3198680458224 1 0
-1.2089049 -67.02351 3.903919 28 3198680458224 1 0
-4.690898 -69.8566 2.8524406 87 3198680460528 1 0
-0.30225205 -16.623224 -0.774464 1 3198680460528 1 1
-1.1382849 -16.914476 -0.8884552 2 3198680462832 1 1
0 0 0 1 3198680462832 1 0
0 0 0 8 3198680465136 1 0
0.50289315 -16.53863 -0.67411256 1 3198680465136 1 1
-4.816777 -41.210163 -1.4488875 24 3198680467440 1 0
0 0 0 29 3198680469744 1 0
0 0 0 9 3198680467440 1 0
0 0 0 11 3198680469744 1 0
-0.25746888 -3.7287347 -1.7428777 1 3198680490480 1 0
0.8841852 -30.69459 -0.5359983 4 3198680490480 1 0
-4.46138 -64.474464 -1.8808776 22 3198680492784 1 0
-0.12567873 -6.215724 -1.7403785 5 3198680492784 1 0
-0.6159212 -8.882341 -1.780745 3 3198680495088 1 0
-7.7949753 -65.61412 -0.76924276 10 3198680497392 1 0
-1.4369816 -70.56137 0 62 3198680495088 1 0
-0.22077943 -10.764218 -1.6750143 18 3198680497392 1 0
-0.7800645 -11.20227 -1.4293563 13 3198680499696 1 0
2.018959 -71.53431 0.4159238 31 3198680499696 1 0
-4.493757 -64.39831 -0.3751939 14 3198680502000 1 0
-0.3462223 -16.644098 -1.793233 2 3198680502000 1 0
-2.4167745 -20.26768 -1.9053534 3 3198680504304 1 0
-1.3840868 -66.075615 1.5378797 34 3198680504304 1 0
-8.272695 -69.291176 0.8124079 58 3198680506608 1 0
-1.1815389 -16.826454 -1.3770124 4 3198680508912 1 1
-0.34937358 -16.56386 -1.1585156 27 3198680506608 1 1
2.058291 -74.46402 2.167943 68 3198680508912 1 0
-4.910989 -69.79277 1.2212496 64 3198680511216 1 0
-4.027605 -33.610184 -1.971378 9 3198680513520 1 0
0.45137492 -16.416103 -1.0524852 21 3198680511216 1 1
-1.4558318 -67.62173 3.939035 28 3198680513520 1 0
-4.9302073 -69.77601 2.8498354 87 3198680515824 1 0
-0.36053583 -16.634052 -0.7750224 1 3198680515824 1 1
-1.200424 -16.954231 -0.890758 2 3198680518128 1 1
0 0 0 1 3198680518128 1 0
0 0 0 8 3198680520432 1 0
0.4463423 -16.584232 -0.6759037 1 3198680520432 1 1
0 0 0 9 3198680522736 1 0
-4.9433923 -41.05022 -1.443862 15 3198680522736 1 0
0 0 0 29 3198680525040 1 0
0 0 0 1 3198680525040 1 0
-0.2717948 -3.745892 -1.75133 1 3198680545776 1 0
0.77693444 -30.693491 -0.5359285 4 3198680545776 1 0
-0.14764883 -6.2268 -1.7436135 5 3198680548080 1 0
-3.1129665 -42.81681 -1.2493802 18 3198680548080 1 0
-0.64692265 -8.880137 -1.780745 5 3198680550384 1 0
-1.6784124 -70.35198 0 61 3198680550384 1 0
-9.776413 -79.910736 -0.93724686 28 3198680552688 1 0
-0.2585419 -10.771285 -1.6762441 21 3198680552688 1 0
1.7655864 -71.39297 0.41506362 30 3198680554992 1 0
-0.8194524 -11.203436 -1.4298613 10 3198680554992 1 0
-3.1458757 -42.92415 -0.25014478 6 3198680557296 1 0
-0.4045121 -16.65074 -1.7940898 2 3198680557296 1 0
-1.6342658 -66.86993 1.5564902 17 3198680559600 1 0
-9.949787 -80.937195 0.94935364 28 3198680561904 1 0
-2.4904194 -20.282837 -1.9075841 3 3198680559600 1 0
-0.40738624 -16.570517 -1.1590736 20 3198680561904 1 1
1.7900493 -74.127 2.1579359 67 3198680564208 1 0
-5.153108 -69.755264 1.2209005 64 3198680566512 1 0
0.39435664 -16.429552 -1.0532528 21 3198680566512 1 1
-4.1497912 -33.63555 -1.9737035 9 3198680568816 1 0
-1.7553942 -70.155136 4.086941 28 3198680568816 1 0
-1.2420259 -16.846083 -1.3789651 4 3198680564208 1 1
-5.1722627 -69.73845 2.8490212 58 3198680571120 1 0
-0.41950208 -16.668642 -0.7766975 1 3198680571120 1 1
-1.2593019 -16.945953 -0.89054865 2 3198680573424 1 1
0 0 0 1 3198680573424 1 0
0 0 0 8 3198680575728 1 0
0.3861103 -16.4858 -0.671833 1 3198680575728 1 1
-5.067474 -40.877995 -1.4384177 23 3198680578032 1 0
0 0 0 9 3198680578032 1 0
0 0 0 29 3198680580336 1 0
-1.7526774 -68.06701 -1.5844059 38 3198680580336 1 0
-0.28294393 -3.719617 -1.7394967 1 3198680601072 1 0
-3.2675714 -42.87346 -1.2513584 27 3198680603376 1 0
0 0 0 36 3198680601072 1 0
-0.16917402 -6.2185454 -1.7414569 5 3198680603376 1 0
-0.6782148 -8.881736 -1.7815294 3 3198680605680 1 0
-1.8430498 -67.3868 0 18 3198680605680 1 0
-10.092262 -80.169785 -0.94069266 14 3198680607984 1 0
-0.29613915 -10.770317 -1.6762441 21 3198680607984 1 0
-0.8585547 -11.200507 -1.4298613 10 3198680610288 1 0
1.5163677 -71.3987 0.41506362 30 3198680610288 1 0
-3.284357 -42.765343 -0.2492846 6 3198680612592 1 0
-2.5622027 -20.281923 -1.9083276 3 3198680614896 1 0
-0.4631839 -16.669104 -1.7962317 2 3198680612592 1 0
-1.880181 -67.311516 1.566912 18 3198680614896 1 0
-10.2292385 -80.87816 0.9490742 85 3198680617200 1 0
-0.4688095 -16.696632 -1.1680024 8 3198680617200 1 1
-1.3041993 -16.88537 -1.3825451 2 3198680619504 1 1
1.5257547 -73.86496 2.1501396 66 3198680619504 1 0
-5.3947163 -69.71293 1.2204816 64 3198680621808 1 0
0.33708626 -16.434818 -1.0535086 19 3198680621808 1 1
-4.2706957 -33.648594 -1.9753314 9 3198680624112 1 0
-5.4147353 -69.708015 2.8485327 87 3198680626416 1 0
-0.47791287 -16.675064 -0.77706975 1 3198680626416 1 1
-1.3199962 -16.961367 -0.89159536 2 3198680628720 1 1
0 0 0 1 3198680628720 1 0
-2.000612 -70.16055 4.0876384 28 3198680624112 1 0
0 0 0 8 3198680631024 1 0
0.32856178 -16.487047 -0.671833 1 3198680631024 1 1
-5.193448 -40.729195 -1.433811 23 3198680633328 1 0
0 0 0 9 3198680633328 1 0
0 0 0 29 3198680635632 1 0
-0.92494076 -31.629913 -0.7363249 4 3198680635632 1 0
-0.2959261 -3.7186065 -1.7394967 2 3198680656368 1 0
-3.4153013 -42.837875 -1.2506602 9 3198680658672 1 0
-0.19099794 -6.2217674 -1.7425351 5 3198680658672 1 0
0.5638822 -30.766146 -0.5371153 29 3198680656368 1 0
-0.7089014 -8.875404 -1.780745 5 3198680660976 1 0
-2.1671739 -70.26259 0 20 3198680660976 1 0
-9.908943 -76.55616 -0.8986916 13 3198680663280 1 0
-0.33410004 -10.781069 -1.6780889 21 3198680663280 1 0
-0.89796364 -11.201397 -1.4303664 11 3198680665584 1 0
1.3044617 -73.50719 0.4272919 33 3198680665584 1 0
-5.1233664 -63.793518 -0.3719625 14 3198680667888 1 0
-0.52086973 -16.651484 -1.7945181 2 3198680667888 1 0
-2.6345232 -20.284704 -1.9094429 3 3198680670192 1 0
-2.2093372 -70.30225 1.6367015 20 3198680670192 1 0
-10.518198 -80.893524 0.94967955 28 3198680672496 1 0
-0.5347697 -16.938179 -1.185023 5 3198680672496 1 1
-1.3653785 -16.908531 -1.3848233 3 3198680674800 1 1
1.2618016 -73.51404 2.1397834 65 3198680674800 1 0
-5.636092 -69.669754 1.2200629 64 3198680677104 1 0
0.27991974 -16.447868 -1.0542761 19 3198680677104 1 1
-4.3917413 -33.661198 -1.9769592 9 3198680679408 1 0
-5.6564116 -69.66877 2.8477185 87 3198680681712 1 0
-0.53855664 -16.749172 -0.78060615 3 3198680681712 1 1
-2.244867 -70.13319 4.0864754 28 3198680679408 1 0
-1.3931192 -17.127855 -0.90059716 2 3198680684016 1 1
0 0 0 1 3198680684016 1 0
0 0 0 8 3198680686320 1 0
0.27100924 -16.488092 -0.671833 1 3198680686320 1 1
0 0 0 9 3198680688624 1 0
-5.321562 -40.603798 -1.4300418 23 3198680688624 1 0
0 0 0 29 3198680690928 1 0
-0.8017931 -24.492247 -0.5702261 2 3198680690928 1 1
-0.30920485 -3.7211637 -1.7411872 1 3198680711664 1 0
0.4573748 -30.827911 -0.5381624 12 3198680711664 1 0
-5.2851963 -63.493435 -1.8542306 22 3198680713968 1 0
-0.21258317 -6.217213 -1.7414569 6 3198680713968 1 0
-0.7405299 -8.880693 -1.782314 4 3198680716272 1 0
-2.4106383 -70.20262 0 20 3198680716272 1 0
-10.143951 -76.27925 -0.8958512 26 3198680718576 1 0
-0.37173095 -10.779838 -1.6780889 23 3198680718576 1 0
-0.93738925 -11.202148 -1.4308715 10 3198680720880 1 0
1.0436469 -73.215324 0.42557156 67 3198680720880 1 0
-5.327305 -63.552032 -0.3706606 14 3198680723184 1 0
-0.5789911 -16.649565 -1.7945181 2 3198680723184 1 0
-2.705314 -20.275385 -1.9094429 3 3198680725488 1 0
-2.3132105 -66.241684 1.5423462 34 3198680725488 1 0
-10.809508 -80.92371 0.95047116 85 3198680727792 1 0
-0.59179413 -16.87639 -1.1808376 2 3198680727792 1 1
-1.4280744 -16.947361 -1.3884034 1 3198680730096 1 1
1.0004264 -73.17018 2.12966 64 3198680730096 1 0
-5.8775687 -69.62973 1.2197138 64 3198680732400 1 0
0.22261226 -16.45673 -1.0547878 19 3198680732400 1 1
-4.5219445 -33.74065 -1.9825406 9 3198680734704 1 0
-5.8975425 -69.6247 2.8467414 87 3198680737008 1 0
-2.4889555 -70.10497 4.085313 28 3198680734704 1 0
-0.5971612 -16.751184 -0.78079224 3 3198680737008 1 1
0 0 0 68 3198680739312 1 0
0 0 0 1 3198680739312 1 0
0 0 0 8 3198680741616 1 0
-5.4445972 -40.446312 -1.4251559 23 3198680743920 1 0
0 0 0 9 3198680743920 1 0
0.2134534 -16.48894 -0.671833 1 3198680741616 1 1
0 0 0 29 3198680746224 1 0
0 0 0 24 3198680746224 1 0
-0.32219225 -3.7200618 -1.7411872 1 3198680766960 1 0
0.35470796 -31.265224 -0.54577166 8 3198680766960 1 0
-0.234284 -6.216433 -1.7414569 6 3198680769264 1 0
-5.476041 -63.12008 -1.8438745 22 3198680769264 1 0
-0.7711852 -8.874146 -1.7815294 3 3198680771568 1 0
-2.5177586 -66.548386 0 17 3198680771568 1 0
0 0 0 12 3198680773872 1 0
-0.41025737 -10.802172 -1.6817783 21 3198680773872 1 0
-0.976831 -11.202762 -1.4313766 10 3198680776176 1 0
0.78535926 -72.96654 0.42410696 66 3198680776176 1 0
-5.5122185 -63.110664 -0.36819637 13 3198680778480 1 0
-0.63786584 -16.667313 -1.7966601 2 3198680778480 1 0
-2.7782338 -20.2816 -1.91093 3 3198680780784 1 0
-2.533831 -65.95748 1.5359256 34 3198680780784 1 0
-11.080507 -80.80227 0.9494933 85 3198680783088 1 0
-0.65100765 -16.882198 -1.1813956 3 3198680783088 1 1
0 0 0 95 3198680785392 1 0
0.7423221 -72.90935 2.12198 94 3198680785392 1 0
-6.119535 -69.59683 1.2195044 64 3198680787696 1 0
0.1653665 -16.477364 -1.0560669 17 3198680787696 1 1
-4.646225 -33.772133 -1.9853313 9 3198680790000 1 0
-2.733497 -70.091866 4.08508 28 3198680790000 1 0
-6.1391373 -69.58777 2.8460903 87 3198680792304 1 0
-0.65625525 -16.764967 -0.78153676 3 3198680792304 1 1
-2.8037994 -31.728645 -1.6693077 33 3198680794608 1 0
0 0 0 1 3198680794608 1 0
0 0 0 8 3198680796912 1 0
0.15589496 -16.489584 -0.671833 1 3198680796912 1 1
-5.2875566 -38.26889 -1.349075 21 3198680799216 1 0
0 0 0 9 3198680799216 1 0
0 0 0 29 3198680801520 1 0
-0.9608548 -24.186369 -0.56324714 44 3198680801520 1 1
-0.3348503 -3.715304 -1.7394967 1 3198680822256 1 0
0.24955896 -31.77418 -0.5546375 9 3198680822256 1 0
-5.72258 -63.391273 -1.8523688 22 3198680824560 1 0
-0.25614047 -6.219426 -1.7425351 6 3198680824560 1 0
-0.8021571 -8.871401 -1.7815294 5 3198680826864 1 0
-2.734679 -66.16751 0 17 3198680826864 1 0
0 0 0 28 3198680829168 1 0
-0.44812527 -10.804623 -1.6823932 21 3198680829168 1 0
-1.0162884 -11.203235 -1.4318817 10 3198680831472 1 0
0.5278903 -72.58885 0.42189842 65 3198680831472 1 0
-5.8341885 -64.2104 -0.37472895 14 3198680833776 1 0
-0.69720346 -16.692799 -1.7996588 2 3198680833776 1 0
-2.8484585 -20.267836 -1.9105582 3 3198680836080 1 0
-2.9377031 -70.09148 1.632421 20 3198680836080 1 0
-11.360821 -80.75122 0.94935364 57 3198680838384 1 0
-0.71278405 -16.947598 -1.1861391 3 3198680838384 1 1
-2.0969656 -22.967749 -1.8827739 22 3198680840688 1 0
0.48554268 -72.57165 2.1120892 62 3198680840688 1 0
-6.3595223 -69.54319 1.2189459 64 3198680842992 1 0
-4.769106 -33.791294 -1.9874243 9 3198680845296 1 0
0.10790101 -16.485825 -1.0565785 17 3198680842992 1 1
-2.972382 -69.94625 4.077173 28 3198680845296 1 0
-6.3798156 -69.54204 2.8451133 58 3198680847600 1 0
-0.7152826 -16.774551 -0.78209513 3 3198680847600 1 1
-2.9178255 -31.754465 -1.6711918 39 3198680849904 1 0
0 0 0 1 3198680849904 1 0
0 0 0 8 3198680852208 1 0
0.09869213 -16.549976 -0.6742754 1 3198680852208 1 1
-5.434571 -38.345192 -1.3524253 21 3198680854512 1 0
0 0 0 9 3198680854512 1 0
0 0 0 29 3198680856816 1 0
-1.0461385 -24.202845 -0.5637124 21 3198680856816 1 1
-0.34781712 -3.7141123 -1.7394967 3 3198680877552 1 0
0 0 0 50 3198680877552 1 0
0 0 0 37 3198680879856 1 0
-0.2780207 -6.222342 -1.7436135 6 3198680879856 1 0
-0.833486 -8.872452 -1.782314 4 3198680882160 1 0
-2.9695709 -66.245476 0 17 3198680882160 1 0
-5.752903 -40.046146 -0.47099823 56 3198680884464 1 0
-0.4860153 -10.806941 -1.6830081 24 3198680884464 1 0
-1.054272 -11.187768 -1.4303664 11 3198680886768 1 0
0.27361232 -72.35426 0.42052683 64 3198680886768 1 0
-0.7556478 -16.694237 -1.8000872 2 3198680889072 1 0
-6.5514016 -69.414345 -0.40522987 19 3198680889072 1 0
-2.9220295 -20.27748 -1.9124172 3 3198680891376 1 0
-3.0452096 -67.06072 1.5620733 36 3198680891376 1 0
-11.650049 -80.762535 0.949959 57 3198680893680 1 0
-0.76449263 -16.781574 -1.1746991 13 3198680893680 1 1
-2.1797595 -22.988071 -1.8850521 20 3198680895984 1 0
0.23141141 -72.32101 2.1047583 30 3198680895984 1 0
-6.599966 -69.49667 1.218527 64 3198680898288 1 0
-4.661721 -32.217323 -1.8957973 18 3198680900592 1 0
0.05039066 -16.498075 -1.057346 17 3198680898288 1 1
-3.2157881 -69.919495 4.076243 28 3198680900592 1 0
-0.7742007 -16.779934 -0.78246737 1 3198680902896 1 1
-6.621766 -69.51138 2.8447876 87 3198680902896 1 0
-3.0347216 -31.807709 -1.6745412 33 3198680905200 1 0
0 0 0 8 3198680907504 1 0
0.040773097 -16.49027 -0.671833 1 3198680907504 1 1
-5.578159 -38.39324 -1.3547984 21 3198680909808 1 0
0 0 0 1 3198680905200 1 0
0 0 0 9 3198680909808 1 0
0 0 0 29 3198680912112 1 0
-2.0609758 -44.111927 -1.0275794 15 3198680912112 1 0
-0.36007845 -3.7056592 -1.7361158 2 3198680932296 1 0
0 0 0 14 3198680932296 1 0
0 0 0 9 3198680934600 1 0
-0.2999244 -6.225181 -1.7446917 5 3198680934600 1 0
-0.8644516 -8.869489 -1.782314 4 3198680936904 1 0
-9.028607 -61.32676 -0.72165406 9 3198680939208 1 0
-3.239987 -67.04576 0 18 3198680936904 1 0
-0.524501 -10.820971 -1.6854677 24 3198680939208 1 0
-1.0944763 -11.195867 -1.4318817 10 3198680941512 1 0
0.020915672 -71.90279 0.41789985 31 3198680941512 1 0
-6.7620935 -69.068596 -0.4033468 19 3198680943816 1 0
-0.81372327 -16.687525 -1.7996588 2 3198680943816 1 0
-2.993375 -20.271097 -1.9127889 3 3198680946120 1 0
-3.2517328 -66.48651 1.5489529 35 3198680946120 1 0
-11.940665 -80.78072 0.9506574 57 3198680948424 1 0
-0.81778806 -16.671196 -1.1671653 7 3198680948424 1 1
-0.020937413 -71.97752 2.0947511 30 3198680950728 1 0
-2.2627208 -23.008097 -1.8873303 23 3198680950728 1 0
-6.840946 -69.45729 1.2182478 64 3198680953032 1 0
-0.0072004185 -16.502144 -1.0576019 16 3198680953032 1 1
-4.752484 -32.054703 -1.8871926 13 3198680955336 1 0
-3.4590435 -69.89189 4.0753126 28 3198680955336 1 0
-6.8635798 -69.4799 2.844462 87 3198680957640 1 0
-0.83276886 -16.77713 -0.78246737 1 3198680957640 1 1
0 0 0 1 3198680959944 1 0
-3.1488788 -31.828724 -1.676216 39 3198680959944 1 0
0 0 0 8 3198680962248 1 0
-0.016890662 -16.590229 -0.6759037 1 3198680962248 1 1
-4.783367 -32.134132 -1.1345128 15 3198680964552 1 0
0 0 0 9 3198680964552 1 0
-3.293832 -65.58757 -1.5281092 17 3198680966856 1 0
-0.37482744 -3.7224145 -1.7445682 2 3198680987592 1 0
0 0 0 29 3198680966856 1 0
-0.18612127 -71.092926 -1.2409359 21 3198680987592 1 0
-6.3396072 -62.862385 -1.8387545 22 3198680989896 1 0
-0.32149896 -6.2202473 -1.7436135 6 3198680989896 1 0
-0.8955355 -8.866404 -1.782314 3 3198680992200 1 0
-3.4163723 -65.90351 0 17 3198680992200 1 0
-4.845653 -32.130463 -0.37828863 29 3198680994504 1 0
-0.5627113 -10.823009 -1.6860827 25 3198680994504 1 0
-1.1342762 -11.195893 -1.4323868 10 3198680996808 1 0
-0.22764324 -70.50244 0.40976316 29 3198680996808 1 0
-7.0016193 -69.004524 -0.40311432 19 3198680999112 1 0
-0.872783 -16.688522 -1.8000872 2 3198680999112 1 0
-3.0661917 -20.268267 -1.9135325 3 3198681001416 1 0
-3.516229 -67.037674 1.5620733 36 3198681001416 1 0
-12.230273 -80.76166 0.9509368 57 3198681003720 1 0
-0.87745374 -16.68015 -1.1680024 2 3198681003720 1 1
-2.346784 -23.023718 -1.8892831 23 3198681006024 1 0
-0.2623872 -68.334564 1.9887452 23 3198681006024 1 0
-7.0879 -69.432526 1.2182478 64 3198681008328 1 0
-0.06597928 -16.525963 -1.0591369 15 3198681008328 1 1
-4.8786707 -32.116524 -1.8918438 13 3198681010632 1 0
-3.7063797 -69.84722 4.0734525 28 3198681010632 1 0
-7.107553 -69.415184 2.8428338 87 3198681012936 1 0
-0.89457977 -16.80996 -0.7841425 1 3198681012936 1 1
-3.2672217 -31.860964 -1.6785188 39 3198681015240 1 0
0 0 0 1 3198681015240 1 0
0 0 0 8 3198681017544 1 0
-0.07662724 -16.646015 -0.6781833 1 3198681017544 1 1
-4.902394 -32.14045 -1.1353505 15 3198681019848 1 0
0 0 0 9 3198681019848 1 0
0 0 0 29 3198681022152 1 0
-3.5638704 -66.2062 -1.5428115 17 3198681022152 1 0
-0.38696256 -3.7065933 -1.7378063 2 3198681042888 1 0
-0.44573373 -70.9398 -1.2382832 20 3198681042888 1 0
-4.336689 -41.48428 -1.2138898 17 3198681045192 1 0
-0.3442047 -6.219032 -1.7436135 6 3198681045192 1 0
-0.9277687 -8.863089 -1.782314 4 3198681047496 1 0
-3.6222978 -65.283585 0 16 3198681047496 1 0
-9.483594 -61.375423 -0.7230044 9 3198681049800 1 0
-0.6025622 -10.832738 -1.6879274 26 3198681049800 1 0
-1.175895 -11.2035675 -1.4339019 10 3198681052104 1 0
-0.48115155 -70.38517 0.40908897 58 3198681052104 1 0
-0.9338401 -16.705133 -1.8022292 2 3198681054408 1 0
-3.1514962 -20.339815 -1.9213398 3 3198681056712 1 0
-3.922754 -69.99919 1.6313975 20 3198681056712 1 0
-7.2507243 -68.99086 -0.4031841 19 3198681054408 1 0
-12.522883 -80.74918 0.9513093 57 3198681059016 1 0
-2.4309866 -23.039034 -1.8912358 23 3198681061320 1 0
-0.49301752 -66.72593 1.9419677 21 3198681061320 1 0
-7.330309 -69.3792 1.2177591 64 3198681063624 1 0
-0.124446414 -16.533611 -1.0596485 16 3198681063624 1 1
-5.2806907 -33.95763 -2.0013776 9 3198681065928 1 0
-3.9517493 -69.82577 4.072987 28 3198681065928 1 0
-0.9384525 -16.704805 -1.1699556 2 3198681059016 1 1
-7.348718 -69.36997 2.8420196 87 3198681068232 1 0
-0.95462805 -16.826668 -0.7850731 1 3198681068232 1 1
-3.3809454 -31.873198 -1.6797749 39 3198681070536 1 0
0 0 0 1 3198681070536 1 0
0 0 0 8 3198681072840 1 0
-0.13419949 -16.609678 -0.6767178 1 3198681072840 1 1
-6.0172076 -38.553474 -1.362616 22 3198681075144 1 0
0 0 0 9 3198681075144 1 0
0 0 0 29 3198681077448 1 0
-0.40041706 -3.7161028 -1.7428777 1 3198681098184 1 0
-1.8098068 -31.591637 -0.7363249 4 3198681077448 1 0
-0.67786646 -70.61399 -1.2326286 20 3198681098184 1 0
-0.36514196 -6.2216964 -1.7446917 6 3198681100488 1 0
-0.9582552 -8.867735 -1.7838829 3 3198681102792 1 0
0 0 0 3 3198681102792 1 0
-9.691619 -61.355064 -0.7231441 19 3198681105096 1 0
-4.4744062 -41.465633 -1.2137735 26 3198681100488 1 0
-0.6398852 -10.846436 -1.690387 21 3198681105096 1 0
-1.2141199 -11.203481 -1.434407 10 3198681107400 1 0
-0.71877176 -70.39514 0.40915874 29 3198681107400 1 0
-7.508649 -69.18858 -0.40448594 38 3198681109704 1 0
-0.99091667 -16.709814 -1.8030859 2 3198681109704 1 0
-3.2213254 -20.332907 -1.9217116 3 3198681112008 1 0
-4.160728 -69.981445 1.6313044 20 3198681112008 1 0
-12.80319 -80.73357 0.95163524 57 3198681114312 1 0
-0.9976797 -16.737349 -1.1724668 3 3198681114312 1 1
-2.5126448 -23.054333 -1.8931886 26 3198681116616 1 0
-0.7239533 -66.89976 1.9470876 21 3198681116616 1 0
-7.567681 -69.33762 1.2174798 64 3198681118920 1 0
-0.18165636 -16.553041 -1.0609276 16 3198681118920 1 1
-5.417023 -34.057457 -2.0083544 9 3198681121224 1 0
-4.1855307 -69.68013 4.065313 28 3198681121224 1 0
-7.5885067 -69.33209 2.841531 87 3198681123528 1 0
-1.0138341 -16.835213 -0.7856315 1 3198681123528 1 1
-3.4974055 -31.908852 -1.682287 40 3198681125832 1 0
0 0 0 1 3198681125832 1 0
0 0 0 8 3198681128136 1 0
-0.1940393 -16.748981 -0.68241686 1 3198681128136 1 1
-6.164215 -38.60311 -1.3651288 22 3198681130440 1 0
0 0 0 9 3198681130440 1 0
0 0 0 29 3198681132744 1 0
-0.41403458 -3.71461 -1.7428777 1 3198681153480 1 0
-2.6545286 -43.635498 -1.0172505 7 3198681132744 1 0
-0.93269646 -70.311104 -1.2273928 20 3198681153480 1 0
-7.2439523 -64.90938 -1.9007756 23 3198681155784 1 0
-0.3878527 -6.220322 -1.7446917 6 3198681155784 1 0
-0.99049276 -8.864192 -1.7838829 5 3198681158088 1 0
-4.1365986 -66.19488 0 17 3198681158088 1 0
-9.917585 -61.343254 -0.7234235 19 3198681160392 1 0
-0.6791619 -10.844047 -1.690387 26 3198681160392 1 0
-0.9717433 -70.3241 0.40876353 58 3198681162696 1 0
-1.2549648 -11.202972 -1.4349121 11 3198681162696 1 0
0 0 0 27 3198681165000 1 0
-3.2966032 -20.336975 -1.9231987 3 3198681167304 1 0
-1.0519384 -16.722023 -1.8047994 2 3198681165000 1 0
-4.410083 -69.95015 1.6309322 40 3198681167304 1 0
-13.095277 -80.715065 0.9519612 57 3198681169608 1 0
-1.0588245 -16.75758 -1.1741409 3 3198681169608 1 1
-2.595783 -23.057156 -1.8941649 26 3198681171912 1 0
-0.96607566 -67.224594 1.9566293 22 3198681171912 1 0
-7.8122444 -69.306465 1.2174101 64 3198681174216 1 0
-0.2402742 -16.560278 -1.0614393 19 3198681174216 1 1
-5.54648 -34.0973 -2.0118427 9 3198681176520 1 0
-4.429747 -69.649025 4.0643826 28 3198681176520 1 0
-7.8296876 -69.28918 2.8408797 58 3198681178824 1 0
-1.0786844 -16.92327 -0.78991234 1 3198681178824 1 1
-3.6128087 -31.93217 -1.6841711 40 3198681181128 1 0
0 0 0 1 3198681181128 1 0
0 0 0 8 3198681183432 1 0
-0.25045365 -16.628319 -0.67753196 1 3198681183432 1 1
-6.3068213 -38.63678 -1.3670831 22 3198681185736 1 0
0 0 0 9 3198681185736 1 0
0 0 0 29 3198681188040 1 0
-2.031082 -31.590204 -0.7366041 4 3198681188040 1 0
-0.42552334 -3.7060137 -1.7394967 1 3198681208776 1 0
-0.7524788 -45.37885 -0.7921996 23 3198681208776 1 0
-0.4085231 -6.2189984 -1.7446917 6 3198681211080 1 0
-7.437255 -64.690315 -1.8950738 23 3198681211080 1 0
-4.3439097 -65.98116 0 17 3198681213384 1 0
-10.128806 -61.34927 -0.7238891 19 3198681215688 1 0
-0.71639574 -10.857494 -1.6928467 26 3198681215688 1 0
-1.2937988 -11.210537 -1.4364274 11 3198681217992 1 0
-1.2003967 -69.936516 0.40653175 28 3198681217992 1 0
-1.0204595 -8.86474 -1.7846674 4 3198681213384 1 0
0 0 0 9 3198681220296 1 0
-1.1079928 -16.718401 -1.8047994 2 3198681220296 1 0
-3.3662128 -20.333643 -1.9239422 3 3198681222600 1 0
-4.641628 -69.883064 1.6297226 61 3198681222600 1 0
-13.372856 -80.70603 0.9523803 57 3198681224904 1 0
-1.1173619 -16.785772 -1.1763731 3 3198681224904 1 1
-2.6767855 -23.075987 -1.8964431 23 3198681227208 1 0
-1.1660185 -65.70583 1.912528 39 3198681227208 1 0
-8.042873 -69.24787 1.2168516 64 3198681229512 1 0
-5.6829424 -34.204365 -2.0192845 9 3198681231816 1 0
-0.29648677 -16.571344 -1.0622069 20 3198681229512 1 1
-4.666018 -69.637596 4.0646152 28 3198681231816 1 0
-8.061258 -69.23043 2.839577 58 3198681234120 1 0
-1.1374902 -16.939442 -0.79084295 1 3198681234120 1 1
-3.7265537 -31.963335 -1.6864738 40 3198681236424 1 0
0 0 0 8 3198681238728 1 0
0 0 0 1 3198681236424 1 0
-0.30923268 -16.739256 -0.6820912 1 3198681238728 1 1
-6.450677 -38.685974 -1.3695959 22 3198681241032 1 0
0 0 0 9 3198681241032 1 0
0 0 0 29 3198681243336 1 0
-2.8013773 -41.358013 -0.96458286 13 3198681243336 1 0
-0.43845713 -3.7045057 -1.7394967 1 3198681264072 1 0
-0.6409362 -31.928703 -0.55742985 4 3198681264072 1 0
-7.685606 -64.854546 -1.9006591 23 3198681266376 1 0
-0.43022898 -6.2175345 -1.7446917 6 3198681266376 1 0
-1.051397 -8.861124 -1.7846674 5 3198681268680 1 0
-4.560365 -65.766075 0 17 3198681268680 1 0
-10.355534 -61.388477 -0.7247738 19 3198681270984 1 0
-0.7548391 -10.862814 -1.6940765 26 3198681270984 1 0
-1.334329 -11.217773 -1.4379425 12 3198681273288 1 0
-1.448148 -70.107864 0.40755463 58 3198681273288 1 0
-9.532031 -80.037025 -0.46846348 28 3198681275592 1 0
-1.1671746 -16.726334 -1.8060846 3 3198681275592 1 0
-3.440491 -20.341404 -1.925801 3 3198681277896 1 0
-4.8830266 -69.83053 1.628885 61 3198681277896 1 0
-13.659833 -80.69041 0.9527528 57 3198681280200 1 0
-1.1784587 -16.817595 -1.1788844 3 3198681280200 1 1
-2.7606318 -23.094213 -1.8987213 23 3198681282504 1 0
-1.4030932 -66.065125 1.923117 20 3198681282504 1 0
-9.684709 -80.91809 1.4225107 5 3198681284808 1 0
-0.35450044 -16.578192 -1.0627185 17 3198681284808 1 1
-5.807649 -34.215813 -2.0211449 9 3198681287112 1 0
-4.9082274 -69.60893 4.0639176 28 3198681287112 1 0
-8.302868 -69.201866 2.839577 87 3198681289416 1 0
-1.1963313 -16.931383 -0.79065686 1 3198681289416 1 1
-3.8404858 -31.969963 -1.6875206 40 3198681291720 1 0
0 0 0 1 3198681291720 1 0
0 0 0 8 3198681294024 1 0
0 0 0 43 3198681294024 1 0
0 0 0 9 3198681296328 1 0
-6.6011157 -38.75386 -1.3728065 22 3198681296328 1 0
0 0 0 29 3198681298632 1 0
-2.2512102 -31.599335 -0.7371624 4 3198681298632 1 0
-0.45182428 -3.7065513 -1.7411872 2 3198681319368 1 0
-1.6246223 -68.938354 -1.2036575 19 3198681319368 1 0
-4.9848056 -40.843513 -1.1974827 8 3198681321672 1 0
-0.4522089 -6.2198367 -1.7457701 6 3198681321672 1 0
-1.0813702 -8.849614 -1.7830985 5 3198681323976 1 0
-4.782638 -65.650024 0 16 3198681323976 1 0
-6.270551 -36.3973 -0.42997506 11 3198681326280 1 0
-0.7939038 -10.87588 -1.6965362 23 3198681326280 1 0
-1.374443 -11.220924 -1.4389527 15 3198681328584 1 0
-1.6969169 -70.270325 0.40853104 29 3198681328584 1 0
-9.824501 -80.11046 -0.46909118 85 3198681330888 1 0
-1.226716 -16.738024 -1.8077981 2 3198681330888 1 0
-3.510119 -20.32142 -1.9250575 3 3198681333192 1 0
-13.950951 -80.69741 0.9534047 85 3198681335496 1 0
-5.123529 -69.76919 1.6278615 60 3198681333192 1 0
-1.23862 -16.833275 -1.1802795 3 3198681335496 1 1
-2.8446379 -23.112133 -1.9009995 23 3198681337800 1 0
-1.6458535 -66.55147 1.9374295 41 3198681337800 1 0
-15.474279 -125.57489 2.2084973 108 3198681340104 1 0
-0.4128633 -16.596806 -1.0639976 14 3198681340104 1 1
-5.931823 -34.222874 -2.0227728 9 3198681342408 1 0
-5.14882 -69.55952 4.062057 28 3198681342408 1 0
-1.2577899 -16.95898 -0.79214585 1 3198681344712 1 1
-8.543398 -69.164536 2.8392515 87 3198681344712 1 0
-3.9550002 -31.980148 -1.6887766 40 3198681347016 1 0
0 0 0 1 3198681347016 1 0
0 0 0 8 3198681349320 1 0
-0.4265948 -16.756666 -0.6829053 6 3198681349320 1 1
-6.430839 -36.974037 -1.3105459 13 3198681351624 1 0
0 0 0 29 3198681353928 1 0
0 0 0 9 3198681351624 1 0
-3.204508 -42.86876 -1.0003151 7 3198681353928 1 0
-0.4647598 -3.7049515 -1.7411872 2 3198681374664 1 0
-0.8440261 -31.19183 -0.5446547 4 3198681374664 1 0
-8.137189 -64.791374 -1.9004264 23 3198681376968 1 0
-1.1127439 -8.849677 -1.7838829 3 3198681379272 1 0
-4.9986744 -65.461426 0 16 3198681379272 1 0
-6.355301 -36.134895 -0.42713463 7 3198681381576 1 0
