# .PCD v.7 - Point Cloud Data file format
VERSION .7
FIELDS x y z rgb timestamp_ns device_id active
SIZE 4 4 4 4 8 1 1
TYPE F F F F F U U
COUNT 1 1 1 1 1 1 1
WIDTH 953
HEIGHT 1
VIEWPOINT 0 0 0 1 0 0 0
POINTS 953               
DATA ascii
-14.104114 -79.906845 1.8881295 28 3205282847304 1 0
0 0 0 21 3205282849608 1 0
-2.964055 -16.778595 -1.1914406 2 3205282849608 1 1
-3.933229 -17.274954 -1.4463348 19 3205282851912 1 1
-8.131014 -35.68787 0.6388977 18 3205282854216 1 0
-2.106923 -16.596476 -1.0721842 3 3205282854216 1 1
-9.472331 -33.827282 -2.045796 39 3205282856520 1 0
-12.654137 -71.44914 4.2257767 28 3205282856520 1 0
-10.730296 -84.622284 2.4824698 40 3205282851912 1 0
-8.14033 -35.68084 1.4910263 21 3205282858824 1 0
-2.9597166 -16.697327 -0.78991234 1 3205282858824 1 1
-3.9065213 -17.111654 -0.9198568 2 3205282861128 1 1
0 0 0 1 3205282861128 1 0
-8.158836 -35.714046 2.9906325 16 3205282863432 1 0
-2.1267474 -16.674978 -0.6848593 1 3205282863432 1 1
-9.724816 -34.6513 -1.2568007 18 3205282865736 1 0
0 0 0 9 3205282865736 1 0
-8.160875 -35.675167 6.6725216 21 3205282868040 1 0
-3.0390692 -17.087147 -0.4038481 1 3205282868040 1 1
-0.8406765 -3.6530032 -1.7479491 3 3205282888776 1 0
-8.902332 -68.920845 -1.2130121 19 3205282888776 1 0
-7.6662755 -33.29022 -0.9941981 57 3205282891080 1 0
-1.1077532 -6.176217 -1.756553 7 3205282891080 1 0
-2.0152109 -8.745084 -1.7948655 3 3205282893384 1 0
-12.328297 -68.67826 0 39 3205282893384 1 0
-10.154674 -35.92175 -0.43458492 7 3205282895688 1 0
-2.000254 -11.133667 -1.7598718 21 3205282895688 1 0
-2.6157908 -11.336253 -1.4808737 17 3205282897992 1 0
-10.463583 -80.63859 0.47260156 85 3205282897992 1 0
-13.237564 -57.33058 -0.341973 21 3205282900296 1 0
-3.011924 -16.736776 -1.831788 2 3205282900296 1 0
-5.698816 -20.12578 -1.952569 16 3205282902600 1 0
-12.359233 -68.62101 1.6224644 20 3205282902600 1 0
-17.906736 -63.203865 0.7647726 15 3205282904904 1 0
-3.024021 -16.776001 -1.1919986 2 3205282904904 1 1
-3.9377909 -17.020302 -1.4261565 3 3205282907208 1 1
-11.027685 -84.600174 2.4829352 100 3205282907208 1 0
-8.236595 -35.577446 0.6374317 18 3205282909512 1 0
-2.1674256 -16.60881 -1.0734633 3 3205282909512 1 1
-9.612156 -33.870842 -2.050447 34 3205282911816 1 0
-12.933998 -71.5735 4.2357764 28 3205282911816 1 0
-8.244974 -35.56655 1.487444 21 3205282914120 1 0
-3.9635203 -17.08624 -0.91922873 2 3205282916424 1 1
-3.0428722 -16.824509 -0.7964267 1 3205282914120 1 1
0 0 0 1 3205282916424 1 0
-8.269931 -35.627094 2.9857507 15 3205282918728 1 0
-2.2285774 -17.000326 -0.69853693 1 3205282918728 1 1
-9.900393 -34.809395 -1.2637806 19 3205282921032 1 0
0 0 0 9 3205282921032 1 0
-3.1194015 -17.190538 -0.40654665 1 3205282923336 1 1
-0.8534227 -3.6500466 -1.7479491 3 3205282944072 1 0
-5.3649035 -40.423332 -0.71177894 6 3205282944072 1 0
-7.8031406 -33.352856 -0.9968744 51 3205282946376 1 0
-8.264864 -35.558304 6.6560197 14 3205282923336 1 0
-1.1292607 -6.1723213 -1.756553 6 3205282946376 1 0
-2.0455976 -8.738026 -1.7948655 2 3205282948680 1 0
0 0 0 3 3205282948680 1 0
-10.277017 -35.878616 -0.43449178 11 3205282950984 1 0
-2.041 -11.138325 -1.7617166 21 3205282950984 1 0
-2.657733 -11.33872 -1.482389 17 3205282953288 1 0
-10.773306 -80.83185 0.47394994 3 3205282953288 1 0
-13.50037 -57.561005 -0.34362358 10 3205282955592 1 0
-5.7659593 -20.09836 -1.9518254 13 3205282957896 1 0
-3.0704377 -16.730185 -1.8322163 2 3205282955592 1 0
-12.600032 -68.60159 1.6230228 20 3205282957896 1 0
-18.054514 -62.899693 0.76183903 15 3205282960200 1 0
-3.085315 -16.785122 -1.1933937 2 3205282960200 1 1
-4.003485 -17.037733 -1.4287602 3 3205282962504 1 1
-11.322251 -84.59353 2.4838662 100 3205282962504 1 0
-8.338268 -35.463375 0.6358959 18 3205282964808 1 0
-2.2264218 -16.617115 -1.0744866 3 3205282964808 1 1
-9.753244 -33.92606 -2.0557957 43 3205282967112 1 0
-13.1785555 -71.52888 4.2357764 28 3205282967112 1 0
-8.346998 -35.456524 1.4840246 21 3205282969416 1 0
-3.371209 -18.28364 -0.86603725 1 3205282969416 1 1
-4.032639 -17.11931 -0.9217409 2 3205282971720 1 1
0 0 0 1 3205282971720 1 0
-8.38173 -35.56 2.982496 15 3205282974024 1 0
-2.2852337 -16.984737 -0.69821125 1 3205282974024 1 1
-10.37574 -36.0164 -1.3088707 13 3205282976328 1 0
0 0 0 9 3205282976328 1 0
-8.366079 -35.449726 6.6409526 13 3205282978632 1 0
-3.183333 -17.21135 -0.40729105 3 3205282978632 1 1
0 0 0 21 3205282999368 1 0
-8.617855 -36.29102 -1.0855423 30 3205283001672 1 0
-1.1511791 -6.1761074 -1.7587097 6 3205283001672 1 0
-2.076503 -8.738796 -1.7964344 2 3205283003976 1 0
-0.8630108 -3.6366146 -1.7428777 3 3205282999368 1 0
-12.800621 -68.62028 0 20 3205283003976 1 0
-10.38892 -35.817223 -0.43416584 11 3205283006280 1 0
-2.6993222 -11.345207 -1.4844092 17 3205283008584 1 0
-2.0817943 -11.150876 -1.7647911 19 3205283006280 1 0
-11.044187 -80.79932 0.47397318 3 3205283008584 1 0
-14.298212 -60.05636 -0.35880432 12 3205283010888 1 0
-3.128701 -16.731524 -1.8335015 2 3205283010888 1 0
-12.829709 -68.55495 1.6229297 20 3205283013192 1 0
-18.10208 -62.273956 0.7549941 15 3205283015496 1 0
-3.1454864 -16.794249 -1.1947889 2 3205283015496 1 1
-4.064653 -17.039639 -1.4300619 3 3205283017800 1 1
-11.61035 -84.574646 2.484448 80 3205283017800 1 0
-5.8290076 -20.063576 -1.9503384 13 3205283013192 1 0
-8.437715 -35.349396 0.6343601 6 3205283020104 1 0
-2.285862 -16.633219 -1.0760217 3 3205283020104 1 1
-9.850297 -33.831467 -2.052075 29 3205283022408 1 0
-13.46288 -71.70751 4.249032 28 3205283022408 1 0
-8.448784 -35.35023 1.4807681 21 3205283024712 1 0
-3.1757681 -16.90158 -0.8010798 1 3205283024712 1 1
-4.08995 -17.1016 -0.9215315 2 3205283027016 1 1
0 0 0 1 3205283027016 1 0
-8.469562 -35.391624 2.9707797 15 3205283029320 1 0
-2.3223846 -16.826397 -0.69202375 1 3205283029320 1 1
-9.901954 -33.935318 -1.234465 18 3205283031624 1 0
0 0 0 9 3205283031624 1 0
-8.4654455 -35.329018 6.6237335 13 3205283033928 1 0
-3.249674 -17.239643 -0.40822157 4 3205283033928 1 1
-0.8773985 -3.6406286 -1.7462586 4 3205283054664 1 0
-5.595678 -40.069004 -0.70619416 13 3205283054664 1 0
-8.0799055 -33.504917 -1.0030416 13 3205283056968 1 0
-1.1727307 -6.1720514 -1.7587097 5 3205283056968 1 0
-2.1069946 -8.731495 -1.7964344 3 3205283059272 1 0
-13.035588 -68.5516 0 40 3205283059272 1 0
-9.971499 -33.93491 -0.4117684 21 3205283061576 1 0
-2.125139 -11.166839 -1.7684805 19 3205283061576 1 0
-2.7435677 -11.3550005 -1.4869347 18 3205283063880 1 0
-11.3311615 -80.79593 0.47418243 3 3205283063880 1 0
-14.504001 -59.99053 -0.3587113 36 3205283066184 1 0
-3.1870859 -16.7205 -1.8335015 2 3205283066184 1 0
-13.072679 -68.52938 1.623395 20 3205283068488 1 0
-5.8990073 -20.043108 -1.9503384 14 3205283068488 1 0
-18.20297 -61.815193 0.75019795 14 3205283070792 1 0
-3.212321 -16.82628 -1.1978582 2 3205283070792 1 1
-4.1569576 -17.160961 -1.441453 3 3205283073096 1 1
-11.903827 -84.52172 2.484099 40 3205283073096 1 0
-8.547866 -35.26531 0.63338274 6 3205283075400 1 0
-2.3461378 -16.64095 -1.077045 3 3205283075400 1 1
-10.002222 -33.91178 -2.0590515 14 3205283077704 1 0
-13.642553 -71.29141 4.227172 28 3205283077704 1 0
-8.553275 -35.242844 1.4775114 21 3205283080008 1 0
-3.2294855 -16.86292 -0.799777 1 3205283080008 1 1
-4.15622 -17.114391 -0.92299694 2 3205283082312 1 1
0 0 0 1 3205283082312 1 0
-8.58646 -35.33473 2.9685013 15 3205283084616 1 0
-2.3844671 -16.84193 -0.69300073 1 3205283084616 1 1
-16.408989 -55.514397 -2.0215185 13 3205283086920 1 0
0 0 0 9 3205283086920 1 0
-8.570108 -35.222782 6.609384 13 3205283089224 1 0
-3.3226578 -17.294954 -0.40980348 4 3205283089224 1 1
-0.8901013 -3.6375437 -1.7462586 4 3205283109960 1 0
-5.732109 -40.02547 -0.7057753 13 3205283109960 1 0
-8.1930065 -33.460976 -1.0025761 6 3205283112264 1 0
-1.1928035 -6.160357 -1.756553 5 3205283112264 1 0
-2.1365268 -8.720277 -1.7956499 3 3205283114568 1 0
-13.254253 -68.39965 0 60 3205283114568 1 0
-10.604486 -35.628815 -0.4327689 11 3205283116872 1 0
-2.1686203 -11.182633 -1.7721701 15 3205283116872 1 0
-2.787914 -11.364623 -1.48946 18 3205283119176 1 0
-11.626787 -80.8509 0.47474036 3 3205283119176 1 0
-14.725715 -59.990036 -0.35901353 24 3205283121480 1 0
-3.2477067 -16.720985 -1.8347867 2 3205283121480 1 0
-5.9768996 -20.04911 -1.9529408 22 3205283123784 1 0
-13.307233 -68.45978 1.6228367 20 3205283123784 1 0
-10.681231 -35.81045 0.43505055 4 3205283126088 1 0
-3.2725601 -16.822798 -1.1984162 2 3205283126088 1 1
-4.201602 -17.084404 -1.4362457 3 3205283128392 1 1
-9.943374 -68.86034 2.0248175 52 3205283128392 1 0
-8.643198 -35.122635 0.63135827 6 3205283130696 1 0
-2.4082088 -16.660315 -1.0788357 3 3205283130696 1 1
-10.288563 -34.439102 -2.0932374 30 3205283133000 1 0
0 0 0 3 3205283133000 1 0
-8.654252 -35.12352 1.4737663 21 3205283135304 1 0
-3.2998073 -16.910372 -0.8025688 1 3205283135304 1 1
0 0 0 1 3205283137608 1 0
-4.216891 -17.103659 -0.92320627 2 3205283137608 1 1
-8.673462 -35.157455 2.956134 23 3205283139912 1 0
-2.4168348 -16.651564 -0.6855106 1 3205283139912 1 1
-16.614136 -55.49508 -2.0229144 26 3205283142216 1 0
-7.12792 -36.443527 9.950039 20 3205283142216 1 0
-8.676965 -35.12771 6.5971866 13 3205283144520 1 0
-3.4037488 -17.389212 -0.4123159 4 3205283144520 1 1
-0.9045412 -3.6414511 -1.7496396 4 3205283165256 1 0
-4.7183394 -32.146626 -0.5671334 14 3205283165256 1 0
-8.662037 -34.848396 -1.0450484 21 3205283167560 1 0
-1.2150902 -6.159926 -1.7576314 6 3205283167560 1 0
-2.1680267 -8.71654 -1.7964344 3 3205283169864 1 0
-13.479981 -68.282135 0 9 3205283169864 1 0
-10.731874 -35.599007 -0.43286204 38 3205283172168 1 0
-2.2109501 -11.190457 -1.7746297 17 3205283172168 1 0
-2.8365278 -11.389394 -1.4940057 18 3205283174472 1 0
-11.913039 -80.82135 0.4748101 3 3205283174472 1 0
-14.937209 -59.937725 -0.35901353 12 3205283176776 1 0
-3.3066616 -16.709427 -1.8347867 2 3205283176776 1 0
-6.0557804 -20.05455 -1.9555432 24 3205283179080 1 0
-13.526576 -68.29856 1.6201382 60 3205283179080 1 0
-10.839222 -35.875774 0.4363078 14 3205283181384 1 0
-3.3367734 -16.834587 -1.2000904 2 3205283181384 1 1
-4.2689657 -17.09646 -1.4385239 3 3205283183688 1 1
-10.188271 -68.828575 2.0249338 78 3205283183688 1 0
-8.747684 -35.010193 0.62989223 18 3205283185992 1 0
-2.4715352 -16.679285 -1.0806266 3 3205283185992 1 1
-10.341817 -34.1729 -2.079284 25 3205283188296 1 0
0 0 0 3 3205283188296 1 0
-8.76118 -35.018726 1.4706726 21 3205283190600 1 0
-3.3851035 -17.023888 -0.8085248 1 3205283190600 1 1
0 0 0 1 3205283192904 1 0
-4.312012 -17.224083 -0.9305333 2 3205283192904 1 1
-8.787827 -35.079723 2.9522285 15 3205283195208 1 0
-2.4853418 -16.70209 -0.68795305 1 3205283195208 1 1
0 0 0 101 3205283197512 1 0
-7.235383 -36.30022 9.917946 13 3205283197512 1 0
-8.778466 -34.997005 6.578532 13 3205283199816 1 0
-6.539155 -32.7811 -0.77782637 80 3205283199816 1 0
-0.916108 -3.631081 -1.7462586 4 3205283220552 1 0
-8.80047 -34.85906 -1.0463283 7 3205283222856 1 0
-4.8367267 -32.13307 -0.5672032 9 3205283220552 1 0
-2.19996 -8.708536 -1.7964344 3 3205283225160 1 0
-7.344845 -36.500343 0 51 3205283225160 1 0
-1.2376592 -6.1554313 -1.7576314 6 3205283222856 1 0
-10.863448 -35.56326 -0.4329086 31 3205283227464 1 0
-2.254291 -11.193902 -1.7764744 17 3205283227464 1 0
-2.879226 -11.382768 -1.4945107 18 3205283229768 1 0
-12.209184 -80.777145 0.4748101 84 3205283229768 1 0
-15.173476 -59.948494 -0.35940874 24 3205283232072 1 0
-3.369455 -16.704992 -1.8356434 2 3205283232072 1 0
-6.1339045 -20.047453 -1.9570303 19 3205283234376 1 0
-7.3754334 -36.53693 0.8673429 16 3205283234376 1 0
-3.4039838 -16.849623 -1.2020435 2 3205283236680 1 1
0 0 0 248 3205283236680 1 0
-4.3423786 -17.123209 -1.4421039 3 3205283238984 1 1
-10.439871 -68.78682 2.0248175 52 3205283238984 1 0
-8.852335 -34.88486 0.6282168 24 3205283241288 1 0
-2.5350494 -16.685902 -1.0816499 2 3205283241288 1 1
-10.511482 -34.279842 -2.0881212 40 3205283243592 1 0
-8.869787 -34.90891 1.467416 21 3205283245896 1 0
-3.4490635 -17.019197 -0.8088971 1 3205283245896 1 1
-4.375113 -17.208164 -0.9305333 2 3205283248200 1 1
0 0 0 9 3205283243592 1 0
-8.910444 -35.024097 2.950276 15 3205283250504 1 0
0 0 0 1 3205283248200 1 0
-2.576678 -16.890417 -0.6960945 1 3205283250504 1 1
-7.3476143 -36.171227 9.889994 13 3205283252808 1 0
-10.960709 -35.6671 -1.3030076 49 3205283252808 1 0
-8.886278 -34.884518 6.5634656 20 3205283255112 1 0
-6.303951 -31.009146 -0.7363249 21 3205283255112 1 1
-0.92967635 -3.6313732 -1.7479491 5 3205283276296 1 0
-8.998097 -58.393795 -1.0312976 21 3205283276296 1 0
-14.093773 -55.019505 -1.6529242 17 3205283278600 1 0
-1.2590487 -6.1510916 -1.7576314 6 3205283278600 1 0
-2.2310658 -8.704668 -1.7972188 4 3205283280904 1 0
-7.4550962 -36.396328 0 97 3205283280904 1 0
-10.51094 -33.989483 -0.41418973 45 3205283283208 1 0
-2.2976253 -11.209297 -1.7801639 16 3205283283208 1 0
-2.9241974 -11.395878 -1.4975412 18 3205283285512 1 0
-15.408129 -60.012512 -0.36010617 12 3205283287816 1 0
-12.491879 -80.77033 0.47501934 84 3205283285512 1 0
-3.4273317 -16.697275 -1.8360718 2 3205283287816 1 0
-6.2091675 -20.049288 -1.959261 13 3205283290120 1 0
-7.476406 -36.39802 0.8646444 66 3205283290120 1 0
-3.4699025 -16.880985 -1.2051128 2 3205283292424 1 1
-11.002052 -35.508064 0.4327689 222 3205283292424 1 0
-4.4170146 -17.174097 -1.4476367 3 3205283294728 1 1
-10.671306 -68.747246 2.024701 78 3205283294728 1 0
-8.982447 -34.905273 0.62912434 48 3205283297032 1 0
-2.6039655 -16.760124 -1.0870223 3 3205283297032 1 1
-10.655683 -34.339832 -2.093935 35 3205283299336 1 0
-7.494729 -36.38518 2.1634693 56 3205283299336 1 0
-8.994982 -34.914005 1.4688815 21 3205283301640 1 0
-3.5065362 -17.01153 -0.80908316 1 3205283301640 1 1
-4.441127 -17.228373 -0.9324174 2 3205283303944 1 1
0 0 0 12 3205283303944 1 0
-9.033 -35.02151 2.952554 23 3205283306248 1 0
-2.6170347 -16.783094 -0.69202375 1 3205283306248 1 1
-10.5533085 -33.943623 -1.2413054 61 3205283308552 1 0
-7.449276 -36.063633 9.867217 19 3205283308552 1 0
-9.019083 -34.927643 6.5770974 20 3205283310856 1 0
-7.3055325 -35.34309 -0.83979934 21 3205283310856 1 0
-0.94171333 -3.6282704 -1.7479491 3 3205283331592 1 0
-9.195422 -58.387337 -1.0317165 21 3205283331592 1 0
-1.2786993 -6.143102 -1.756553 5 3205283333896 1 0
-14.342878 -55.227776 -1.660604 18 3205283333896 1 0
-7.5738316 -36.359547 0 87 3205283336200 1 0
-2.2620187 -8.704782 -1.7987878 3 3205283336200 1 0
-10.619558 -33.938942 -0.4140035 67 3205283338504 1 0
-2.3382547 -11.217042 -1.7826235 17 3205283338504 1 0
-12.767 -80.759705 0.4752053 84 3205283340808 1 0
-2.9682972 -11.409073 -1.5005716 19 3205283340808 1 0
-9.031992 -34.695038 -0.20836873 9 3205283343112 1 0
-3.4865406 -16.701263 -1.8377854 2 3205283343112 1 0
-6.278875 -20.035913 -1.9600046 6 3205283345416 1 0
-7.5904746 -36.333553 0.86371386 82 3205283345416 1 0
-11.153855 -35.573864 0.43402615 221 3205283347720 1 0
-3.5316207 -16.892641 -1.206787 2 3205283347720 1 1
-4.481982 -17.186098 -1.4499149 3 3205283350024 1 1
-10.904471 -68.71874 2.0249338 26 3205283350024 1 0
-9.130725 -34.990795 0.6312186 42 3205283352328 1 0
-10.775583 -34.314953 -2.0946326 15 3205283354632 1 0
-7.6138954 -36.34003 2.1623065 56 3205283354632 1 0
-9.150881 -35.02633 1.4749062 21 3205283356936 1 0
-3.5700288 -17.026897 -0.81038606 1 3205283356936 1 1
-4.505798 -17.236347 -0.93367344 2 3205283359240 1 1
-2.6650093 -16.77882 -1.0888132 3 3205283352328 1 1
-7.622851 -36.33012 4.5579133 48 3205283359240 1 0
-9.159456 -35.017498 2.9548323 15 3205283361544 1 0
-2.6811824 -16.817486 -0.6938149 1 3205283361544 1 1
-10.648866 -33.84253 -1.2389321 42 3205283363848 1 0
-7.559783 -35.977463 9.850653 19 3205283363848 1 0
-9.152621 -34.94984 6.587142 20 3205283366152 1 0
-6.9237638 -32.92681 -0.78294426 66 3205283366152 1 0
-0.9571416 -3.6354783 -1.7530205 4 3205283386888 1 0
-9.40172 -58.370678 -1.0319957 21 3205283386888 1 0
0 0 0 84 3205283389192 1 0
-1.3017311 -6.146138 -1.7587097 5 3205283389192 1 0
-2.29339 -8.700625 -1.7995722 4 3205283391496 1 0
-7.699045 -36.32506 0 56 3205283391496 1 0
-10.72347 -33.855907 -0.4134447 30 3205283393800 1 0
-2.3806756 -11.2242775 -1.7850832 17 3205283393800 1 0
-3.0111418 -11.410152 -1.5020868 18 3205283396104 1 0
-13.053933 -80.74623 0.4753913 84 3205283396104 1 0
0 0 0 18 3205283398408 1 0
-3.5448177 -16.688992 -1.8377854 2 3205283398408 1 0
-6.3367324 -19.975912 -1.9562868 3 3205283400712 1 0
-7.716425 -36.302925 0.8636208 60 3205283400712 1 0
-11.290063 -35.572838 0.43449178 216 3205283403016 1 0
-3.5930562 -16.89192 -1.2076241 2 3205283403016 1 1
-4.5521407 -17.20889 -1.4531695 1 3205283405320 1 1
-13.704606 -84.45912 2.4901497 39 3205283405320 1 0
-9.150478 -34.572083 0.62423766 94 3205283407624 1 0
-2.7158828 -16.722132 -1.0857432 2 3205283407624 1 1
-10.886831 -34.250492 -2.0930047 15 3205283409928 1 0
-7.745694 -36.336666 2.1637018 32 3205283409928 1 0
-9.160478 -34.569206 1.456995 61 3205283412232 1 0
-3.629442 -17.014332 -0.81038606 1 3205283412232 1 1
-4.59972 -17.347929 -0.9405818 4 3205283414536 1 1
-7.752107 -36.314938 4.559376 41 3205283414536 1 0
-9.182469 -34.61153 2.9232628 22 3205283416840 1 0
-2.7578743 -16.918474 -0.6983741 1 3205283416840 1 1
-10.810608 -33.942276 -1.2439576 12 3205283419144 1 0
-7.662706 -35.845062 9.821665 19 3205283419144 1 0
-9.177585 -34.552567 6.5182643 26 3205283421448 1 0
-7.057061 -32.988472 -0.7849914 61 3205283421448 1 0
-0.96795547 -3.6251101 -1.7496396 4 3205283442184 1 0
-9.613861 -58.388805 -1.0329032 21 3205283442184 1 0
-9.146874 -34.23617 -1.0313176 13 3205283444488 1 0
-1.322366 -6.137791 -1.7576314 4 3205283444488 1 0
-2.323747 -8.692567 -1.7995722 3 3205283446792 1 0
-10.911183 -34.03537 -0.41609886 11 3205283449096 1 0
-7.774372 -36.05945 0 30 3205283446792 1 0
-3.0581334 -11.426403 -1.5056223 18 3205283451400 1 0
-2.4231753 -11.231353 -1.7875428 17 3205283449096 1 0
-9.237773 -34.495903 -0.20755506 92 3205283453704 1 0
-13.342232 -80.73964 0.47562376 84 3205283451400 1 0
-3.6038914 -16.680403 -1.8382137 3 3205283453704 1 0
-6.410075 -19.965048 -1.9574021 3 3205283456008 1 0
-7.802535 -36.088154 0.8591543 21 3205283456008 1 0
0 0 0 86 3205283458312 1 0
-3.6663427 -16.945574 -1.2123675 2 3205283458312 1 1
-4.638007 -17.28916 -1.461306 1 3205283460616 1 1
-13.986257 -84.33188 2.4878225 39 3205283460616 1 0
-9.257623 -34.489716 0.6233302 94 3205283462920 1 0
-2.7781596 -16.736177 -1.0872781 2 3205283462920 1 1
-10.841227 -33.699097 -2.0616097 9 3205283465224 1 0
-7.8234096 -36.083057 2.1502135 8 3205283465224 1 0
-9.26657 -34.482983 1.4547154 68 3205283467528 1 0
-3.6981304 -17.044512 -0.8124334 1 3205283467528 1 1
0 0 0 59 3205283469832 1 0
-7.845127 -36.132465 4.539877 20 3205283469832 1 0
-9.276299 -34.47917 2.914801 45 3205283472136 1 0
-2.814287 -16.892975 -0.6977228 1 3205283472136 1 1
-11.02346 -34.1973 -1.2547067 12 3205283474440 1 0
-7.771364 -35.742588 9.80096 19 3205283474440 1 0
-9.286881 -34.478523 6.510372 46 3205283476744 1 0
-7.187473 -33.03397 -0.78666633 73 3205283476744 1 0
-0.97965616 -3.61821 -1.7479491 5 3205283497480 1 0
0 0 0 29 3205283497480 1 0
-9.339511 -34.47418 -1.0394629 100 3205283499784 1 0
-1.346256 -6.144426 -1.7608663 5 3205283499784 1 0
-2.3551016 -8.688188 -1.8003567 4 3205283502088 1 0
-7.8822055 -35.95004 0 30 3205283502088 1 0
-11.112621 -34.25198 -0.4192187 11 3205283504392 1 0
-2.4649065 -11.234408 -1.7893875 16 3205283504392 1 0
-3.1000788 -11.423318 -1.5066324 17 3205283506696 1 0
-13.6293125 -80.72413 0.47580975 84 3205283506696 1 0
-9.361274 -34.47503 -0.20762481 82 3205283509000 1 0
-3.666362 -16.687143 -1.8403556 3 3205283509000 1 0
-6.5043416 -20.018305 -1.9648376 3 3205283511304 1 0
-7.911285 -35.982586 0.85729325 26 3205283511304 1 0
0 0 0 43 3205283513608 1 0
-3.7837758 -17.197672 -1.2313412 4 3205283513608 1 1
-6.32234 -23.243353 -1.9664166 2 3205283515912 1 0
-13.8336935 -81.64526 2.4099762 41 3205283515912 1 0
-9.379008 -34.461052 0.6234 94 3205283518216 1 0
-11.421126 -35.081154 -2.1485856 15 3205283520520 1 0
-2.8398998 -16.746058 -1.0885574 3 3205283518216 1 1
-9.387933 -34.454285 1.4548782 68 3205283522824 1 0
-3.7558827 -17.023695 -0.8120612 1 3205283522824 1 1
-7.930401 -35.969738 2.1450973 7 3205283520520 1 0
-9.212388 -33.79065 -1.8355267 28 3205283525128 1 0
-7.9446716 -35.98468 4.524765 13 3205283525128 1 0
-9.398697 -34.454273 2.9154518 30 3205283527432 1 0
-11.228306 -34.420845 -1.264339 12 3205283529736 1 0
-2.857815 -16.792427 -0.6939777 1 3205283527432 1 1
-7.873562 -35.61338 9.773007 19 3205283529736 1 0
-9.410288 -34.457283 6.5125246 39 3205283532040 1 0
-7.3243346 -33.106293 -0.78899264 68 3205283532040 1 0
-6.330675 -36.842358 -0.6525106 48 3205283552776 1 0
-9.480163 -34.514553 -1.0416739 49 3205283555080 1 0
-0.99323976 -3.6182642 -1.7496396 5 3205283552776 1 0
-1.3677405 -6.139679 -1.7608663 5 3205283555080 1 0
-2.385541 -8.679879 -1.8003567 3 3205283557384 1 0
-7.9855394 -35.82068 0 41 3205283557384 1 0
-11.325191 -34.493946 -0.42266443 11 3205283559688 1 0
-2.5077941 -11.241112 -1.7918471 16 3205283559688 1 0
-3.1455305 -11.431465 -1.5091578 17 3205283561992 1 0
-13.916075 -80.69142 0.47590274 84 3205283561992 1 0
-9.505107 -34.52278 -0.208113 39 3205283564296 1 0
-3.725195 -16.674109 -1.8403556 3 3205283564296 1 0
-6.567587 -19.972492 -1.9626069 3 3205283566600 1 0
-8.020085 -35.872448 0.8553391 21 3205283566600 1 0
-30.070024 -91.39802 1.1201516 28 3205283568904 1 0
0 0 0 14 3205283568904 1 0
-6.405847 -23.224613 -1.966742 2 3205283571208 1 0
-13.840352 -79.96067 2.361686 43 3205283571208 1 0
-9.524904 -34.512295 0.62493575 41 3205283573512 1 0
-11.54856 -35.04782 -2.1490507 15 3205283575816 1 0
-2.900114 -16.739784 -1.0888132 3 3205283573512 1 1
-8.068134 -35.98411 2.1476555 16 3205283575816 1 0
-9.531121 -34.493736 1.4579719 34 3205283578120 1 0
-3.8428876 -17.127138 -0.8176449 1 3205283578120 1 1
-8.051626 -35.85918 4.512578 20 3205283580424 1 0
-9.348132 -33.81137 -1.8384575 35 3205283580424 1 0
-9.540232 -34.485676 2.9209845 22 3205283582728 1 0
-11.438373 -34.64221 -1.2739712 19 3205283585032 1 0
-2.926901 -16.833261 -0.6960945 1 3205283582728 1 1
-7.9878893 -35.52455 9.756443 19 3205283585032 1 0
-7.4557514 -33.13433 -0.7902954 63 3205283587336 1 0
-9.556322 -34.502827 6.5275917 20 3205283587336 1 0
-1.0074672 -3.6180918 -1.75133 4 3205283608072 1 0
-6.3155594 -35.96412 -0.6373619 23 3205283608072 1 0
-9.654387 -34.653038 -1.0469102 28 3205283610376 1 0
-1.3892939 -6.1308885 -1.7597879 5 3205283610376 1 0
-2.4181392 -8.674927 -1.8011411 3 3205283612680 1 0
-8.0998125 -35.72119 0 41 3205283612680 1 0
-24.40875 -73.444954 -0.9010198 26 3205283614984 1 0
-2.5502372 -11.239665 -1.793077 14 3205283614984 1 0
-3.1952753 -11.45062 -1.5131984 21 3205283617288 1 0
-12.098642 -68.67322 0.40527636 28 3205283617288 1 0
0 0 0 9 3205283619592 1 0
-3.7868342 -16.668373 -1.8412125 3 3205283619592 1 0
-6.635232 -19.937529 -1.9614916 3 3205283621896 1 0
-8.127108 -35.749935 0.8531059 26 3205283621896 1 0
-30.470068 -91.51418 1.1228989 28 3205283624200 1 0
-3.939501 -17.318209 -1.2419443 6 3205283624200 1 1
-6.493595 -23.22093 -1.9683694 2 3205283626504 1 0
-12.133056 -68.64649 2.0287738 26 3205283626504 1 0
0 0 0 21 3205283628808 1 0
-2.9815092 -16.855215 -1.0969998 3 3205283628808 1 1
-11.649114 -34.938766 -2.1448648 35 3205283631112 1 0
-8.186752 -35.920452 2.1455624 15 3205283631112 1 0
0 0 0 29 3205283633416 1 0
-3.9037864 -17.117458 -0.81783104 1 3205283633416 1 1
-9.484423 -33.84392 -1.8420163 35 3205283635720 1 0
-8.159966 -35.757313 4.503316 20 3205283635720 1 0
0 0 0 8 3205283638024 1 0
-2.9679394 -16.724606 -0.69202375 1 3205283638024 1 1
-12.286467 -36.782593 -1.3542401 7 3205283640328 1 0
-8.084992 -35.38369 9.725385 19 3205283640328 1 0
0 0 0 29 3205283642632 1 0
-7.5922046 -33.205894 -0.79262173 63 3205283642632 1 0
-1.0204437 -3.6182203 -1.7530205 4 3205283663368 1 0
-6.951401 -38.82865 -0.68853235 19 3205283663368 1 0
-10.210361 -36.18306 -1.0941532 15 3205283665672 1 0
-1.4096615 -6.1262374 -1.7597879 5 3205283665672 1 0
-2.4480848 -8.670599 -1.8019257 3 3205283667976 1 0
-8.199894 -35.612156 0 30 3205283667976 1 0
-2.5930648 -11.254199 -1.7967664 13 3205283670280 1 0
-3.240038 -11.462777 -1.5162288 20 3205283672584 1 0
-12.329715 -68.64023 0.40532285 28 3205283672584 1 0
-24.686895 -73.46165 -0.9022305 40 3205283670280 1 0
-17.790054 -62.90364 -0.37993643 15 3205283674888 1 0
-3.8426933 -16.655584 -1.8412125 3 3205283674888 1 0
-6.7034497 -19.918898 -1.9618634 3 3205283677192 1 0
-8.229181 -35.6445 0.8512448 26 3205283677192 1 0
-30.264952 -89.88724 1.10418 28 3205283679496 1 0
-4.004975 -17.335949 -1.2441765 6 3205283679496 1 1
-6.576259 -23.21423 -1.9696711 2 3205283681800 1 0
-12.367456 -68.620895 2.0292392 26 3205283681800 1 0
-16.99099 -59.945038 1.0875641 16 3205283684104 1 0
-3.0391977 -16.848965 -1.0972556 3 3205283684104 1 1
-11.653895 -34.56232 -2.1241672 10 3205283686408 1 0
-8.265208 -35.705765 2.1343997 23 3205283686408 1 0
-3.9655035 -17.119673 -0.8185755 1 3205283688712 1 1
-9.97951 -35.1692 1.489398 21 3205283688712 1 0
-9.62028 -33.884457 -1.8459939 35 3205283691016 1 0
-8.260099 -35.63651 4.4916167 20 3205283691016 1 0
0 0 0 8 3205283693320 1 0
-3.0605516 -16.911026 -0.7001652 1 3205283693320 1 1
-12.244505 -36.24425 -1.3359528 7 3205283695624 1 0
-8.185793 -35.269287 9.701573 19 3205283695624 1 0
0 0 0 29 3205283697928 1 0
-7.7230854 -33.253704 -0.7943897 63 3205283697928 1 0
-1.0320711 -3.6111505 -1.75133 3 3205283718664 1 0
-6.7434373 -36.92355 -0.65516335 18 3205283718664 1 0
-10.308856 -36.05117 -1.0912441 15 3205283720968 1 0
-1.4318699 -6.1250405 -1.7608663 4 3205283720968 1 0
-2.4792888 -8.665808 -1.8027102 3 3205283723272 1 0
-8.30177 -35.48996 0 46 3205283723272 1 0
-24.986628 -73.50811 -0.9038603 40 3205283725576 1 0
-2.6338897 -11.252833 -1.7979963 13 3205283725576 1 0
-3.2862527 -11.4743805 -1.5192592 21 3205283727880 1 0
-12.5715685 -68.62075 0.40546235 28 3205283727880 1 0
-25.37849 -88.566086 -0.5354632 28 3205283730184 1 0
-3.902926 -16.653828 -1.8424976 3 3205283730184 1 0
-6.779771 -19.918295 -1.964094 3 3205283732488 1 0
-8.331914 -35.53027 0.8491977 21 3205283732488 1 0
-30.562359 -89.74853 1.103761 28 3205283734792 1 0
-4.055467 -17.283222 -1.2413862 6 3205283734792 1 1
-6.6570024 -23.195353 -1.9699966 2 3205283737096 1 0
-12.605814 -68.59377 2.0297048 26 3205283737096 1 0
-33.704754 -117.37813 2.1316369 29 3205283739400 1 0
-3.1005013 -16.858088 -1.0985347 3 3205283739400 1 1
-8.350646 -35.521816 2.1250975 15 3205283741704 1 0
-10.157921 -35.338543 1.4980279 14 3205283744008 1 0
-4.026614 -17.117716 -0.8191339 1 3205283744008 1 1
-11.811912 -34.63945 -2.1313765 46 3205283741704 1 0
-9.75542 -33.92062 -1.8497621 36 3205283746312 1 0
-8.364964 -35.538628 4.482842 13 3205283746312 1 0
-33.10275 -115.04189 9.772524 28 3205283748616 1 0
-3.3891563 -18.370487 -0.76106334 1 3205283748616 1 1
-12.41766 -36.350082 -1.341397 7 3205283750920 1 0
-8.285769 -35.158607 9.678797 19 3205283750920 1 0
-10.140511 -35.204678 6.6796966 7 3205283753224 1 0
-7.8556833 -33.313026 -0.79643685 63 3205283753224 1 0
-1.0450482 -3.6111906 -1.7530205 4 3205283773960 1 0
-6.8892536 -37.026806 -0.6573973 24 3205283773960 1 0
-9.8270035 -33.938972 -1.0282922 13 3205283776264 1 0
-1.4513285 -6.1165004 -1.7597879 4 3205283776264 1 0
-2.5092294 -8.661269 -1.8034946 2 3205283778568 1 0
-8.410689 -35.423195 0 5 3205283778568 1 0
-25.25525 -73.492386 -0.90469843 27 3205283780872 1 0
-2.6741772 -11.255515 -1.799841 13 3205283780872 1 0
-3.330145 -11.482378 -1.5217847 21 3205283783176 1 0
-12.801783 -68.58224 0.4054856 28 3205283783176 1 0
-25.39993 -87.53166 -0.5297211 28 3205283785480 1 0
-3.9605765 -16.648388 -1.8433543 3 3205283785480 1 0
-6.845357 -19.891638 -1.9637222 3 3205283787784 1 0
-8.442905 -35.467064 0.8483602 10 3205283787784 1 0
-30.748486 -89.308525 1.0996168 28 3205283790088 1 0
-4.084049 -17.145256 -1.2324574 4 3205283790088 1 1
-6.7419086 -23.195728 -1.9719493 2 3205283792392 1 0
-12.833518 -68.5312 2.0291228 26 3205283792392 1 0
-33.77761 -116.149796 2.111392 29 3205283794696 1 0
-3.1582258 -16.851429 -1.0987905 3 3205283794696 1 1
-11.908405 -34.538822 -2.1276555 15 3205283797000 1 0
-8.456144 -35.431168 2.1213765 15 3205283797000 1 0
-10.501308 -36.071316 1.5305938 15 3205283799304 1 0
-4.091222 -17.131147 -0.8204368 1 3205283799304 1 1
-9.890916 -33.956257 -1.8535302 43 3205283801608 1 0
-8.464643 -35.421143 4.47163 13 3205283801608 1 0
-3.1755896 -16.889801 -0.7001652 1 3205283803912 1 1
-33.076614 -113.49301 9.650477 28 3205283803912 1 0
-12.596648 -36.46612 -1.3472601 7 3205283806216 1 0
-8.38701 -35.051174 9.657056 19 3205283806216 1 0
0 0 0 29 3205283808520 1 0
-1.0576473 -3.6075206 -1.7530205 4 3205283829256 1 0
-8.679279 -36.249336 -0.8673429 33 3205283808520 1 0
-6.99461 -36.876793 -0.65516335 12 3205283829256 1 0
-1.4735726 -6.115142 -1.7608663 2 3205283831560 1 0
-2.5427613 -8.663749 -1.805848 3 3205283833864 1 0
-9.955542 -33.93899 -1.0293394 6 3205283831560 1 0
-8.539914 -35.41695 0 5 3205283833864 1 0
-25.55759 -73.53601 -0.90632814 27 3205283836168 1 0
-2.7199392 -11.273007 -1.8041453 13 3205283836168 1 0
-3.3757982 -11.489719 -1.52431 20 3205283838472 1 0
-13.037363 -68.51749 0.40536934 28 3205283838472 1 0
-25.431185 -86.50994 -0.5240719 28 3205283840776 1 0
-4.0196 -16.638327 -1.8437828 3 3205283840776 1 0
-6.913441 -19.863861 -1.9633505 3 3205283843080 1 0
-8.53377 -35.301334 0.8451034 5 3205283843080 1 0
-31.060043 -89.20065 1.0996168 28 3205283845384 1 0
-4.118542 -17.026178 -1.2249237 2 3205283845384 1 1
-6.8217096 -23.168228 -1.9716239 2 3205283847688 1 0
-13.074907 -68.497765 2.029472 26 3205283847688 1 0
-3.217778 -16.844223 -1.0990463 3 3205283849992 1 1
-12.245834 -35.11919 -2.1660273 10 3205283852296 1 0
-33.720592 -114.462105 2.08284 29 3205283849992 1 0
-8.584473 -35.420837 2.1225393 7 3205283852296 1 0
-10.635071 -36.06127 1.5317335 22 3205283854600 1 0
-4.1557045 -17.136177 -0.8213674 1 3205283854600 1 1
-10.08852 -34.18971 -1.8681843 14 3205283856904 1 0
-8.084531 -33.31566 4.2093673 18 3205283856904 1 0
0 0 0 8 3205283859208 1 0
-3.2345266 -16.878614 -0.7001652 1 3205283859208 1 1
-17.489872 -50.064587 -1.8519069 10 3205283861512 1 0
-8.490153 -34.94284 9.635315 19 3205283861512 1 0
0 0 0 29 3205283863816 1 0
-8.852052 -36.40922 -0.87190247 16 3205283863816 1 0
-1.0692014 -3.6003315 -1.75133 4 3205283884552 1 0
0 0 0 50 3205283884552 1 0
-17.829275 -60.004696 -1.8217657 22 3205283886856 1 0
-1.4949095 -6.1099606 -1.7608663 4 3205283886856 1 0
-2.5741057 -8.65858 -1.8066325 2 3205283889160 1 0
-8.6254425 -35.231518 0 5 3205283889160 1 0
-25.891047 -73.66521 -0.9090289 13 3205283891464 1 0
-2.7658558 -11.290317 -1.8084497 13 3205283891464 1 0
0 0 0 5 3205283893768 1 0
-10.663963 -35.813408 -0.2171796 15 3205283896072 1 0
-3.4192798 -11.489275 -1.5258253 21 3205283893768 1 0
-4.0842857 -16.651232 -1.8467815 3 3205283896072 1 0
-6.9867034 -19.850878 -1.9644659 3 3205283898376 1 0
-8.634066 -35.178123 0.8428701 5 3205283898376 1 0
-30.410757 -86.364044 1.0659508 28 3205283900680 1 0
-4.188418 -17.054325 -1.227993 2 3205283900680 1 1
-6.90368 -23.148096 -1.9719493 2 3205283902984 1 0
-13.282632 -68.290794 2.024701 78 3205283902984 1 0
0 0 0 65 3205283905288 1 0
-3.2811317 -16.856398 -1.1005813 3 3205283905288 1 1
-8.7042465 -35.375145 2.1216092 15 3205283907592 1 0
-10.762027 -36.02776 1.5318964 7 3205283909896 1 0
-4.218361 -17.133207 -0.82192576 1 3205283909896 1 1
-12.381628 -35.113888 -2.1683528 15 3205283907592 1 0
-8.185579 -33.22556 4.2015676 24 3205283912200 1 0
0 0 0 8 3205283914504 1 0
-3.3125722 -16.965286 -0.704236 1 3205283914504 1 1
-17.631235 -49.909 -1.8484169 10 3205283916808 1 0
-10.300455 -34.46429 -1.8851411 15 3205283912200 1 0
-8.589867 -34.82296 9.610469 18 3205283916808 1 0
0 0 0 29 3205283919112 1 0
-8.255588 -33.446888 -0.8016478 15 3205283919112 1 0
-1.0828066 -3.600049 -1.7530205 4 3205283939296 1 0
0 0 0 29 3205283939296 1 0
0 0 0 31 3205283941600 1 0
-1.5152997 -6.100967 -1.7597879 4 3205283941600 1 0
-2.604314 -8.649542 -1.8066325 2 3205283943904 1 0
-8.741617 -35.17402 0 5 3205283943904 1 0
-29.88767 -84.096855 -1.0390365 14 3205283946208 1 0
-2.8090649 -11.295936 -1.8109094 13 3205283946208 1 0
-3.4662347 -11.500065 -1.5288557 19 3205283948512 1 0
-13.485155 -68.27176 0.4044627 56 3205283948512 1 0
-10.787756 -35.772137 -0.21715634 30 3205283950816 1 0
-4.1443067 -16.644592 -1.8476382 3 3205283950816 1 0
-7.0586243 -19.833874 -1.9652094 3 3205283953120 1 0
-8.745207 -35.101208 0.8417535 5 3205283953120 1 0
-30.811317 -86.5362 1.0693965 28 3205283955424 1 0
-4.255645 -17.070576 -1.2302252 2 3205283955424 1 1
-6.9855924 -23.127672 -1.9722748 2 3205283957728 1 0
-13.530255 -68.29108 2.0260975 52 3205283957728 1 0
0 0 0 210 3205283960032 1 0
-3.3438334 -16.86442 -1.1018605 3 3205283960032 1 1
0 0 0 9 3205283962336 1 0
-12.493394 -35.040363 -2.1664925 15 3205283962336 1 0
-33.02424 -109.16347 4.646492 29 3205283964640 1 0
-4.3052673 -17.226917 -0.82713723 1 3205283964640 1 1
-10.510958 -34.726337 -1.90147 15 3205283966944 1 0
-8.297655 -33.181377 4.1996174 18 3205283966944 1 0
0 0 0 8 3205283969248 1 0
-3.3717718 -16.953619 -0.704236 1 3205283969248 1 1
-17.738108 -49.65892 -1.8414371 10 3205283971552 1 0
-8.6926 -34.717804 9.589764 18 3205283971552 1 0
0 0 0 29 3205283973856 1 0
-8.741584 -34.8919 -0.83700776 57 3205283973856 1 0
-1.0953665 -3.5962474 -1.7530205 5 3205283994592 1 0
0 0 0 14 3205283994592 1 0
-10.880348 -35.703133 -1.0862405 27 3205283996896 1 0
-1.5375283 -6.0993752 -1.7608663 4 3205283996896 1 0
-2.634491 -8.640398 -1.8066325 2 3205283999200 1 0
0 0 0 11 3205283999200 1 0
-31.38482 -87.342064 -1.0804788 14 3205284001504 1 0
-2.8513796 -11.297558 -1.812754 15 3205284001504 1 0
-3.5144649 -11.514461 -1.5323912 20 3205284003808 1 0
-7.3349676 -36.46497 0.21617994 49 3205284003808 1 0
-10.884521 -35.64245 -0.2165984 84 3205284006112 1 0
-4.2033563 -16.63388 -1.8480667 3 3205284006112 1 0
-7.129163 -19.81286 -1.9655812 3 3205284008416 1 0
0 0 0 7 3205284008416 1 0
-30.957401 -85.99534 1.0640416 28 3205284010720 1 0
-4.316185 -17.059484 -1.2305042 2 3205284010720 1 1
-7.0651145 -23.099335 -1.9719493 2 3205284013024 1 0
0 0 0 50 3205284013024 1 0
-10.867498 -35.51273 0.6482522 224 3205284015328 1 0
-3.427172 -16.973944 -1.1097913 3 3205284015328 1 1
-12.608861 -34.977757 -2.1653297 15 3205284017632 1 0
-8.858769 -34.94966 2.0997488 15 3205284017632 1 0
-10.928999 -35.67661 1.5201727 15 3205284019936 1 0
-4.373233 -17.24277 -0.8286263 1 3205284019936 1 1
-10.73512 -35.02552 -1.9198922 15 3205284022240 1 0
-8.463237 -33.34847 4.2244787 12 3205284022240 1 0
-3.4515557 -17.043592 -0.7084695 1 3205284024544 1 1
-17.877394 -49.502705 -1.8379471 10 3205284026848 1 0
-8.795657 -34.6161 9.570093 18 3205284026848 1 0
-33.210995 -108.30142 9.2475605 28 3205284024544 1 0
0 0 0 29 3205284029152 1 0
-8.827852 -34.72165 -0.8336579 52 3205284029152 1 0
-1.1068447 -3.5889378 -1.75133 4 3205284049888 1 0
-6.727124 -32.94712 -0.58695936 15 3205284049888 1 0
-10.490914 -33.999172 -1.0355066 41 3205284052192 1 0
-1.5588098 -6.0939713 -1.7608663 4 3205284052192 1 0
-2.6657925 -8.634897 -1.8074169 3 3205284054496 1 0
-8.921502 -34.85638 0 35 3205284054496 1 0
-31.67039 -87.179344 -1.0798268 14 3205284056800 1 0
-2.8917787 -11.291365 -1.813369 16 3205284056800 1 0
-3.5604944 -11.521078 -1.5349165 19 3205284059104 1 0
-7.4469624 -36.36469 0.21573824 66 3205284059104 1 0
0 0 0 95 3205284061408 1 0
-4.2623816 -16.62296 -1.848495 3 3205284061408 1 0
-7.2023635 -19.799082 -1.9666965 3 3205284063712 1 0
-8.944329 -34.86112 0.83747303 21 3205284063712 1 0
-29.97569 -82.36499 1.0204108 28 3205284066016 1 0
-4.4064665 -17.164127 -1.239154 2 3205284066016 1 1
-7.152779 -23.097382 -1.9739021 2 3205284068320 1 0
-7.465887 -36.34949 1.079957 69 3205284068320 1 0
-11.0127 -35.543343 0.6495088 224 3205284070624 1 0
-3.487205 -16.965788 -1.1100471 3 3205284070624 1 1
-12.729511 -34.92978 -2.1650972 15 3205284072928 1 0
-8.966787 -34.86438 2.096493 22 3205284072928 1 0
-11.047546 -35.619156 1.5193585 22 3205284075232 1 0
-4.4403653 -17.254486 -0.8299291 1 3205284075232 1 1
-10.97452 -35.365524 -1.9406172 24 3205284077536 1 0
-8.636024 -33.537872 4.252265 12 3205284077536 1 0
-11.029205 -35.523495 3.0365222 8 3205284079840 1 0
-3.540885 -17.176273 -0.71449417 1 3205284079840 1 1
-17.995243 -49.28979 -1.8323631 10 3205284082144 1 0
-8.898109 -34.5141 9.550423 18 3205284082144 1 0
0 0 0 29 3205284084448 1 0
-8.963984 -34.748707 -0.8350537 42 3205284084448 1 0
-1.1193657 -3.5850523 -1.75133 5 3205284105184 1 0
-6.849414 -32.95868 -0.5875876 65 3205284105184 1 0
-1.5820073 -6.0959496 -1.7630229 4 3205284107488 1 0
-10.589262 -33.897465 -1.0335284 48 3205284107488 1 0
-2.6947474 -8.621796 -1.8066325 2 3205284109792 1 0
-9.082328 -34.976017 0 40 3205284109792 1 0
-29.742224 -80.98963 -1.0044392 14 3205284112096 1 0
-2.9301813 -11.277376 -1.812754 15 3205284112096 1 0
-3.605428 -11.523727 -1.5369369 19 3205284114400 1 0
-7.5754857 -36.346306 0.21578473 60 3205284114400 1 0
-10.610904 -33.89744 -0.20643917 58 3205284116704 1 0
-4.3213816 -16.611828 -1.8489234 3 3205284116704 1 0
-7.2851768 -19.811201 -1.9704143 3 3205284119008 1 0
-9.077043 -34.872253 0.8384966 57 3205284119008 1 0
-30.218824 -82.13973 1.0189208 28 3205284121312 1 0
-4.472388 -17.17181 -1.2408282 1 3205284121312 1 1
-7.6000876 -36.358433 1.0810043 55 3205284123616 1 0
-7.2369385 -23.083687 -1.9748785 2 3205284123616 1 0
-11.155854 -35.565742 0.6506257 223 3205284125920 1 0
-3.550492 -16.973047 -1.1113262 3 3205284125920 1 1
-12.854122 -34.892628 -2.1655622 15 3205284128224 1 0
-9.118676 -34.948784 2.1034698 22 3205284128224 1 0
-11.109555 -35.38209 1.5108914 7 3205284130528 1 0
-4.5096517 -17.273676 -0.83160424 1 3205284130528 1 1
-8.81124 -33.73032 4.280539 12 3205284132832 1 0
-11.112268 -35.37273 -1.9431294 16 3205284132832 1 0
-11.142379 -35.450546 3.033593 8 3205284135136 1 0
-3.577843 -17.054285 -0.70993495 3 3205284135136 1 1
-18.161652 -49.211678 -1.8318048 10 3205284137440 1 0
-8.997025 -34.400593 9.527647 18 3205284137440 1 0
0 0 0 29 3205284139744 1 0
-9.106484 -34.798447 -0.83700776 10 3205284139744 1 0
-1.1340581 -3.5880365 -1.754711 4 3205284160480 1 0
-6.9784856 -33.001087 -0.5887744 55 3205284160480 1 0
-10.717166 -33.890793 -1.0344594 13 3205284162784 1 0
-1.6032765 -6.09039 -1.7630229 4 3205284162784 1 0
-2.7260098 -8.616076 -1.8074169 3 3205284165088 1 0
-9.121835 -34.630787 0 50 3205284165088 1 0
-29.977423 -80.75783 -1.002856 14 3205284167392 1 0
-3.6564138 -11.545117 -1.5414824 20 3205284169696 1 0
-7.6682897 -36.15921 0.21483158 22 3205284169696 1 0
-10.733996 -33.875446 -0.20653217 19 3205284172000 1 0
-2.9745655 -11.286189 -1.8158287 13 3205284167392 1 0
-4.3813705 -16.604334 -1.8497802 3 3205284172000 1 0
-7.3445735 -19.759518 -1.9678118 3 3205284174304 1 0
-9.1670685 -34.720497 0.835612 41 3205284174304 1 0
-30.407774 -81.771324 1.0156612 28 3205284176608 1 0
-7.34159 -23.134283 -1.9813876 2 3205284178912 1 0
-4.5424933 -17.194672 -1.2436184 1 3205284176608 1 1
-7.684537 -36.13223 1.0750698 23 3205284178912 1 0
-11.3005085 -35.591385 0.6518125 175 3205284181216 1 0
-3.6105485 -16.964455 -1.111582 3 3205284181216 1 1
-12.981416 -34.862514 -2.1664925 10 3205284183520 1 0
-9.172166 -34.6581 2.0878885 22 3205284183520 1 0
-11.176097 -35.164078 1.5032384 7 3205284185824 1 0
-10.993578 -34.572388 -1.9012606 15 3205284188128 1 0
-8.987905 -33.921947 4.3088126 12 3205284188128 1 0
-8.93937 -33.7586 -1.626728 17 3205284185824 1 0
-34.493156 -108.4188 9.287917 28 3205284190432 1 0
-3.6590424 -17.143316 -0.71416855 1 3205284190432 1 1
-18.324938 -49.125507 -1.8309672 10 3205284192736 1 0
-9.096246 -34.290554 9.505906 18 3205284192736 1 0
0 0 0 29 3205284195040 1 0
0 0 0 73 3205284195040 1 0
-1.1465758 -3.584056 -1.754711 4 3205284215776 1 0
-10.926814 -34.13878 -1.0431865 14 3205284218080 1 0
-7.111301 -33.058636 -0.59024036 55 3205284215776 1 0
-1.6245261 -6.084757 -1.7630229 4 3205284218080 1 0
-2.7584615 -8.613979 -1.808986 2 3205284220384 1 0
-9.222016 -34.521446 0 100 3205284220384 1 0
-3.014964 -11.279556 -1.8164436 12 3205284222688 1 0
-29.914917 -79.73521 -0.99144775 14 3205284222688 1 0
-3.703959 -11.5549555 -1.5445129 20 3205284224992 1 0
-7.769158 -36.014923 0.21413414 22 3205284224992 1 0
-10.943793 -34.123436 -0.20827574 14 3205284227296 1 0
-4.438276 -16.585096 -1.8493519 3 3205284227296 1 0
-7.413502 -19.73376 -1.9678118 3 3205284229600 1 0
-9.241666 -34.51446 0.83142465 66 3205284229600 1 0
-30.557938 -81.30525 1.011191 28 3205284231904 1 0
-4.608682 -17.201838 -1.2452925 1 3205284231904 1 1
-7.78948 -36.00749 1.0721607 18 3205284234208 1 0
-7.428395 -23.127495 -1.983015 2 3205284234208 1 0
0 0 0 43 3205284236512 1 0
-3.6714325 -16.95955 -1.1120937 2 3205284236512 1 1
-13.129753 -34.887997 -2.170911 10 3205284238816 1 0
-9.2651415 -34.52174 2.0816095 67 3205284238816 1 0
-11.226565 -34.900375 1.4936315 7 3205284241120 1 0
0 0 0 18 3205284241120 1 0
-10.97713 -34.10793 -1.877814 22 3205284243424 1 0
-9.2814 -34.54218 4.3916836 52 3205284243424 1 0
-3.7103825 -17.091383 -0.7125402 1 3205284245728 1 1
-18.44554 -48.926582 -1.8259417 31 3205284248032 1 0
-34.892174 -108.36224 9.29345 28 3205284245728 1 0
-9.195813 -34.18397 9.4852 18 3205284248032 1 0
0 0 0 29 3205284250336 1 0
-9.2296715 -34.28995 -0.82630676 30 3205284250336 1 0
-1.1601961 -3.5834808 -1.7564015 4 3205284271072 1 0
-7.2463126 -33.123474 -0.591846 51 3205284271072 1 0
-11.131662 -34.36685 -1.0513319 14 3205284273376 1 0
-1.6446611 -6.075355 -1.7619445 5 3205284273376 1 0
-2.7870536 -8.600648 -1.8082014 3 3205284275680 1 0
-9.332047 -34.454567 0 95 3205284275680 1 0
-19.690157 -51.937077 -0.6466389 16 3205284277984 1 0
-3.053827 -11.269096 -1.8164436 12 3205284277984 1 0
-3.7521687 -11.568594 -1.5480484 19 3205284280288 1 0
-7.8738813 -35.90209 0.2136227 22 3205284280288 1 0
-11.152953 -34.37118 -0.21001932 14 3205284282592 1 0
-4.4970193 -16.577507 -1.8502086 3 3205284282592 1 0
-7.489101 -19.730755 -1.9700425 3 3205284284896 1 0
-9.350698 -34.45193 0.8306802 82 3205284284896 1 0
-19.764202 -52.050156 0.64817554 19 3205284287200 1 0
-4.7066865 -17.33245 -1.2558955 1 3205284287200 1 1
-7.511319 -23.117464 -1.9843168 2 3205284289504 1 0
-7.892047 -35.89509 1.0696007 18 3205284289504 1 0
0 0 0 21 3205284291808 1 0
-3.730965 -16.958817 -1.1128612 2 3205284291808 1 1
-13.2463875 -34.84388 -2.170911 10 3205284294112 1 0
-9.367996 -34.444313 2.0788188 59 3205284294112 1 0
-11.341508 -34.85899 1.4934688 7 3205284296416 1 0
-9.190421 -33.773945 -1.6304506 34 3205284296416 1 0
-11.056794 -33.968784 -1.8721619 59 3205284298720 1 0
-9.378164 -34.446087 4.3833966 45 3205284298720 1 0
-35.290485 -108.37155 9.304191 28 3205284301024 1 0
-3.784867 -17.161 -0.71595967 1 3205284301024 1 1
-18.589193 -48.820854 -1.8242664 10 3205284303328 1 0
-9.290856 -34.090187 9.467601 12 3205284303328 1 0
0 0 0 29 3205284305632 1 0
-9.394436 -34.45247 -0.8309594 100 3205284305632 1 0
-1.1703207 -3.5763729 -1.754711 5 3205284326368 1 0
-7.3676767 -33.17863 -0.5932422 56 3205284326368 1 0
-11.326164 -34.59365 -1.0593609 14 3205284328672 1 0
-1.6648899 -6.073837 -1.7630229 4 3205284328672 1 0
-2.8193185 -8.606636 -1.8113393 2 3205284330976 1 0
-9.456557 -34.478676 0 65 3205284330976 1 0
-29.8171 -77.89454 -0.97100604 14 3205284333280 1 0
-3.795684 -11.575272 -1.5505738 19 3205284335584 1 0
-3.0930898 -11.270679 -1.8182883 11 3205284333280 1 0
-7.972373 -35.79839 0.21315774 16 3205284335584 1 0
-11.3568945 -34.61599 -0.21173964 15 3205284337888 1 0
-4.5508833 -16.562801 -1.8502086 3 3205284337888 1 0
-7.582139 -19.78052 -1.977478 1 3205284340192 1 0
-9.468692 -34.440426 0.83114547 61 3205284340192 1 0
-19.979961 -52.100533 0.649619 9 3205284342496 1 0
-7.690174 -27.954731 -2.0274022 7 3205284342496 1 0
-7.5879383 -23.092428 -1.9843168 2 3205284344800 1 0
-7.992734 -35.786774 1.0671571 22 3205284344800 1 0
-30.61337 -93.11794 1.7109641 29 3205284347104 1 0
-3.7979999 -16.993015 -1.1159312 2 3205284347104 1 1
-13.3633795 -34.79918 -2.170911 10 3205284349408 1 0
-9.49746 -34.462692 2.081842 45 3205284349408 1 0
-11.430586 -34.73312 1.4897237 7 3205284351712 1 0
-9.32051 -33.800453 -1.6332425 34 3205284351712 1 0
-11.18733 -33.976486 -1.874674 29 3205284354016 1 0
-9.4964 -34.417797 4.383884 45 3205284354016 1 0
-35.692657 -108.3447 9.312326 28 3205284356320 1 0
-3.8453732 -17.155735 -0.7162853 1 3205284356320 1 1
-18.710003 -48.633366 -1.8196597 21 3205284358624 1 0
-9.387734 -33.983475 9.446896 18 3205284358624 1 0
0 0 0 29 3205284360928 1 0
-9.52987 -34.47749 -0.83235514 68 3205284360928 1 0
-1.1822809 -3.568618 -1.7530205 5 3205284381664 1 0
-7.5042152 -33.21772 -0.59442896 56 3205284381664 1 0
-11.504207 -34.707596 -1.0641317 7 3205284383968 1 0
-2.8507195 -8.596287 -1.8113393 3 3205284386272 1 0
-1.6881282 -6.0714173 -1.7641011 6 3205284383968 1 0
0 0 0 3 3205284386272 1 0
-20.097446 -51.93526 -0.6483152 24 3205284388576 1 0
-3.1373122 -11.270758 -1.820133 12 3205284388576 1 0
-3.8427482 -11.576457 -1.5525941 19 3205284390880 1 0
-8.083929 -35.687244 0.21266955 21 3205284390880 1 0
-25.587122 -77.044914 -0.4718344 28 3205284393184 1 0
-4.613092 -16.553839 -1.8510654 2 3205284393184 1 0
-7.653725 -19.75293 -1.977478 1 3205284395488 1 0
0 0 0 3 3205284395488 1 0
-20.147898 -51.97577 0.6489671 29 3205284397792 1 0
-7.669925 -23.061125 -1.9839913 2 3205284400096 1 0
-7.817967 -28.02284 -2.0343778 7 3205284397792 1 0
-8.101397 -35.668034 1.0644808 18 3205284400096 1 0
-30.70719 -92.28233 1.6976305 29 3205284402400 1 0
-3.8556068 -16.963665 -1.1149079 2 3205284402400 1 1
-13.486863 -34.747223 -2.1706784 10 3205284404704 1 0
0 0 0 6 3205284404704 1 0
-11.609345 -34.85497 1.4967253 7 3205284407008 1 0
-9.458847 -33.82839 -1.6362205 34 3205284407008 1 0
0 0 0 8 3205284409312 1 0
-9.638737 -34.45242 4.3926587 26 3205284409312 1 0
-36.134773 -108.38298 9.326647 28 3205284411616 1 0
-3.910158 -17.157482 -0.71693665 1 3205284411616 1 1
-18.903463 -48.61855 -1.8216141 10 3205284413920 1 0
-9.52857 -34.020496 9.466565 12 3205284413920 1 0
0 0 0 29 3205284416224 1 0
0 0 0 4 3205284416224 1 0
-1.1935784 -3.561032 -1.75133 4 3205284436960 1 0
-7.6415987 -33.284878 -0.5961044 51 3205284436960 1 0
-12.240558 -36.501995 -1.120451 7 3205284439264 1 0
-1.7082664 -6.06178 -1.7630229 4 3205284439264 1 0
-2.8807087 -8.586284 -1.8113393 2 3205284441568 1 0
-25.50254 -90.44533 0 28 3205284441568 1 0
-20.13442 -51.496002 -0.6437053 32 3205284443872 1 0
-3.174489 -11.2521305 -1.8189032 11 3205284443872 1 0
-3.8907135 -11.585542 -1.5556245 19 3205284446176 1 0
-8.185122 -35.55746 0.2120651 21 3205284446176 1 0
-25.620224 -76.25367 -0.4675336 28 3205284448480 1 0
0 0 0 115 3205284448480 1 0
-7.724081 -19.729801 -1.9778497 3 3205284450784 1 0
-31.023716 -109.78174 2.6546035 28 3205284450784 1 0
-20.178963 -51.521523 0.644171 28 3205284453088 1 0
-7.921166 -28.014578 -2.035773 7 3205284453088 1 0
-7.758005 -23.056883 -1.985944 2 3205284455392 1 0
-8.208767 -35.565517 1.0622699 22 3205284455392 1 0
-30.951294 -91.94337 1.6933721 29 3205284457696 1 0
-3.9417465 -17.066786 -1.1225827 2 3205284457696 1 1
-13.600782 -34.681347 -2.1695156 10 3205284460000 1 0
0 0 0 3 3205284460000 1 0
-36.560925 -108.50284 4.6647286 29 3205284462304 1 0
-9.600839 -33.879738 -1.6403152 28 3205284462304 1 0
-12.240071 -36.30774 -2.008026 8 3205284464608 1 0
0 0 0 1 3205284464608 1 0
-3.97273 -17.15541 -0.7174251 1 3205284466912 1 1
-36.523075 -108.28641 9.32925 28 3205284466912 1 0
-19.014593 -48.403435 -1.8160303 10 3205284469216 1 0
-9.856163 -34.72297 9.67155 44 3205284469216 1 0
0 0 0 29 3205284471520 1 0
-1.2083296 -3.5637105 -1.754711 4 3205284492256 1 0
-10.263127 -36.136684 -0.87413573 16 3205284471520 1 0
-7.7768164 -33.33979 -0.5975704 51 3205284492256 1 0
-12.369184 -36.46283 -1.1205673 7 3205284494560 1 0
-1.7294155 -6.05578 -1.7630229 4 3205284494560 1 0
-2.9119234 -8.57989 -1.8121238 2 3205284496864 1 0
-25.454338 -89.0827 0 28 3205284496864 1 0
