# .PCD v.7 - Point Cloud Data file format
VERSION .7
FIELDS x y z rgb timestamp_ns device_id active
SIZE 4 4 4 4 8 1 1
TYPE F F F F F U U
COUNT 1 1 1 1 1 1 1
WIDTH 1048
HEIGHT 1
VIEWPOINT 0 0 0 1 0 0 0
POINTS 1048               
DATA ascii
98.18552 18.405222 8.154999 28 3198851495248 1 0
33.074055 4.535973 -1.1657828 5 3198851497552 1 0
29.79174 8.664934 -1.2640425 4 3198851495248 1 0
0 0 0 9 3198851497552 1 0
0 0 0 29 3198851499856 1 0
0 0 0 8 3198851520592 1 0
41.53385 9.895717 -0.99352217 7 3198851499856 1 0
45.461796 13.147663 -0.8260573 24 3198851520592 1 0
0 0 0 1 3198851522896 1 0
8.229741 1.5271496 -1.6740572 1 3198851525200 1 0
75.07882 17.765177 0 26 3198851525200 1 0
48.455364 6.5546517 -0.569249 18 3198851527504 1 0
10.219843 2.416575 -1.6338153 4 3198851527504 1 0
12.481229 2.3121326 -1.6157281 3 3198851529808 1 0
39.46809 7.33012 -1.1682758 8 3198851522896 1 0
46.475193 13.409982 0.2811339 20 3198851529808 1 0
75.04408 13.889972 -0.44356525 25 3198851532112 1 0
13.903002 3.2830076 -1.5387704 3 3198851532112 1 0
70.35999 16.603226 1.6822042 22 3198851534416 1 0
16.091852 2.1692693 -1.5157318 3 3198851534416 1 0
111.44662 15.006283 1.3091562 28 3198851536720 1 0
20.20318 4.764196 -1.4514927 3 3198851536720 1 0
17.814686 3.2888944 -1.4788806 3 3198851539024 1 0
46.149426 13.285451 1.3976256 14 3198851539024 1 0
92.001656 16.970543 1.6329868 87 3198851541328 1 0
21.628433 6.2227955 -1.4423704 5 3198851541328 1 0
23.093546 3.0987735 -1.3569647 5 3198851543632 1 0
81.3482 19.14372 4.866934 28 3198851543632 1 0
80.64803 14.850795 3.3409278 29 3198851545936 1 0
27.10245 6.3736672 -1.2969155 4 3198851545936 1 0
26.109337 4.803737 -1.391299 4 3198851548240 1 0
49.903484 11.727732 6.2943077 14 3198851548240 1 0
29.802723 8.554941 -1.2632283 4 3198851550544 1 0
33.101704 4.42112 -1.1662016 5 3198851552848 1 0
0 0 0 9 3198851552848 1 0
93.25957 17.114231 17.28757 29 3198851555152 1 0
41.517956 9.736993 -0.9923125 7 3198851555152 1 0
0 0 0 8 3198851575888 1 0
99.42182 18.276466 8.252311 28 3198851550544 1 0
45.701977 13.0358 -0.82954776 24 3198851575888 1 0
39.278282 7.146336 -1.161876 8 3198851578192 1 0
0 0 0 1 3198851578192 1 0
8.24298 1.4984987 -1.6756262 1 3198851580496 1 0
75.78989 17.641508 0 53 3198851580496 1 0
49.85894 6.5596275 -0.58545333 6 3198851582800 1 0
10.217031 2.3766377 -1.6319706 5 3198851582800 1 0
12.493458 2.267443 -1.6162332 3 3198851585104 1 0
46.515953 13.238715 0.2810874 10 3198851585104 1 0
76.02283 13.785994 -0.4490517 26 3198851587408 1 0
13.907077 3.2307348 -1.5379136 3 3198851587408 1 0
16.095654 2.1104598 -1.5153601 3 3198851589712 1 0
70.306694 16.322079 1.6795057 22 3198851589712 1 0
105.364944 13.799849 1.2371212 28 3198851592016 1 0
20.196945 4.6857343 -1.4498185 3 3198851592016 1 0
17.818588 3.223196 -1.4782298 3 3198851594320 1 0
93.423874 16.88537 1.6571409 87 3198851596624 1 0
46.489357 13.201914 1.4064691 22 3198851594320 1 0
21.639172 6.1416287 -1.441603 5 3198851596624 1 0
23.09265 3.0142403 -1.3562671 2 3198851598928 1 0
81.237495 18.809921 4.856236 28 3198851598928 1 0
0 0 0 14 3198851601232 1 0
27.109554 6.2728558 -1.296171 4 3198851601232 1 0
26.10277 4.7060366 -1.390043 4 3198851603536 1 0
49.929653 11.545528 6.292358 29 3198851603536 1 0
100.404564 18.086739 8.328467 28 3198851605840 1 0
29.810007 8.441937 -1.2622514 4 3198851605840 1 0
33.02607 4.291291 -1.1629908 5 3198851608144 1 0
0 0 0 9 3198851608144 1 0
93.80396 16.869547 17.377254 29 3198851610448 1 0
41.560112 9.591087 -0.99249864 7 3198851610448 1 0
0 0 0 8 3198851631184 1 0
46.128334 12.983465 -0.8364589 16 3198851631184 1 0
39.275383 7.0045576 -1.1610614 8 3198851633488 1 0
0 0 0 1 3198851633488 1 0
8.236554 1.4677718 -1.6732727 1 3198851635792 1 0
75.83906 17.375267 0 79 3198851635792 1 0
52.848965 6.766593 -0.6202835 14 3198851638096 1 0
10.229067 2.3420644 -1.6325855 5 3198851638096 1 0
12.489512 2.2220972 -1.6147181 3 3198851640400 1 0
0 0 0 8 3198851640400 1 0
78.822784 14.012683 -0.4653018 28 3198851642704 1 0
13.906523 3.1800168 -1.5366285 3 3198851642704 1 0
16.09098 2.0534527 -1.5142448 3 3198851645008 1 0
70.35864 16.078743 1.6794126 22 3198851645008 1 0
20.212942 4.616234 -1.4498185 3 3198851647312 1 0
105.37608 13.432787 1.2367021 28 3198851647312 1 0
17.821695 3.1606228 -1.4775789 3 3198851649616 1 0
46.50745 13.03471 1.4056545 29 3198851649616 1 0
93.81196 16.623894 1.6630049 58 3198851651920 1 0
23.003782 2.922711 -1.3504531 5 3198851654224 1 0
21.552454 6.0373254 -1.4344397 5 3198851651920 1 0
81.21176 18.511736 4.8508873 28 3198851654224 1 0
83.40646 14.756222 3.4508376 29 3198851656528 1 0
27.103521 6.1741457 -1.2948681 4 3198851656528 1 0
49.93382 11.3676 6.2879705 29 3198851658832 1 0
26.016363 4.5990925 -1.3846 4 3198851658832 1 0
101.57253 17.941206 8.420246 28 3198851661136 1 0
29.826956 8.337423 -1.2617629 4 3198851661136 1 0
33.048355 4.18035 -1.16327 5 3198851663440 1 0
0 0 0 9 3198851663440 1 0
41.37393 9.400876 -0.98728764 6 3198851665744 1 0
0 0 0 29 3198851665744 1 0
0 0 0 4 3198851686480 1 0
44.67988 12.416024 -0.80944264 24 3198851686480 1 0
39.326065 6.878528 -1.161876 8 3198851688784 1 0
0 0 0 1 3198851688784 1 0
8.233691 1.4388602 -1.6717038 1 3198851691088 1 0
75.74848 17.088024 0 53 3198851691088 1 0
55.69735 6.9411736 -0.65343726 16 3198851693392 1 0
10.229166 2.3059456 -1.6313556 4 3198851693392 1 0
12.485212 2.1778955 -1.6132028 3 3198851695696 1 0
44.574017 12.35728 0.26883587 54 3198851695696 1 0
78.86982 13.745484 -0.4653018 28 3198851698000 1 0
13.9017 3.1293778 -1.5349149 3 3198851698000 1 0
16.066257 1.9947513 -1.5112705 3 3198851700304 1 0
76.011505 17.09857 1.812943 26 3198851700304 1 0
105.3023 13.057774 1.2353052 28 3198851702608 1 0
17.808872 3.0953357 -1.4756261 3 3198851704912 1 0
20.205244 4.54187 -1.4481444 3 3198851702608 1 0
46.717625 12.920827 1.4106581 15 3198851704912 1 0
21.5539 5.95768 -1.4331605 3 3198851707216 1 0
23.001873 2.8415956 -1.3497555 5 3198851709520 1 0
76.206116 17.093447 4.5483317 28 3198851709520 1 0
93.82142 16.292212 1.6621672 58 3198851707216 1 0
0 0 0 14 3198851711824 1 0
26.016516 4.5055237 -1.3837627 4 3198851714128 1 0
49.926704 11.1828165 6.2821207 44 3198851714128 1 0
0 0 0 8 3198851716432 1 0
29.77894 8.211574 -1.2585063 4 3198851716432 1 0
27.105324 6.075524 -1.2939374 4 3198851711824 1 0
33.058895 4.0635147 -1.1631304 5 3198851718736 1 0
0 0 0 9 3198851718736 1 0
93.32897 16.118616 17.2682 29 3198851721040 1 0
0 0 0 4 3198851721040 1 0
0 0 0 4 3198851741776 1 0
44.709656 12.247954 -0.8091634 16 3198851741776 1 0
39.3352 6.7319326 -1.1614105 8 3198851744080 1 0
0 0 0 1 3198851744080 1 0
8.262086 1.412759 -1.6764106 4 3198851746384 1 0
75.63072 16.771544 0 52 3198851746384 1 0
10.222064 2.2652411 -1.6288961 5 3198851748688 1 0
56.43304 6.8241515 -0.6617723 8 3198851748688 1 0
12.489138 2.1318161 -1.6126977 3 3198851750992 1 0
44.60708 12.191959 0.26876613 45 3198851750992 1 0
80.961655 13.807521 -0.4773441 28 3198851753296 1 0
13.905198 3.0771918 -1.5340581 3 3198851753296 1 0
16.069422 1.9360771 -1.5108988 3 3198851755600 1 0
76.42043 16.900028 1.8212247 27 3198851755600 1 0
0 0 0 21 3198851757904 1 0
20.213736 4.4670906 -1.4475863 3 3198851757904 1 0
17.80813 3.0290732 -1.4746497 3 3198851760208 1 0
46.86422 12.779582 1.4136835 15 3198851760208 1 0
93.80849 15.942313 1.6609106 58 3198851762512 1 0
21.571354 5.879004 -1.4329047 3 3198851762512 1 0
23.000038 2.7575178 -1.3490578 5 3198851764816 1 0
76.26314 16.818708 4.5480995 28 3198851764816 1 0
0 0 0 14 3198851767120 1 0
27.087912 5.969708 -1.2920762 4 3198851767120 1 0
26.0049 4.4077373 -1.3822973 4 3198851769424 1 0
49.923748 10.994719 6.2767587 14 3198851769424 1 0
88.37948 14.966782 7.3175955 28 3198851771728 1 0
29.796501 8.102046 -1.2580178 4 3198851771728 1 0
33.061256 3.944267 -1.1627116 5 3198851774032 1 0
0 0 0 9 3198851774032 1 0
93.18782 15.753176 17.231607 29 3198851776336 1 0
41.619213 9.14677 -0.9915681 21 3198851776336 1 0
0 0 0 4 3198851797072 1 0
39.3348 6.590622 -1.1607124 8 3198851799376 1 0
48.1459 13.008793 -0.870526 17 3198851797072 1 0
0 0 0 1 3198851799376 1 0
8.239887 1.3793771 -1.6709193 20 3198851801680 1 0
72.21838 15.750556 0 23 3198851801680 1 0
0 0 0 28 3198851803984 1 0
12.484761 2.086246 -1.6111826 3 3198851806288 1 0
10.2260475 2.228704 -1.6282811 5 3198851803984 1 0
44.62233 12.02889 0.2686034 36 3198851806288 1 0
50.133247 8.369941 -0.29540795 9 3198851808592 1 1
13.908083 3.0269434 -1.5332013 3 3198851808592 1 0
16.056303 1.8776597 -1.5090399 3 3198851810896 1 0
70.64887 15.365199 1.6823903 22 3198851810896 1 0
120.52055 14.076171 1.4126222 28 3198851813200 1 0
20.131725 4.3753185 -1.4406106 3 3198851813200 1 0
17.802864 2.9642737 -1.4733479 3 3198851815504 1 0
100.22713 16.67338 1.7735136 18 3198851817808 1 0
47.28307 12.716645 1.4249707 15 3198851815504 1 0
21.57247 5.798489 -1.4316256 3 3198851817808 1 0
23.009523 2.677216 -1.3490578 5 3198851820112 1 0
80.83268 17.530798 4.816934 28 3198851820112 1 0
89.93286 14.933984 3.7141323 29 3198851822416 1 0
27.01096 5.853959 -1.2874231 4 3198851822416 1 0
26.024069 4.31759 -1.3825066 4 3198851824720 1 0
49.9463 10.817023 6.274809 43 3198851824720 1 0
90.00441 14.918963 7.447778 28 3198851827024 1 0
29.797579 7.990741 -1.256878 4 3198851827024 1 0
0 0 0 9 3198851829328 1 0
93.15295 15.413018 17.215105 29 3198851831632 1 0
41.631344 8.997212 -0.9911028 21 3198851831632 1 0
33.114532 3.8334346 -1.1641076 5 3198851829328 1 0
0 0 0 4 3198851852368 1 0
48.26831 12.861247 -0.87192225 17 3198851852368 1 0
39.400875 6.460967 -1.1619923 8 3198851854672 1 0
0 0 0 1 3198851854672 1 0
8.248484 1.3514801 -1.6717038 14 3198851856976 1 0
72.34287 15.515572 0 23 3198851856976 1 0
0 0 0 28 3198851859280 1 0
10.2220745 2.1909564 -1.6264365 5 3198851859280 1 0
50.179592 13.34238 0.3017778 11 3198851861584 1 0
12.484017 2.042099 -1.6101724 3 3198851861584 1 0
49.88918 8.154021 -0.29380387 9 3198851863888 1 1
13.914458 2.9785564 -1.532773 3 3198851863888 1 0
16.062601 1.8230029 -1.5090399 3 3198851866192 1 0
70.696846 15.123828 1.6822972 22 3198851866192 1 0
51.085323 5.7910857 0.5985379 8 3198851868496 1 1
20.126926 4.3028994 -1.4392155 3 3198851868496 1 0
17.80096 2.90226 -1.4723715 3 3198851870800 1 0
47.1634 12.513959 1.4200835 15 3198851870800 1 0
100.27074 16.334618 1.7733041 58 3198851873104 1 0
23.03819 2.6024706 -1.3502207 5 3198851875408 1 0
21.572536 5.720862 -1.4303464 3 3198851873104 1 0
80.769806 17.234467 4.809725 28 3198851875408 1 0
91.45747 14.874314 3.7750304 29 3198851877712 1 0
27.00686 5.7589626 -1.2863064 4 3198851877712 1 0
25.994873 4.22422 -1.3802038 4 3198851880016 1 0
49.90812 10.635613 6.265547 29 3198851880016 1 0
91.328186 14.828746 7.553227 28 3198851882320 1 0
29.792889 7.8841386 -1.2555754 4 3198851882320 1 0
33.16271 3.7285852 -1.165364 5 3198851884624 1 0
0 0 0 9 3198851884624 1 0
93.17958 15.104317 17.2108 29 3198851886928 1 0
41.339825 8.792707 -0.9834725 6 3198851886928 1 0
0 0 0 4 3198851907664 1 0
47.306725 12.445992 -0.85384154 17 3198851907664 1 0
39.38958 6.330931 -1.1610614 8 3198851909968 1 0
0 0 0 1 3198851909968 1 0
8.233402 1.3219709 -1.6677815 16 3198851912272 1 0
51.75278 5.724989 -0.60617447 7 3198851914576 1 1
73.59366 15.537684 0 24 3198851912272 1 0
10.236831 2.1595712 -1.6276662 6 3198851914576 1 0
12.486686 2.0007882 -1.6096673 4 3198851916880 1 0
50.3969 13.224513 0.30282396 23 3198851916880 1 0
13.912499 2.930344 -1.5314878 3 3198851919184 1 0
16.044806 1.7671114 -1.5068092 3 3198851921488 1 0
70.67226 14.873657 1.6805292 22 3198851921488 1 0
51.183926 5.6289067 0.59946924 8 3198851923792 1 1
20.121683 4.2314405 -1.4378204 3 3198851923792 1 0
50.09345 8.018439 -0.29485 28 3198851919184 1 1
17.810654 2.8421779 -1.4723715 3 3198851926096 1 0
48.09887 12.588597 1.4469632 15 3198851926096 1 0
105.21526 16.772717 1.8597285 29 3198851928400 1 0
21.58802 5.646399 -1.4300905 3 3198851928400 1 0
23.02714 2.5212042 -1.3490578 5 3198851930704 1 0
93.25301 14.835178 3.8470008 29 3198851933008 1 0
81.53196 17.104706 4.851585 28 3198851930704 1 0
26.991438 5.658064 -1.2846313 4 3198851933008 1 0
26.02524 4.135963 -1.3810412 4 3198851935312 1 0
49.987686 10.47029 6.270909 14 3198851935312 1 0
93.053215 14.772868 7.6915464 28 3198851937616 1 0
29.79725 7.7731733 -1.2545984 4 3198851937616 1 0
33.16778 3.610008 -1.1650848 5 3198851939920 1 0
0 0 0 9 3198851939920 1 0
93.201935 14.765904 17.205061 29 3198851942224 1 0
41.230103 8.615295 -0.9801226 6 3198851942224 1 0
0 0 0 4 3198851962960 1 0
39.401657 6.178355 -1.1607124 8 3198851965264 1 0
47.37739 12.270272 -0.8542604 8 3198851962960 1 0
0 0 0 1 3198851965264 1 0
8.234505 1.2899799 -1.666997 15 3198851967568 1 0
54.08882 5.775654 -0.6332749 7 3198851969872 1 0
10.229473 2.117491 -1.6252066 6 3198851969872 1 0
72.25402 14.967472 0 23 3198851967568 1 0
12.490242 1.952942 -1.6091622 3 3198851972176 1 0
64.187096 16.583977 0.38530663 23 3198851972176 1 0
50.38808 7.8710427 -0.2964076 19 3198851974480 1 1
13.919544 2.87711 -1.5310594 3 3198851974480 1 0
16.059244 1.707734 -1.5075527 3 3198851976784 1 0
85.084564 17.57371 2.0216599 57 3198851976784 1 0
0 0 0 21 3198851979088 1 0
20.13736 4.156198 -1.4378204 3 3198851979088 1 0
48.029255 12.379482 1.4434723 7 3198851981392 1 0
104.506134 16.26246 1.8461156 29 3198851983696 1 0
21.504442 5.5394087 -1.4231832 3 3198851983696 1 0
17.797476 2.772161 -1.4704188 3 3198851981392 1 0
23.024384 2.4348586 -1.3483602 5 3198851986000 1 0
95.07627 14.766731 3.9199483 29 3198851988304 1 0
82.49807 16.989449 4.9053054 28 3198851986000 1 0
26.99642 5.5554833 -1.2838868 4 3198851988304 1 0
26.04417 4.04116 -1.3812505 4 3198851990608 1 0
105.838005 21.763927 13.267184 28 3198851990608 1 0
94.87939 14.707889 7.838002 28 3198851992912 1 0
29.802204 7.6583743 -1.2536215 4 3198851992912 1 0
33.27213 3.4989989 -1.1682955 5 3198851995216 1 0
0 0 0 9 3198851995216 1 0
93.2548 14.428272 17.205061 29 3198851997520 1 0
41.249283 8.4635105 -0.97984344 6 3198851997520 1 0
0 0 0 4 3198852018256 1 0
39.284573 6.0201554 -1.1566396 8 3198852020560 1 0
49.01261 12.51138 -0.88295215 8 3198852018256 1 0
0 0 0 1 3198852020560 1 0
8.2466755 1.2626551 -1.6685659 16 3198852022864 1 0
72.33284 14.722856 0 23 3198852022864 1 0
0 0 0 28 3198852025168 1 0
12.47726 1.9070604 -1.6066369 3 3198852027472 1 0
10.232839 2.0814295 -1.6245917 6 3198852025168 1 0
68.70123 17.498957 0.41204143 30 3198852027472 1 0
78.057755 11.920116 -0.45893195 27 3198852029776 1 0
13.917604 2.827142 -1.5297742 3 3198852029776 1 0
16.037231 1.6502147 -1.5049504 3 3198852032080 1 0
85.112526 17.277668 2.0209155 28 3198852032080 1 0
0 0 0 21 3198852034384 1 0
20.127865 4.083172 -1.4361463 3 3198852034384 1 0
17.802788 2.711491 -1.4700933 3 3198852036688 1 0
69.128105 17.569145 2.0757842 29 3198852036688 1 0
105.38654 16.037004 1.8607057 29 3198852038992 1 0
21.519062 5.466145 -1.4229274 3 3198852038992 1 0
22.996649 2.3541636 -1.3462672 8 3198852041296 1 0
84.18651 17.043797 5.002281 28 3198852041296 1 0
96.966255 14.72969 3.9958267 29 3198852043600 1 0
26.924698 5.447313 -1.2796059 3 3198852043600 1 0
26.021885 3.9493778 -1.3793665 4 3198852045904 1 0
96.894325 14.692812 8.000406 28 3198852048208 1 0
29.815704 7.5569925 -1.2531329 4 3198852048208 1 0
105.80453 21.391592 13.254023 28 3198852045904 1 0
33.25959 3.3871834 -1.1674579 5 3198852050512 1 0
0 0 0 9 3198852050512 1 0
41.37084 8.34746 -0.9820767 6 3198852052816 1 0
93.27428 14.118897 17.200039 29 3198852052816 1 0
0 0 0 4 3198852073552 1 0
48.4428 12.203949 -0.87199205 17 3198852073552 1 0
39.453545 5.919253 -1.1610614 8 3198852075856 1 0
0 0 0 1 3198852075856 1 0
8.242844 1.2355784 -1.666997 14 3198852078160 1 0
72.28068 14.475905 0 23 3198852078160 1 0
0 0 0 28 3198852080464 1 0
10.243202 2.0500474 -1.6252066 7 3198852080464 1 0
12.48319 1.8678526 -1.6066369 4 3198852082768 1 0
68.81018 17.29669 0.4123669 60 3198852082768 1 0
81.42575 12.1727915 -0.47850648 28 3198852085072 1 0
13.918618 2.7818458 -1.5289174 3 3198852085072 1 0
87.009476 17.378313 2.0646503 57 3198852087376 1 0
16.050262 1.6006145 -1.5056939 3 3198852087376 1 0
0 0 0 21 3198852089680 1 0
20.128853 4.0175753 -1.4353092 3 3198852089680 1 0
17.811218 2.6555486 -1.4700933 3 3198852091984 1 0
69.53587 17.440403 2.086373 59 3198852091984 1 0
110.57887 16.471869 1.9514583 29 3198852094288 1 0
21.505152 5.3907495 -1.4208807 3 3198852094288 1 0
22.924456 2.2740223 -1.341616 8 3198852096592 1 0
85.05422 16.941486 5.050653 28 3198852096592 1 0
99.186325 14.748288 4.0853825 29 3198852098896 1 0
26.941679 5.3626995 -1.2796059 3 3198852098896 1 0
26.038115 3.8681953 -1.3795758 4 3198852101200 1 0
105.8128 21.047474 13.24671 28 3198852101200 1 0
98.91177 14.680998 8.163135 28 3198852103504 1 0
29.761753 7.443891 -1.2498764 4 3198852103504 1 0
33.293938 3.285034 -1.1682955 5 3198852105808 1 0
0 0 0 9 3198852105808 1 0
93.314285 13.825222 17.199322 29 3198852108112 1 0
41.267418 8.191754 -0.979006 6 3198852108112 1 0
0 0 0 4 3198852129296 1 0
48.712345 12.082158 -0.876041 17 3198852129296 1 0
39.455276 5.771141 -1.1604795 8 3198852131600 1 0
0 0 0 1 3198852131600 1 0
8.255114 1.2062529 -1.6685659 15 3198852133904 1 0
72.58094 14.257356 0 23 3198852133904 1 0
0 0 0 28 3198852136208 1 0
10.235221 2.0089982 -1.622747 5 3198852136208 1 0
12.486132 1.8207877 -1.6061318 5 3198852138512 1 0
69.41382 17.173899 0.41559833 31 3198852138512 1 0
79.81617 11.627322 -0.46878895 28 3198852140816 1 0
13.917211 2.7275054 -1.5276324 3 3198852140816 1 0
16.048227 1.5396148 -1.5049504 3 3198852143120 1 0
87.019135 17.040934 2.0633476 28 3198852143120 1 0
0 0 0 21 3198852145424 1 0
20.136013 3.940189 -1.4347512 3 3198852145424 1 0
17.805351 2.5858839 -1.4687915 4 3198852147728 1 0
69.632385 17.18499 2.087304 29 3198852147728 1 0
111.04432 16.110554 1.9585788 29 3198852150032 1 0
21.513834 5.306207 -1.4201132 3 3198852150032 1 0
22.948856 2.1881657 -1.3425462 5 3198852152336 1 0
86.66627 16.919483 5.142513 28 3198852152336 1 0
101.21578 14.654548 4.1666346 29 3198852154640 1 0
26.914934 5.2504234 -1.2773724 3 3198852154640 1 0
26.052776 3.7681878 -1.3795758 4 3198852156944 1 0
105.87725 20.63799 13.2447605 28 3198852156944 1 0
100.81424 14.566471 8.315449 28 3198852159248 1 0
29.77858 7.326262 -1.2493879 4 3198852159248 1 0
33.366093 3.1618586 -1.1703895 5 3198852161552 1 0
0 0 0 9 3198852161552 1 0
93.340004 13.458815 17.1943 29 3198852163856 1 0
41.510887 8.072659 -0.98403084 6 3198852163856 1 0
0 0 0 4 3198852184592 1 0
48.901855 11.948117 -0.87869376 8 3198852184592 1 0
39.49493 5.6364927 -1.1610614 8 3198852186896 1 0
0 0 0 1 3198852186896 1 0
8.255374 1.1769964 -1.6677815 13 3198852189200 1 0
74.6096 14.386676 0 25 3198852189200 1 0
0 0 0 28 3198852191504 1 0
10.242128 1.9734818 -1.622747 6 3198852191504 1 0
12.488431 1.7769963 -1.6056267 4 3198852193808 1 0
72.93542 17.77749 0.436312 36 3198852193808 1 0
81.43991 11.576718 -0.47808802 28 3198852196112 1 0
13.918738 2.6779122 -1.5267755 3 3198852196112 1 0
16.037575 1.4828205 -1.5034633 3 3198852198416 1 0
87.454346 16.813353 2.0722806 28 3198852198416 1 0
51.194813 4.7262945 0.5985379 8 3198852200720 1 1
20.137691 3.8686445 -1.4339141 3 3198852200720 1 0
17.80228 2.523074 -1.467815 3 3198852203024 1 0
69.65988 16.93832 2.086373 29 3198852203024 1 0
0 0 0 21 3198852205328 1 0
21.524124 5.230602 -1.4196016 3 3198852205328 1 0
22.995966 2.1133697 -1.3448719 5 3198852207632 1 0
87.54326 16.780277 5.191117 28 3198852207632 1 0
102.84812 14.5329275 4.231766 29 3198852209936 1 0
26.92876 5.1578436 -1.2771863 3 3198852209936 1 0
25.986343 3.6683314 -1.375389 3 3198852212240 1 0
105.94298 20.276783 13.244273 28 3198852212240 1 0
102.86066 14.505708 8.480131 28 3198852214544 1 0
29.783867 7.2203803 -1.2485737 4 3198852214544 1 0
33.39254 3.0502226 -1.1709479 5 3198852216848 1 0
0 0 0 9 3198852216848 1 0
93.38888 13.14365 17.195017 29 3198852219152 1 0
0 0 0 6 3198852219152 1 0
0 0 0 4 3198852239888 1 0
48.38519 11.651989 -0.868711 8 3198852239888 1 0
39.533287 5.5076756 -1.1616431 8 3198852242192 1 0
0 0 0 1 3198852242192 1 0
8.27092 1.1509956 -1.6701349 2 3198852244496 1 0
0 0 0 28 3198852246800 1 0
10.23705 1.9368553 -1.6209022 7 3198852246800 1 0
74.66123 14.137755 0 50 3198852244496 1 0
12.486495 1.733755 -1.6046166 3 3198852249104 1 0
74.01011 17.775085 0.44237962 37 3198852249104 1 0
0 0 0 105 3198852251408 1 0
16.042528 1.4282298 -1.5034633 3 3198852253712 1 0
87.52679 16.518581 2.0726528 28 3198852253712 1 0
13.927733 2.6307285 -1.5267755 3 3198852251408 1 0
0 0 0 21 3198852256016 1 0
20.154718 3.800532 -1.4341931 3 3198852256016 1 0
17.771345 2.4564943 -1.4645605 4 3198852258320 1 0
69.73316 16.702839 2.0868385 29 3198852258320 1 0
111.52086 15.397929 1.9650712 29 3198852260624 1 0
21.534264 5.154518 -1.4190899 3 3198852260624 1 0
23.003143 2.033755 -1.3448719 5 3198852262928 1 0
87.75779 16.506668 5.200419 28 3198852262928 1 0
104.97269 14.461137 4.3170886 29 3198852265232 1 0
26.926893 5.060515 -1.2762556 3 3198852265232 1 0
25.975246 3.5743327 -1.3741329 3 3198852267536 1 0
105.90775 19.887066 13.231111 28 3198852267536 1 0
104.98046 14.429537 8.650671 28 3198852269840 1 0
29.793444 7.1122255 -1.2479224 4 3198852269840 1 0
33.42298 2.9344187 -1.1716459 5 3198852272144 1 0
0 0 0 9 3198852272144 1 0
41.715088 7.81336 -0.9875668 20 3198852274448 1 0
0 0 0 29 3198852274448 1 0
0 0 0 4 3198852295184 1 0
48.427574 11.47457 -0.868711 8 3198852295184 1 0
39.410534 5.34369 -1.1574541 8 3198852297488 1 0
0 0 0 1 3198852297488 1 0
8.278954 1.1213202 -1.6709193 1 3198852299792 1 0
75.13316 13.943194 0 25 3198852299792 1 0
0 0 0 28 3198852302096 1 0
12.488785 1.6878101 -1.6041116 3 3198852304400 1 0
10.232381 1.8973833 -1.6190575 7 3198852302096 1 0
75.401665 17.819567 0.45030707 39 3198852304400 1 0
0 0 0 236 3198852306704 1 0
13.917636 2.57655 -1.5246335 3 3198852306704 1 0
16.063469 1.3714769 -1.5049504 3 3198852309008 1 0
87.56637 16.197853 2.0721874 28 3198852309008 1 0
51.29055 4.371602 0.599283 8 3198852311312 1 1
20.160475 3.726212 -1.433635 3 3198852311312 1 0
17.78009 2.3923771 -1.4645605 3 3198852313616 1 0
69.78128 16.44845 2.0864894 29 3198852313616 1 0
111.53989 14.99159 1.9644428 29 3198852315920 1 0
21.556564 5.0778823 -1.4193457 3 3198852315920 1 0
23.01826 1.9517788 -1.3453369 5 3198852318224 1 0
80.74785 14.887998 4.7818184 28 3198852318224 1 0
110.35566 14.799743 4.5362563 29 3198852320528 1 0
25.975992 3.4797814 -1.3735049 3 3198852322832 1 0
105.93138 19.499386 13.225261 28 3198852322832 1 0
26.956652 4.9661164 -1.276814 3 3198852320528 1 0
138.84444 18.579247 11.435614 28 3198852325136 1 0
29.791414 6.9993997 -1.2467825 4 3198852325136 1 0
33.528828 2.823352 -1.1749963 5 3198852327440 1 0
0 0 0 9 3198852327440 1 0
0 0 0 29 3198852329744 1 0
41.78194 7.6721897 -0.9884974 13 3198852329744 1 0
0 0 0 4 3198852350480 1 0
48.225853 11.249128 -0.8643828 8 3198852350480 1 0
0 0 0 1 3198852352784 1 0
39.32581 5.193053 -1.1544287 8 3198852352784 1 0
8.271119 1.0911165 -1.6685659 1 3198852355088 1 0
75.971985 13.826997 0 26 3198852355088 1 0
51.852962 4.269923 -0.60570884 7 3198852357392 1 1
12.498439 1.6454506 -1.6046166 3 3198852359696 1 0
75.31045 17.52529 0.44940042 78 3198852359696 1 0
52.78851 6.9427094 -0.30944952 120 3198852362000 1 1
13.914621 2.5268338 -1.5233485 3 3198852362000 1 0
16.056135 1.3158228 -1.5038351 3 3198852364304 1 0
10.231083 1.8606864 -1.6178277 6 3198852357392 1 0
92.0042 16.695116 2.175848 28 3198852364304 1 0
51.340946 4.200697 0.59970206 8 3198852366608 1 1
20.059126 3.6372242 -1.4255433 3 3198852366608 1 0
69.72344 16.186672 2.0831149 29 3198852368912 1 0
17.776203 2.3308132 -1.4635842 4 3198852368912 1 0
105.33205 13.797098 1.8542833 29 3198852371216 1 0
21.542395 4.9982114 -1.417299 3 3198852371216 1 0
23.028639 1.8750911 -1.3455695 5 3198852373520 1 0
81.02118 14.658318 4.795074 28 3198852373520 1 0
110.41623 14.433658 4.536745 29 3198852375824 1 0
26.957314 4.8734617 -1.2760695 3 3198852375824 1 0
25.987389 3.3936229 -1.3735049 3 3198852378128 1 0
105.93685 19.137411 13.217949 28 3198852378128 1 0
138.97223 18.129507 11.441147 28 3198852380432 1 0
29.806572 6.8992004 -1.246457 4 3198852380432 1 0
33.482143 2.7086136 -1.1730419 5 3198852382736 1 0
0 0 0 9 3198852382736 1 0
0 0 0 29 3198852385040 1 0
41.39753 7.4616456 -0.9788199 6 3198852385040 1 0
0 0 0 4 3198852405776 1 0
49.352303 11.348522 -0.8839295 8 3198852405776 1 0
39.516563 5.0908155 -1.1595486 8 3198852408080 1 0
0 0 0 1 3198852408080 1 0
8.274569 1.0646453 -1.6685659 1 3198852410384 1 0
76.0119 13.58313 0 26 3198852410384 1 0
54.226948 4.2891808 -0.6332749 7 3198852412688 1 0
12.503733 1.6047227 -1.6046166 5 3198852414992 1 0
10.225365 1.8255581 -1.615983 5 3198852412688 1 0
75.36324 17.278946 0.44937718 78 3198852414992 1 0
52.886425 6.7788167 -0.30989122 255 3198852417296 1 0
13.911106 2.4789891 -1.5220633 3 3198852417296 1 0
16.06438 1.2628837 -1.5042068 3 3198852419600 1 0
93.62993 16.669601 2.212976 57 3198852419600 1 0
51.46237 4.0373735 0.6009593 8 3198852421904 1 1
20.059395 3.5680056 -1.4247062 3 3198852421904 1 0
17.772102 2.2693028 -1.4626077 4 3198852424208 1 0
69.746475 15.944185 2.082184 29 3198852424208 1 0
105.322845 13.43145 1.8533059 29 3198852426512 1 0
21.547606 4.9221983 -1.4165316 3 3198852426512 1 0
23.038921 1.7963452 -1.3458021 5 3198852428816 1 0
0 0 0 14 3198852431120 1 0
26.942547 4.7745404 -1.2745806 3 3198852431120 1 0
92.64248 16.432638 5.4794865 28 3198852428816 1 0
25.971336 3.2993653 -1.3720394 3 3198852433424 1 0
93.71581 16.592094 11.685807 28 3198852433424 1 0
110.16345 13.977114 9.065304 28 3198852435728 1 0
29.799496 6.7871456 -1.2451543 4 3198852435728 1 0
0 0 0 9 3198852438032 1 0
0 0 0 29 3198852440336 1 0
33.455673 2.5870006 -1.1717855 5 3198852438032 1 0
41.40821 7.3107 -0.9784477 6 3198852440336 1 0
0 0 0 4 3198852461072 1 0
48.100353 10.86635 -0.8607527 8 3198852461072 1 0
39.634933 4.952013 -1.1624577 8 3198852463376 1 0
0 0 0 1 3198852463376 1 0
8.224075 1.0263063 -1.6575834 1 3198852465680 1 0
93.94803 16.419085 0 28 3198852465680 1 0
0 0 0 28 3198852467984 1 0
12.509712 1.5574279 -1.6046166 4 3198852470288 1 0
10.2361145 1.7874085 -1.6165979 7 3198852467984 1 0
75.42414 16.992954 0.44935393 78 3198852470288 1 0
13.91251 2.4252026 -1.5212065 3 3198852472592 1 0
55.89258 6.950231 -0.32735023 249 3198852472592 1 1
16.065035 1.2022967 -1.5038351 3 3198852474896 1 0
93.85335 16.346273 2.2167912 57 3198852474896 1 0
0 0 0 21 3198852477200 1 0
17.788342 2.2040956 -1.4632587 4 3198852479504 1 0
20.076523 3.4936845 -1.4249853 3 3198852477200 1 0
69.774155 15.677371 2.081253 29 3198852479504 1 0
105.34812 13.0377865 1.852887 29 3198852481808 1 0
21.464447 4.819511 -1.40988 3 3198852481808 1 0
23.033453 1.7103338 -1.3451043 5 3198852484112 1 0
0 0 0 3 3198852484112 1 0
0 0 0 14 3198852486416 1 0
25.971361 3.2026868 -1.3714114 3 3198852488720 1 0
93.73296 16.241041 11.680446 28 3198852488720 1 0
26.959934 4.675367 -1.2745806 3 3198852486416 1 0
110.18604 13.571443 9.063025 28 3198852491024 1 0
33.428978 2.462692 -1.1705291 5 3198852493328 1 0
0 0 0 9 3198852493328 1 0
0 0 0 29 3198852495632 1 0
41.434414 7.16069 -0.9784477 6 3198852495632 1 0
29.820175 6.67744 -1.2449914 4 3198852491024 1 0
0 0 0 4 3198852516368 1 0
48.032578 10.674955 -0.8588678 8 3198852516368 1 0
39.55271 4.8018727 -1.1595486 8 3198852518672 1 0
0 0 0 1 3198852518672 1 0
8.227593 0.9977124 -1.6575834 1 3198852520976 1 0
93.84289 16.064741 0 28 3198852520976 1 0
0 0 0 28 3198852523280 1 0
10.230565 1.7498912 -1.6147531 6 3198852523280 1 0
12.511088 1.5136389 -1.6041116 3 3198852525584 1 0
75.33412 16.698874 0.4484705 78 3198852525584 1 0
58.80717 7.1064696 -0.34427452 255 3198852527888 1 1
13.912964 2.3757915 -1.5203497 3 3198852527888 1 0
16.073057 1.1471967 -1.5042068 3 3198852530192 1 0
93.79088 16.002485 2.2139995 57 3198852530192 1 0
0 0 0 21 3198852532496 1 0
20.080555 3.4232647 -1.4244272 3 3198852532496 1 0
17.787886 2.1420712 -1.4626077 4 3198852534800 1 0
69.81975 15.436054 2.0810204 29 3198852534800 1 0
128.41469 15.446087 2.2576432 29 3198852537104 1 0
21.48083 4.7459626 -1.40988 3 3198852537104 1 0
23.039164 1.631597 -1.3451043 5 3198852539408 1 0
88.4463 15.040299 5.2248373 28 3198852539408 1 0
0 0 0 14 3198852541712 1 0
26.881182 4.567325 -1.2701136 3 3198852541712 1 0
93.6233 15.894029 11.659971 28 3198852544016 1 0
25.997976 3.1161792 -1.3722488 3 3198852544016 1 0
109.96232 13.164933 9.0408945 28 3198852546320 1 0
33.385292 2.34575 -1.1687144 5 3198852548624 1 0
29.76462 6.558927 -1.2417349 4 3198852546320 1 0
0 0 0 9 3198852548624 1 0
0 0 0 29 3198852550928 1 0
41.458393 7.020536 -0.9784477 6 3198852550928 1 0
0 0 0 4 3198852571664 1 0
48.055992 10.513051 -0.8586584 8 3198852571664 1 0
0 0 0 1 3198852573968 1 0
8.226975 0.9698443 -1.6567988 2 3198852576272 1 0
93.90376 15.753416 0 28 3198852576272 1 0
0 0 0 28 3198852578576 1 0
10.228554 1.7144257 -1.6135234 6 3198852578576 1 0
39.639927 4.6788335 -1.1616431 8 3198852573968 1 0
12.488496 1.4685344 -1.600576 3 3198852580880 1 0
75.25668 16.417784 0.4476801 38 3198852580880 1 0
60.26081 7.077241 -0.35264367 128 3198852583184 1 1
13.909083 2.3271663 -1.5190645 3 3198852583184 1 0
16.068874 1.0926484 -1.5034633 3 3198852585488 1 0
0 0 0 21 3198852587792 1 0
93.80072 15.680029 2.212976 57 3198852585488 1 0
20.084095 3.3543189 -1.4238691 3 3198852587792 1 0
17.791054 2.0815742 -1.4622823 4 3198852590096 1 0
69.7386 15.171476 2.077064 29 3198852590096 1 0
120.53338 14.084777 2.1182334 29 3198852592400 1 0
21.477251 4.6690564 -1.4086008 3 3198852592400 1 0
23.036592 1.5529745 -1.3446393 5 3198852594704 1 0
89.52089 14.911067 5.285302 28 3198852594704 1 0
0 0 0 14 3198852597008 1 0
26.87289 4.472072 -1.2689968 3 3198852597008 1 0
26.0124 3.028142 -1.3724581 3 3198852599312 1 0
93.48495 15.543393 11.636085 28 3198852599312 1 0
138.97049 16.157274 11.421294 28 3198852601616 1 0
33.385136 2.2310946 -1.1684351 5 3198852603920 1 0
29.782911 6.4565253 -1.241572 4 3198852601616 1 0
0 0 0 9 3198852603920 1 0
0 0 0 29 3198852606224 1 0
41.59266 6.8968077 -0.9810532 6 3198852606224 1 0
0 0 0 4 3198852626960 1 0
48.06894 10.340194 -0.85823953 8 3198852626960 1 0
39.513012 4.524062 -1.1574541 8 3198852629264 1 0
0 0 0 1 3198852629264 1 0
8.226414 0.94067526 -1.6560144 2 3198852631568 1 0
0 0 0 19 3198852631568 1 0
56.7726 3.6862445 -0.66233104 8 3198852633872 1 0
10.230576 1.6780713 -1.6129084 6 3198852633872 1 0
12.489604 1.4244827 -1.600071 3 3198852636176 1 0
0 0 0 1 3198852636176 1 0
0 0 0 38 3198852638480 1 0
13.905348 2.2766726 -1.5177794 3 3198852638480 1 0
16.068615 1.0362946 -1.5030915 3 3198852640784 1 0
100.2679 16.40153 2.3641865 85 3198852640784 1 0
20.083868 3.2822611 -1.423032 3 3198852643088 1 0
156.73323 10.085123 1.8284416 28 3198852643088 1 0
17.782366 2.0176613 -1.4609805 4 3198852645392 1 0
69.78331 14.926278 2.0768313 29 3198852645392 1 0
120.45067 13.649091 2.1159298 29 3198852647696 1 0
21.489515 4.593224 -1.408345 3 3198852647696 1 0
23.041874 1.4725523 -1.3446393 5 3198852650000 1 0
91.3026 14.880478 5.3873944 28 3198852650000 1 0
0 0 0 14 3198852652304 1 0
26.896223 4.379525 -1.269369 3 3198852652304 1 0
93.41715 15.197213 11.620973 28 3198852654608 1 0
26.02678 2.9377713 -1.3726674 3 3198852654608 1 0
139.0102 15.670292 11.419992 28 3198852656912 1 0
29.781813 6.3475256 -1.2405951 4 3198852656912 1 0
33.42065 2.1163135 -1.1694124 5 3198852659216 1 0
0 0 0 9 3198852659216 1 0
0 0 0 29 3198852661520 1 0
0 0 0 4 3198852661520 1 0
0 0 0 4 3198852682256 1 0
48.073437 10.165719 -0.85768104 8 3198852682256 1 0
39.69944 4.4050694 -1.1624577 8 3198852684560 1 0
0 0 0 1 3198852684560 1 0
8.237444 0.91281796 -1.6575834 1 3198852686864 1 0
0 0 0 7 3198852686864 1 0
57.519684 3.5331697 -0.6708989 17 3198852689168 1 0
10.228565 1.6410973 -1.6116786 5 3198852689168 1 0
12.4945 1.3808773 -1.600071 3 3198852691472 1 0
0 0 0 38 3198852693776 1 0
84.238304 17.762033 0.5003593 39 3198852691472 1 0
13.905356 2.2268622 -1.5169226 3 3198852693776 1 0
16.064184 0.9797134 -1.502348 3 3198852696080 1 0
100.28505 16.04511 2.363256 28 3198852696080 1 0
156.46805 9.519743 1.8249494 28 3198852698384 1 0
20.103083 3.2133949 -1.4235901 3 3198852698384 1 0
69.85847 14.687533 2.0775297 29 3198852700688 1 0
17.769485 1.9533988 -1.4593532 4 3198852700688 1 0
0 0 0 21 3198852702992 1 0
21.50151 4.517363 -1.4080892 3 3198852702992 1 0
23.05086 1.3923529 -1.3448719 5 3198852705296 1 0
92.83278 14.797399 5.4746027 28 3198852705296 1 0
26.86005 4.277444 -1.2669494 3 3198852707600 1 0
0 0 0 14 3198852707600 1 0
26.064672 2.8499422 -1.3741329 3 3198852709904 1 0
93.45003 14.867915 11.618536 28 3198852709904 1 0
139.0363 15.181931 11.417714 28 3198852712208 1 0
29.776407 6.237793 -1.2394552 4 3198852712208 1 0
0 0 0 9 3198852714512 1 0
33.48769 2.0032215 -1.1715063 5 3198852714512 1 0
0 0 0 29 3198852716816 1 0
41.73853 6.6219354 -0.9833795 20 3198852716816 1 0
0 0 0 4 3198852737552 1 0
48.022484 9.979947 -0.85614526 8 3198852737552 1 0
39.68675 4.263476 -1.1616431 8 3198852739856 1 0
0 0 0 1 3198852739856 1 0
8.23278 0.88322157 -1.6560144 2 3198852742160 1 0
50.548702 7.936807 0 29 3198852742160 1 1
56.597298 3.2782462 -0.6600028 8 3198852744464 1 0
10.234231 1.605383 -1.6116786 6 3198852744464 1 0
12.495298 1.3368328 -1.5995659 3 3198852746768 1 0
85.08706 17.631008 0.50503206 38 3198852746768 1 0
13.909116 2.1776948 -1.5164942 3 3198852749072 1 0
50.91338 5.439573 -0.29759324 28 3198852749072 1 1
16.067507 0.923633 -1.502348 3 3198852751376 1 0
105.10126 16.439625 2.4753842 28 3198852751376 1 0
156.34859 8.964809 1.8231798 28 3198852753680 1 0
20.098408 3.1407382 -1.422474 3 3198852753680 1 0
17.772232 1.890938 -1.4590278 4 3198852755984 1 0
84.94917 17.550898 2.5244765 39 3198852755984 1 0
0 0 0 21 3198852758288 1 0
21.50151 4.4390526 -1.4070659 3 3198852758288 1 0
23.047606 1.3114282 -1.3444067 5 3198852760592 1 0
94.46211 14.719186 5.567625 28 3198852760592 1 0
0 0 0 14 3198852762896 1 0
26.062544 2.7576811 -1.3735049 3 3198852765200 1 0
26.886662 4.1855025 -1.2675078 3 3198852762896 1 0
93.46605 14.536132 11.614148 28 3198852765200 1 0
139.09637 14.697349 11.418365 28 3198852767504 1 0
29.782341 6.1305923 -1.238804 4 3198852767504 1 0
33.454563 1.8840677 -1.1701103 5 3198852769808 1 0
0 0 0 9 3198852769808 1 0
0 0 0 29 3198852772112 1 0
41.82857 6.4866185 -0.98496133 6 3198852772112 1 0
0 0 0 4 3198852792296 1 0
48.033516 9.807456 -0.8557264 17 3198852792296 1 0
39.88035 4.1435113 -1.1668795 8 3198852794600 1 0
0 0 0 1 3198852794600 1 0
8.22801 0.85366887 -1.6544454 1 3198852796904 1 0
0 0 0 3 3198852796904 1 0
56.907932 3.0969658 -0.6634952 8 3198852799208 1 0
10.235867 1.5690502 -1.6110637 6 3198852799208 1 0
12.491995 1.2923912 -1.5985557 3 3198852801512 1 0
0 0 0 1 3198852801512 1 0
13.8969755 2.1261225 -1.5143523 3 3198852803816 1 0
50.900227 5.25853 -0.29740724 19 3198852803816 1 1
16.070633 0.86754125 -1.502348 3 3198852806120 1 0
105.019646 16.051506 2.4721274 28 3198852806120 1 0
156.15128 8.40674 1.8205258 28 3198852808424 1 0
20.10925 3.0705626 -1.422474 3 3198852808424 1 0
17.766827 1.8276659 -1.4580513 4 3198852810728 1 0
0 0 0 21 3198852813032 1 0
86.90251 17.6384 2.5806794 37 3198852810728 1 0
21.485579 4.357624 -1.4050193 3 3198852813032 1 0
96.18676 14.644201 5.666229 28 3198852815336 1 0
23.067993 1.2318208 -1.3453369 5 3198852815336 1 0
26.893208 4.0904236 -1.2671355 3 3198852817640 1 0
0 0 0 14 3198852817640 1 0
26.072012 2.6666892 -1.3735049 3 3198852819944 1 0
93.50837 14.208592 11.6131735 28 3198852819944 1 0
139.16666 14.213748 11.419992 28 3198852822248 1 0
29.799643 6.025803 -1.2386411 4 3198852822248 1 0
33.452953 1.7668562 -1.1698312 5 3198852824552 1 0
0 0 0 9 3198852824552 1 0
0 0 0 29 3198852826856 1 0
41.54256 6.2938466 -0.9777033 6 3198852826856 1 0
0 0 0 4 3198852847592 1 0
48.028244 9.631864 -0.8550283 17 3198852847592 1 0
39.89454 4.0045676 -1.1668795 8 3198852849896 1 0
0 0 0 1 3198852849896 1 0
8.234831 0.8254535 -1.6552299 1 3198852852200 1 0
93.94662 14.08093 0 28 3198852852200 1 0
0 0 0 28 3198852854504 1 0
10.229521 1.5317783 -1.609219 7 3198852854504 1 0
12.4845495 1.2479576 -1.5970405 3 3198852856808 1 0
0 0 0 7 3198852856808 1 0
50.91411 5.0822773 -0.297384 38 3198852859112 1 1
13.904238 2.0781054 -1.5143523 4 3198852859112 1 0
106.201546 15.857716 2.4986475 28 3198852861416 1 0
16.081482 0.8125423 -1.5030915 3 3198852861416 1 0
159.15129 8.019324 1.8551695 28 3198852863720 1 0
20.103905 2.9990187 -1.4213579 3 3198852863720 1 0
17.761093 1.765488 -1.457075 4 3198852866024 1 0
86.98999 17.345478 2.581494 37 3198852866024 1 0
0 0 0 21 3198852868328 1 0
21.492548 4.282446 -1.4045075 3 3198852868328 1 0
23.060104 1.1523709 -1.3446393 5 3198852870632 1 0
98.1124 14.594436 5.7766933 28 3198852870632 1 0
0 0 0 14 3198852872936 1 0
26.895145 3.9969141 -1.2665772 3 3198852872936 1 0
26.057085 2.5755832 -1.3722488 3 3198852875240 1 0
93.46194 13.876272 11.601474 28 3198852875240 1 0
139.24586 13.744173 11.422596 28 3198852877544 1 0
29.768974 5.9144406 -1.2365243 4 3198852877544 1 0
33.490692 1.6550578 -1.1709479 5 3198852879848 1 0
0 0 0 9 3198852879848 1 0
0 0 0 29 3198852882152 1 0
41.571518 6.154503 -0.97788936 6 3198852882152 1 0
0 0 0 4 3198852902888 1 0
0 0 0 94 3198852902888 1 0
0 0 0 1 3198852905192 1 0
39.939495 3.874759 -1.1678104 8 3198852905192 1 0
8.249258 0.79903615 -1.6575834 1 3198852907496 1 0
93.96945 13.763102 0 28 3198852907496 1 0
0 0 0 28 3198852909800 1 0
10.23461 1.497401 -1.609219 6 3198852909800 1 0
12.488689 1.2058239 -1.5970405 3 3198852912104 1 0
0 0 0 1 3198852912104 1 0
50.907146 4.9074054 -0.29724452 18 3198852914408 1 1
16.076199 0.75743127 -1.502348 3 3198852916712 1 0
13.895459 2.0286763 -1.5126387 4 3198852914408 1 0
110.6591 16.138487 2.6022148 28 3198852916712 1 0
20.102192 2.9285617 -1.4205208 3 3198852919016 1 0
0 0 0 21 3198852919016 1 0
17.76705 1.7045131 -1.457075 4 3198852921320 1 0
0 0 0 21 3198852923624 1 0
87.20204 17.076752 2.5860322 37 3198852921320 1 0
21.487595 4.2045026 -1.4032284 3 3198852923624 1 0
23.059965 1.0723546 -1.3444067 5 3198852925928 1 0
100.331856 14.569777 5.9043665 28 3198852925928 1 0
0 0 0 14 3198852928232 1 0
26.061941 2.4842322 -1.3720394 3 3198852930536 1 0
26.889105 3.9005315 -1.2656466 3 3198852928232 1 0
93.48623 13.546528 11.598549 28 3198852930536 1 0
139.27731 13.254494 11.421294 28 3198852932840 1 0
29.81698 5.815414 -1.2376641 4 3198852932840 1 0
33.504295 1.5375355 -1.1712271 5 3198852935144 1 0
0 0 0 29 3198852937448 1 0
0 0 0 9 3198852935144 1 0
41.478233 5.990961 -0.9751908 6 3198852937448 1 0
0 0 0 4 3198852958184 1 0
48.302433 9.336559 -0.85872823 25 3198852958184 1 0
39.969326 3.730124 -1.1682758 8 3198852960488 1 0
0 0 0 1 3198852960488 1 0
8.232594 0.7670962 -1.653661 2 3198852962792 1 0
94.63681 13.508136 0 28 3198852962792 1 0
0 0 0 28 3198852965096 1 0
10.232171 1.4589868 -1.6079891 6 3198852965096 1 0
12.48904 1.160039 -1.5965354 3 3198852967400 1 0
75.061905 14.463702 0.44428593 38 3198852967400 1 0
0 0 0 9 3198852969704 1 0
13.890917 1.976558 -1.5113535 3 3198852969704 1 0
16.066898 0.6986864 -1.5012326 3 3198852972008 1 0
0 0 0 21 3198852974312 1 0
20.132399 2.8586926 -1.421916 3 3198852974312 1 0
17.78499 1.6415154 -1.4580513 4 3198852976616 1 0
87.49866 16.807356 2.5930138 37 3198852976616 1 0
0 0 0 21 3198852978920 1 0
21.408504 4.109067 -1.3970885 3 3198852978920 1 0
110.990005 15.776454 2.6086354 28 3198852972008 1 0
23.059679 0.9893344 -1.3441741 5 3198852981224 1 0
102.755844 14.545041 6.0439 28 3198852981224 1 0
129.31584 11.878663 5.2906437 29 3198852983528 1 0
26.918741 3.8063416 -1.266391 3 3198852983528 1 0
26.042818 2.388415 -1.370574 3 3198852985832 1 0
93.50658 13.208069 11.595137 28 3198852985832 1 0
129.1245 11.82321 10.585193 28 3198852988136 1 0
29.814003 5.7044044 -1.2366872 4 3198852988136 1 0
33.505566 1.4179685 -1.1710875 5 3198852990440 1 0
0 0 0 9 3198852990440 1 0
0 0 0 29 3198852992744 1 0
41.62995 5.861822 -0.9782616 6 3198852992744 1 0
0 0 0 4 3198853013480 1 0
48.14612 9.132121 -0.8553773 17 3198853013480 1 0
40.009953 3.5933766 -1.1690904 8 3198853015784 1 0
0 0 0 1 3198853015784 1 0
95.867775 13.343969 0 28 3198853018088 1 0
0 0 0 73 3198853018088 1 0
50.799015 2.0547302 -0.59187925 6 3198853020392 1 1
10.23717 1.4234843 -1.6079891 6 3198853020392 1 0
12.496933 1.1171536 -1.5970405 3 3198853022696 1 0
75.08401 14.198581 0.4441232 38 3198853022696 1 0
13.893723 1.9280163 -1.5109252 3 3198853025000 1 0
16.07319 0.6434587 -1.5016043 3 3198853027304 1 0
50.980473 4.5502596 -0.29747698 38 3198853025000 1 1
0 0 0 1 3198853027304 1 0
50.036804 1.9962006 0.58298546 8 3198853029608 1 1
20.126303 2.7872357 -1.4207999 3 3198853029608 1 0
17.766695 1.5783424 -1.4560986 3 3198853031912 1 0
87.50869 16.498032 2.5916176 37 3198853031912 1 0
0 0 0 21 3198853034216 1 0
21.414608 4.0342364 -1.3965769 3 3198853034216 1 0
23.070906 0.91082734 -1.3446393 5 3198853036520 1 0
104.778854 14.4662695 6.1599455 28 3198853036520 1 0
129.19238 11.42311 5.283968 29 3198853038824 1 0
26.90386 3.7106874 -1.2650882 3 3198853038824 1 0
26.030901 2.2980113 -1.3695273 3 3198853041128 1 0
93.53133 12.887044 11.592699 28 3198853041128 1 0
129.1639 11.38462 10.585193 28 3198853043432 1 0
29.750715 5.5876274 -1.2332678 4 3198853043432 1 0
33.522163 1.3048818 -1.1715063 5 3198853045736 1 0
0 0 0 9 3198853045736 1 0
0 0 0 29 3198853048040 1 0
41.68519 5.725912 -0.97909904 6 3198853048040 1 0
0 0 0 4 3198853068776 1 0
48.081776 8.954838 -0.8537019 17 3198853068776 1 0
39.993813 3.4576862 -1.1682758 8 3198853071080 1 0
8.280621 0.7146314 -1.6622902 13 3198853073384 1 0
96.60551 13.117381 0 28 3198853073384 1 0
50.513855 1.8732262 -0.58848006 13 3198853075688 1 1
10.237979 1.3885506 -1.6073742 6 3198853075688 1 0
12.500631 1.074979 -1.5970405 3 3198853077992 1 0
75.08036 13.935655 0.44382098 38 3198853077992 1 0
0 0 0 1 3198853071080 1 0
51.02748 4.3802056 -0.29766297 48 3198853080296 1 1
13.888353 1.8793217 -1.50964 4 3198853080296 1 0
16.075289 0.5887517 -1.5016043 3 3198853082600 1 0
111.594795 15.08325 2.6203601 28 3198853082600 1 0
50.982647 1.859425 0.59392804 8 3198853084904 1 1
20.119894 2.7162938 -1.4196837 3 3198853084904 1 0
17.77598 1.5176886 -1.4564241 3 3198853087208 1 0
0 0 0 3 3198853087208 1 0
51.772408 4.4122925 0.9069667 10 3198853089512 1 1
21.432312 3.9611213 -1.3968327 3 3198853089512 1 0
23.065939 0.83067304 -1.3441741 5 3198853091816 1 0
0 0 0 3 3198853091816 1 0
129.06802 10.96009 5.277292 29 3198853094120 1 0
26.896795 3.6144836 -1.2641575 3 3198853094120 1 0
26.066626 2.209494 -1.3709927 3 3198853096424 1 0
93.56787 12.559423 11.591724 28 3198853096424 1 0
129.0759 10.92105 10.574778 28 3198853098728 1 0
29.785841 5.486207 -1.2339191 4 3198853098728 1 0
33.550518 1.1877329 -1.1723439 5 3198853101032 1 0
0 0 0 9 3198853101032 1 0
0 0 0 29 3198853103336 1 0
41.887493 5.602937 -0.9833795 13 3198853103336 1 0
0 0 0 4 3198853124072 1 0
48.153618 8.7857275 -0.85440004 17 3198853124072 1 0
39.966347 3.3080711 -1.1671122 8 3198853126376 1 0
0 0 0 1 3198853126376 1 0
8.287083 0.68472004 -1.6630746 13 3198853128680 1 0
0 0 0 3 3198853128680 1 0
50.49236 1.6882377 -0.5881541 13 3198853130984 1 1
10.239052 1.3507239 -1.6067593 6 3198853130984 1 0
12.496549 1.0288671 -1.5960304 3 3198853133288 1 0
75.48866 13.727688 0.4459365 38 3198853133288 1 0
51.094864 4.1992664 -0.2979652 9 3198853135592 1 1
13.887196 1.827873 -1.5087832 4 3198853135592 1 0
16.077314 0.5305304 -1.5016043 3 3198853137896 1 0
111.47424 14.65607 2.6162658 28 3198853137896 1 0
51.24088 1.6834213 0.5968616 8 3198853140200 1 1
17.773392 1.452911 -1.4557731 4 3198853142504 1 0
0 0 0 3 3198853142504 1 0
20.038586 2.631607 -1.4132662 3 3198853140200 1 0
54.77756 4.469849 0.9593239 12 3198853144808 1 1
21.418936 3.8789656 -1.3950418 3 3198853144808 1 0
23.080748 0.7481923 -1.3448719 5 3198853147112 1 0
0 0 0 3 3198853147112 1 0
129.05072 10.492751 5.275012 29 3198853149416 1 0
26.842228 3.5092247 -1.2609935 3 3198853149416 1 0
26.070381 2.1158926 -1.3707833 3 3198853151720 1 0
0 0 0 1 3198853151720 1 0
129.14188 10.462349 10.577056 28 3198853154024 1 0
29.789509 5.3769774 -1.2332678 4 3198853154024 1 0
33.64244 1.0709707 -1.175415 5 3198853156328 1 0
0 0 0 9 3198853156328 1 0
41.915085 5.4549775 -0.98356557 13 3198853158632 1 0
0 0 0 29 3198853158632 1 0
0 0 0 4 3198853179368 1 0
48.13675 8.609138 -0.8535623 17 3198853179368 1 0
0 0 0 1 3198853181672 1 0
40.04541 3.1739128 -1.1690904 8 3198853181672 1 0
8.289422 0.65578854 -1.6630746 10 3198853183976 1 0
53.000103 6.811409 0 10 3198853183976 1 0
50.88175 1.5234677 -0.59262425 13 3198853186280 1 1
10.247624 1.3154778 -1.6073742 6 3198853186280 1 0
12.496108 0.984928 -1.5955253 3 3198853188584 1 0
58.972782 4.6395326 -0.34380957 31 3198853190888 1 1
13.897436 1.7798917 -1.5092117 4 3198853190888 1 0
16.071108 0.47417194 -1.5008608 3 3198853193192 1 0
111.342255 14.243521 2.6119854 28 3198853193192 1 0
52.889626 1.5527892 0.6159996 9 3198853195496 1 1
93.689674 16.69992 0.5531082 32 3198853188584 1 0
20.031818 2.5596204 -1.41215 3 3198853195496 1 0
17.778355 1.3908615 -1.4557731 3 3198853197800 1 0
93.64949 16.636549 2.768139 32 3198853197800 1 0
139.11525 10.863105 2.4356577 29 3198853200104 1 0
21.424484 3.8027809 -1.3945302 3 3198853200104 1 0
23.08322 0.6676209 -1.3448719 5 3198853202408 1 0
110.269295 14.041064 6.473664 28 3198853202408 1 0
128.93515 10.0304365 5.2688246 29 3198853204712 1 0
26.858278 3.4160106 -1.2611796 3 3198853204712 1 0
26.06566 2.0239494 -1.3701553 3 3198853207016 1 0
128.97887 9.996094 10.560783 28 3198853209320 1 0
0 0 0 1 3198853207016 1 0
29.819902 5.2750487 -1.2337563 4 3198853209320 1 0
0 0 0 9 3198853211624 1 0
33.657963 0.9538698 -1.1758338 5 3198853211624 1 0
0 0 0 29 3198853213928 1 0
41.826756 5.295073 -0.9810532 6 3198853213928 1 0
0 0 0 4 3198853234664 1 0
48.0759 8.425178 -0.85195667 16 3198853234664 1 0
40.22768 3.0470946 -1.174094 8 3198853236968 1 0
0 0 0 12 3198853239272 1 0
0 0 0 112 3198853239272 1 0
0 0 0 1 3198853236968 1 0
50.90275 1.3462709 -0.5928105 13 3198853241576 1 1
10.240388 1.2782303 -1.6055295 6 3198853241576 1 0
12.503427 0.94160044 -1.5960304 3 3198853243880 1 0
93.849846 16.390673 0.55371267 65 3198853243880 1 0
61.97614 4.6581964 -0.36122206 12 3198853246184 1 1
13.903564 1.7313697 -1.5092117 4 3198853246184 1 0
16.076645 0.41817397 -1.5012326 3 3198853248488 1 0
0 0 0 1 3198853248488 1 0
52.294964 1.3526473 0.6090149 9 3198853250792 1 1
20.028751 2.488205 -1.4113129 3 3198853250792 1 0
17.787077 1.329092 -1.4560986 3 3198853253096 1 0
93.71093 16.310236 2.7682552 65 3198853253096 1 0
157.27124 11.728674 2.752803 29 3198853255400 1 0
21.417965 3.7245526 -1.3932511 3 3198853255400 1 0
110.18289 13.639388 6.465757 28 3198853257704 1 0
128.93748 9.577939 5.2675223 29 3198853260008 1 0
23.077425 0.58683836 -1.3444067 5 3198853257704 1 0
26.870039 3.322237 -1.2611796 3 3198853260008 1 0
26.088501 1.9341322 -1.3709927 3 3198853262312 1 0
0 0 0 1 3198853262312 1 0
128.80226 9.530221 10.543534 28 3198853264616 1 0
29.830257 5.1695604 -1.2334306 4 3198853264616 1 0
33.685066 0.8369716 -1.1766714 5 3198853266920 1 0
0 0 0 29 3198853269224 1 0
0 0 0 9 3198853266920 1 0
41.721943 5.1338983 -0.97816855 6 3198853269224 1 0
0 0 0 4 3198853289960 1 0
48.08531 8.253927 -0.8516076 16 3198853289960 1 0
40.238052 2.9069479 -1.174094 8 3198853292264 1 0
0 0 0 1 3198853292264 1 0
8.305527 0.5988688 -1.665428 1 3198853294568 1 0
0 0 0 250 3198853294568 1 0
50.88312 1.1691383 -0.59253114 13 3198853296872 1 1
10.232989 1.2412726 -1.6036848 5 3198853296872 1 0
12.506611 0.8983134 -1.5960304 3 3198853299176 1 0
93.77197 16.042774 0.55292225 65 3198853299176 1 0
0 0 0 9 3198853301480 1 0
13.91341 1.6838104 -1.50964 4 3198853301480 1 0
16.077991 0.362755 -1.5012326 3 3198853303784 1 0
0 0 0 1 3198853303784 1 0
51.311623 1.1506101 0.5975135 8 3198853306088 1 1
20.021345 2.4173832 -1.4101969 3 3198853306088 1 0
17.791534 1.2680305 -1.4560986 3 3198853308392 1 0
157.02327 11.169488 2.7477767 29 3198853310696 1 0
