# .PCD v.7 - Point Cloud Data file format
VERSION .7
FIELDS x y z rgb timestamp_ns device_id active
SIZE 4 4 4 4 8 1 1
TYPE F F F F F U U
COUNT 1 1 1 1 1 1 1
WIDTH 990
HEIGHT 1
VIEWPOINT 0 0 0 1 0 0 0
POINTS 990               
DATA ascii
0.2842527 -11.039242 -1.4056178 5 3204478949472 1 0
10.373075 -83.57732 0.48947936 40 3204478949472 1 0
1.2075331 -47.17575 -0.27427584 8 3204478951776 1 0
-0.46962893 -20.039352 -1.87115 3 3204478954080 1 0
1.2180303 -16.327917 -1.7636741 2 3204478951776 1 0
-1.6586156 -70.315674 0.81883377 39 3204478956384 1 0
1.9475778 -26.215563 -1.8382226 6 3204478956384 1 0
0.56385297 -22.430273 -1.831677 14 3204478958688 1 0
15.974862 -129.35815 3.7932892 44 3204478958688 1 0
5.6946707 -76.49556 1.7849342 51 3204478954080 1 0
1.8582374 -74.37346 1.2985986 74 3204478960992 1 0
3.433186 -27.835539 -1.7974627 12 3204478960992 1 0
-0.77545345 -32.24802 -1.8785881 9 3204478963296 1 0
5.708715 -77.32218 4.515309 28 3204478963296 1 0
2.2110398 -30.01003 -1.4017036 46 3204478965600 1 0
1.8359554 -74.39162 3.0317154 58 3204478965600 1 0
0.75151867 -30.640722 -1.6062952 35 3204478967904 1 0
0 0 0 1 3204478967904 1 0
3.58733 -29.232275 -1.1998878 12 3204478970208 1 0
-0.7852736 -31.846903 -1.1124563 29 3204478972512 1 0
0 0 0 8 3204478970208 1 0
0 0 0 9 3204478972512 1 0
0 0 0 29 3204478974816 1 0
3.6068792 -49.367012 -1.1518046 28 3204478974816 1 0
0.086030185 -3.7910159 -1.7682348 1 3204478995552 1 0
1.0106571 -44.837624 -1.3052341 19 3204478997856 1 0
6.0924125 -50.344982 -0.8851861 8 3204478995552 1 0
0.44052923 -6.1588883 -1.7285172 5 3204478997856 1 0
0.19770156 -8.830856 -1.7666246 3 3204479000160 1 0
5.3414526 -74.83762 0 24 3204479000160 1 0
-1.8735876 -70.318275 -0.81892693 23 3204479002464 1 0
0.75306296 -10.573696 -1.649188 5 3204479002464 1 0
0.24422795 -11.060044 -1.4081433 3 3204479004768 1 0
0 0 0 1 3204479004768 1 0
0 0 0 38 3204479007072 1 0
-0.5437211 -20.061384 -1.8733807 3 3204479009376 1 0
1.1581774 -16.332272 -1.7636741 2 3204479007072 1 0
5.4134154 -76.50395 1.7846551 51 3204479009376 1 0
-1.9164333 -70.31312 0.8188804 19 3204479011680 1 0
1.8511988 -26.218546 -1.8379436 6 3204479011680 1 0
0.48189488 -22.444147 -1.8326534 11 3204479013984 1 0
1.5783019 -74.0359 1.292595 73 3204479016288 1 0
3.323555 -27.784517 -1.7933694 9 3204479016288 1 0
0 0 0 3 3204479013984 1 0
-0.8935325 -32.24097 -1.8783555 9 3204479018592 1 0
5.422762 -77.30673 4.513216 28 3204479018592 1 0
1.5557276 -74.03822 3.0170608 58 3204479020896 1 0
2.1054964 -30.081707 -1.4046816 37 3204479020896 1 0
0.6405426 -30.70717 -1.6096447 35 3204479023200 1 0
0 0 0 1 3204479023200 1 0
3.493388 -29.35635 -1.204447 12 3204479025504 1 0
0 0 0 8 3204479025504 1 0
0 0 0 9 3204479027808 1 0
-0.8988238 -31.731922 -1.1085476 14 3204479027808 1 0
0 0 0 29 3204479030112 1 0
0 0 0 16 3204479030112 1 0
0.07258776 -3.7804193 -1.7631634 1 3204479051296 1 0
6.1849403 -52.649887 -0.9253266 9 3204479051296 1 0
0.8549215 -44.864857 -1.3059323 28 3204479053600 1 0
0.4190728 -6.1603856 -1.7285172 6 3204479053600 1 0
5.417193 -79.80435 0 28 3204479055904 1 0
0.1669292 -8.827568 -1.76584 3 3204479055904 1 0
0.71638 -10.576245 -1.649188 5 3204479058208 1 0
0.20645851 -11.088595 -1.4116788 5 3204479060512 1 0
9.499026 -81.26936 0.47555402 42 3204479060512 1 0
1.3621284 -73.73418 -0.428617 22 3204479062816 1 0
1.1028244 -16.352047 -1.7653878 2 3204479062816 1 0
-2.0199738 -67.073044 -0.7812098 11 3204479058208 1 0
-0.61347795 -20.079296 -1.8752395 3 3204479065120 1 0
-2.0731084 -67.53161 0.7865647 34 3204479067424 1 0
1.7628741 -26.252626 -1.8398968 6 3204479067424 1 0
0.40506878 -22.457626 -1.8336297 11 3204479069728 1 0
9.260848 -79.63338 2.333177 43 3204479069728 1 0
1.317908 -73.66099 1.285963 72 3204479072032 1 0
3.2297494 -27.807634 -1.7941369 9 3204479072032 1 0
-1.0045946 -32.265667 -1.8799834 13 3204479074336 1 0
8.8106785 -132.07016 7.7085366 28 3204479074336 1 0
1.2988389 -73.79534 3.0069654 58 3204479076640 1 0
2.0055397 -30.128582 -1.4065428 46 3204479076640 1 0
0.53686714 -30.7571 -1.6121567 30 3204479078944 1 0
0 0 0 1 3204479078944 1 0
0 0 0 8 3204479081248 1 0
5.1899486 -77.12064 1.798613 26 3204479065120 1 0
3.4083514 -29.495092 -1.2096575 12 3204479081248 1 0
-1.0024245 -31.604832 -1.10422 9 3204479083552 1 0
0 0 0 9 3204479083552 1 0
0 0 0 29 3204479085856 1 0
0.05939119 -3.7806497 -1.7631634 1 3204479106592 1 0
3.3706782 -29.584063 -0.51973265 4 3204479106592 1 0
3.2212653 -48.8206 -1.1384981 27 3204479085856 1 0
0.47932726 -30.783234 -0.89598846 42 3204479108896 1 0
0.39761132 -6.161808 -1.7285172 6 3204479108896 1 0
0.13636367 -8.835938 -1.767409 3 3204479111200 1 0
-2.2339635 -66.50999 -0.77473736 21 3204479113504 1 0
4.774518 -74.150444 0 47 3204479111200 1 0
0.6809556 -10.598388 -1.6522627 15 3204479113504 1 0
0.16813354 -11.093211 -1.4121838 12 3204479115808 1 0
9.223508 -81.353424 0.47585624 42 3204479115808 1 0
0 0 0 100 3204479118112 1 0
1.047095 -16.367666 -1.766673 2 3204479118112 1 0
-0.68282336 -20.081041 -1.8756113 3 3204479120416 1 0
4.9095607 -76.9106 1.793309 26 3204479120416 1 0
1.672815 -26.262518 -1.8401757 6 3204479122720 1 0
-2.3983295 -70.24631 0.81827503 59 3204479122720 1 0
0.32838866 -22.48679 -1.8359079 11 3204479125024 1 0
1.0610845 -73.35315 1.2805179 72 3204479127328 1 0
9.023313 -79.982544 2.3424861 43 3204479125024 1 0
3.1358247 -27.830433 -1.7949044 9 3204479127328 1 0
0 0 0 98 3204479129632 1 0
8.360481 -132.11943 7.709699 28 3204479129632 1 0
1.041924 -73.43169 2.991985 58 3204479131936 1 0
1.904784 -30.167149 -1.4080318 46 3204479131936 1 0
0.43257862 -30.786707 -1.6136222 30 3204479134240 1 0
0 0 0 1 3204479134240 1 0
0 0 0 8 3204479136544 1 0
3.322413 -29.633596 -1.2148681 12 3204479136544 1 0
-1.1057353 -31.493387 -1.1004509 9 3204479138848 1 0
0 0 0 9 3204479138848 1 0
0 0 0 29 3204479141152 1 0
3.0476637 -48.695515 -1.1353343 27 3204479141152 1 0
0.046853777 -3.7808259 -1.7631634 1 3204479161888 1 0
0 0 0 36 3204479161888 1 0
0 0 0 18 3204479164192 1 0
0.10688591 -8.832422 -1.7666246 3 3204479166496 1 0
0.37760153 -6.170785 -1.7306738 5 3204479164192 1 0
4.521428 -74.066124 0 23 3204479166496 1 0
-2.4546287 -66.46619 -0.7743183 21 3204479168800 1 0
0.6458153 -10.6045475 -1.6528776 49 3204479168800 1 0
0.13097663 -11.089744 -1.4116788 11 3204479171104 1 0
8.907144 -80.982254 0.47350824 42 3204479171104 1 0
0 0 0 9 3204479173408 1 0
-0.75088173 -20.094553 -1.8770984 3 3204479175712 1 0
0.9934197 -16.390932 -1.7688148 2 3204479173408 1 0
4.995768 -82.6267 1.926188 28 3204479175712 1 0
-2.6349869 -70.24183 0.8183216 59 3204479178016 1 0
1.5853399 -26.283934 -1.8412919 6 3204479178016 1 0
0.25264397 -22.49973 -1.8368844 9 3204479180320 1 0
8.348124 -76.30821 2.2340367 38 3204479180320 1 0
0.79157704 -71.42073 1.2467301 22 3204479182624 1 0
3.046465 -27.88453 -1.7977185 9 3204479182624 1 0
-1.184065 -31.200638 -1.818356 35 3204479184928 1 0
7.913895 -132.16693 7.710862 28 3204479184928 1 0
0.78990465 -73.19102 2.9820526 58 3204479187232 1 0
1.8044661 -30.209341 -1.409707 46 3204479187232 1 0
0.32809478 -30.815962 -1.6150876 35 3204479189536 1 0
0 0 0 1 3204479189536 1 0
0 0 0 8 3204479191840 1 0
3.2325492 -29.74806 -1.2191017 46 3204479191840 1 0
-1.2078298 -31.345617 -1.0954254 9 3204479194144 1 0
0 0 0 9 3204479194144 1 0
2.8735344 -48.581917 -1.1324496 27 3204479196448 1 0
0 0 0 29 3204479196448 1 0
0.033849556 -3.8027167 -1.7733063 1 3204479217184 1 0
0 0 0 14 3204479217184 1 0
0.39408135 -45.007217 -1.3098886 19 3204479219488 1 0
0.35650286 -6.179756 -1.7328304 6 3204479219488 1 0
0.07608812 -8.836663 -1.767409 4 3204479221792 1 0
4.251142 -73.87779 0 70 3204479221792 1 0
0 0 0 13 3204479224096 1 0
0.60834163 -10.5988455 -1.6516477 47 3204479224096 1 0
0.092298426 -11.094101 -1.4121838 12 3204479226400 1 0
8.513471 -79.97076 0.46741736 43 3204479226400 1 0
0.26034963 -31.850397 -0.18512107 8 3204479228704 1 0
0.9364254 -16.398272 -1.7692432 2 3204479228704 1 0
-0.82150805 -20.103748 -1.8782138 3 3204479231008 1 0
4.2145267 -73.992004 1.7245431 23 3204479231008 1 0
-2.8758996 -70.128296 0.8171109 39 3204479233312 1 0
1.4949403 -26.31321 -1.8429661 6 3204479233312 1 0
0.17425796 -22.520407 -1.8385116 9 3204479235616 1 0
8.022775 -75.780235 2.217746 37 3204479235616 1 0
0.5420851 -71.39906 1.2463113 45 3204479237920 1 0
2.9491112 -27.894993 -1.7977185 6 3204479237920 1 0
-1.2949526 -31.244192 -1.8211467 17 3204479240224 1 0
4.176114 -74.07667 4.320892 28 3204479240224 1 0
1.7010237 -30.25136 -1.4113821 41 3204479242528 1 0
0.53190595 -72.849625 2.9680493 58 3204479242528 1 0
0.22075368 -30.848873 -1.6167624 35 3204479244832 1 0
0 0 0 1 3204479244832 1 0
0 0 0 8 3204479247136 1 0
3.1274357 -29.747238 -1.2186131 42 3204479247136 1 0
0 0 0 9 3204479249440 1 0
-1.3175747 -31.3492 -1.0957046 32 3204479249440 1 0
0 0 0 29 3204479251744 1 0
2.696158 -48.45191 -1.1291928 27 3204479251744 1 0
0.020477321 -3.7846859 -1.7648538 1 3204479272480 1 0
7.981955 -77.10816 -1.35312 26 3204479272480 1 0
0.23747967 -45.10428 -1.3126813 19 3204479274784 1 0
0.3347209 -6.177117 -1.7317522 6 3204479274784 1 0
0.04528211 -8.84472 -1.768978 4 3204479277088 1 0
0 0 0 28 3204479279392 1 0
4.0051064 -74.111855 0 23 3204479277088 1 0
0.57134104 -10.6009035 -1.6516477 40 3204479279392 1 0
8.247374 -80.12731 0.46816128 43 3204479281696 1 0
0.053572223 -11.094356 -1.4121838 13 3204479281696 1 0
0.15175454 -32.4031 -0.18832925 13 3204479284000 1 0
0.879179 -16.40144 -1.7692432 3 3204479284000 1 0
-0.8946787 -20.168398 -1.8845339 3 3204479286304 1 0
4.3404646 -81.19405 1.8920377 28 3204479286304 1 0
-3.1206753 -70.117836 0.8171109 39 3204479288608 1 0
0.095696814 -22.532839 -1.839488 9 3204479290912 1 0
7.754133 -75.768005 2.2165823 74 3204479290912 1 0
0.2916223 -71.10057 1.2410755 44 3204479293216 1 0
2.8659256 -28.044107 -1.8066726 9 3204479293216 1 0
-1.4061588 -31.287352 -1.8239374 8 3204479295520 1 0
6.9895344 -132.19106 7.709234 28 3204479295520 1 0
0.2768029 -72.63921 2.9594193 29 3204479297824 1 0
1.5981516 -30.308985 -1.4138017 41 3204479297824 1 0
1.404143 -26.338192 -1.8443612 6 3204479288608 1 0
0.11318679 -30.881413 -1.618437 35 3204479300128 1 0
0 0 0 1 3204479300128 1 0
0 0 0 8 3204479302432 1 0
3.0247915 -29.769903 -1.2191017 42 3204479302432 1 0
-2.0091388 -44.131363 -1.5426973 25 3204479304736 1 0
0 0 0 29 3204479307040 1 0
2.5188913 -48.305275 -1.1255637 27 3204479307040 1 0
0 0 0 9 3204479304736 1 0
0.0072800973 -3.7919848 -1.7682348 1 3204479327776 1 0
7.7139425 -77.14749 -1.3533294 53 3204479327776 1 0
0.05770091 -32.51818 -0.9463732 17 3204479330080 1 0
0.3131567 -6.1782475 -1.7317522 7 3204479330080 1 0
0.014408001 -8.844824 -1.768978 3 3204479332384 1 0
3.7641509 -74.47694 0 48 3204479332384 1 0
-2.0904906 -44.08347 -0.51379085 10 3204479334688 1 0
0.53532815 -10.622571 -1.6547223 43 3204479334688 1 0
0.014871915 -11.114315 -1.4147092 15 3204479336992 1 0
7.6435885 -76.89574 0.44912145 39 3204479336992 1 0
0.08601661 -72.122734 -0.41917846 42 3204479339296 1 0
0.82291704 -16.424269 -1.7713852 2 3204479339296 1 0
-0.9650741 -20.165152 -1.8845339 3 3204479341600 1 0
4.023298 -80.53374 1.8763118 28 3204479341600 1 0
-3.3636873 -70.07056 0.8166918 59 3204479343904 1 0
1.3179541 -26.458506 -1.8524529 6 3204479343904 1 0
0.01706004 -22.556955 -1.8414408 9 3204479346208 1 0
7.4899993 -75.79859 2.2166986 74 3204479346208 1 0
0.04339414 -71.03716 1.2399585 22 3204479348512 1 0
2.776247 -28.137363 -1.812045 9 3204479348512 1 0
-1.5727475 -32.466854 -1.8930066 9 3204479350816 1 0
0 0 0 3 3204479350816 1 0
0.02310877 -72.220085 2.9423223 29 3204479353120 1 0
1.4945048 -30.358278 -1.4158491 41 3204479353120 1 0
0 0 0 1 3204479355424 1 0
0.0053954367 -30.913576 -1.6201118 35 3204479355424 1 0
0 0 0 8 3204479357728 1 0
-2.1604335 -44.06818 -1.540743 25 3204479360032 1 0
0 0 0 9 3204479360032 1 0
0 0 0 29 3204479362336 1 0
2.3426814 -48.158 -1.1219348 26 3204479362336 1 0
-0.0059450553 -3.7847366 -1.7648538 1 3204479383072 1 0
2.9231973 -29.804146 -1.2200786 38 3204479357728 1 0
7.432696 -77.05054 -1.3511653 26 3204479383072 1 0
-0.07744513 -45.12483 -1.313263 19 3204479385376 1 0
0.2914071 -6.1754556 -1.7306738 6 3204479385376 1 0
-0.016473586 -8.8487425 -1.7697624 4 3204479387680 1 0
3.5135531 -74.6894 0 72 3204479387680 1 0
-2.239883 -43.988026 -0.5127664 5 3204479389984 1 0
0.4982452 -10.624375 -1.6547223 41 3204479389984 1 0
7.3449674 -76.60739 0.44728488 38 3204479392288 1 0
-0.02390729 -11.106363 -1.413699 15 3204479392288 1 0
-0.16504064 -71.818596 -0.41741166 63 3204479394592 1 0
0.76613605 -16.43896 -1.7726704 2 3204479394592 1 0
-1.0354577 -20.16166 -1.8845339 3 3204479396896 1 0
3.65419 -78.65385 1.8322049 27 3204479396896 1 0
-3.6070242 -70.034424 0.81641245 58 3204479399200 1 0
1.2261424 -26.474903 -1.85329 6 3204479399200 1 0
-0.061711237 -22.568838 -1.8424171 7 3204479401504 1 0
7.2754326 -76.34967 2.2320585 38 3204479401504 1 0
-0.19304319 -67.03351 1.1700791 39 3204479403808 1 0
2.68444 -28.214437 -1.8163941 9 3204479403808 1 0
-1.6889683 -32.516994 -1.8962623 9 3204479406112 1 0
-0.22803609 -71.919975 2.93011 29 3204479408416 1 0
0 0 0 3 3204479406112 1 0
1.3903508 -30.403225 -1.4177103 46 3204479408416 1 0
-0.10261908 -30.945362 -1.6217866 35 3204479410720 1 0
0 0 0 1 3204479410720 1 0
0 0 0 8 3204479413024 1 0
2.821025 -29.834063 -1.2208928 38 3204479413024 1 0
0 0 0 9 3204479415328 1 0
-2.3071177 -43.92464 -1.5359967 25 3204479415328 1 0
0 0 0 29 3204479417632 1 0
2.1695144 -48.05403 -1.1193292 26 3204479417632 1 0
-0.019192914 -3.7919433 -1.7682348 1 3204479438368 1 0
7.124461 -76.6539 -1.3437655 26 3204479438368 1 0
-0.23523034 -45.176258 -1.3147758 28 3204479440672 1 0
0.27035338 -6.1879797 -1.7339088 6 3204479440672 1 0
-0.047340367 -8.844708 -1.768978 3 3204479442976 1 0
3.2663898 -75.01292 0 48 3204479442976 1 0
-2.383201 -43.79223 -0.5105779 5 3204479445280 1 0
0.46184164 -10.641845 -1.6571819 12 3204479445280 1 0
-0.06274276 -11.118115 -1.4152143 15 3204479447584 1 0
7.0764093 -76.62062 0.44721514 38 3204479447584 1 0
-0.26541638 -45.850456 -0.26648787 15 3204479449888 1 0
0.70909125 -16.44948 -1.7735271 2 3204479449888 1 0
-1.1069195 -20.177807 -1.8863928 1 3204479452192 1 0
3.389055 -78.88586 1.8373228 27 3204479452192 1 0
-3.8516877 -70.0254 0.816459 58 3204479454496 1 0
1.1340616 -26.486996 -1.8538481 6 3204479454496 1 0
-0.14056526 -22.580444 -1.8433934 7 3204479456800 1 0
7.01984 -76.49405 2.2355494 38 3204479456800 1 0
-0.4259116 -66.85646 1.1670076 38 3204479459104 1 0
2.5924926 -28.295189 -1.820999 9 3204479459104 1 0
-1.809316 -32.634502 -1.9034716 9 3204479461408 1 0
0 0 0 3 3204479461408 1 0
-0.47729853 -71.65097 2.9192004 29 3204479463712 1 0
1.2855642 -30.439829 -1.4191992 41 3204479463712 1 0
-0.21088263 -30.980764 -1.6236707 35 3204479466016 1 0
0 0 0 1 3204479466016 1 0
0 0 0 8 3204479468320 1 0
2.7201285 -29.87955 -1.2223582 39 3204479468320 1 0
-2.451932 -43.76465 -1.530692 25 3204479470624 1 0
0 0 0 9 3204479470624 1 0
0 0 0 29 3204479472928 1 0
-0.032367144 -3.7846029 -1.7648538 1 3204479493664 1 0
1.9964361 -47.933456 -1.1163516 26 3204479472928 1 0
4.533234 -50.693962 -0.8883973 26 3204479493664 1 0
-0.39330602 -45.219143 -1.3160558 28 3204479495968 1 0
0.24875166 -6.1888857 -1.7339088 6 3204479495968 1 0
-0.07828324 -8.852334 -1.7705469 3 3204479498272 1 0
3.0158906 -75.30763 0 49 3204479498272 1 0
-2.536281 -43.787636 -0.51062447 5 3204479500576 1 0
-0.10140688 -11.101957 -1.413194 14 3204479502880 1 0
0.42500705 -10.65129 -1.6584117 4 3204479500576 1 0
6.8372264 -76.96359 0.44907495 39 3204479502880 1 0
-0.42460907 -45.757256 -0.26595318 15 3204479505184 1 0
0.6522972 -16.46775 -1.7752407 2 3204479505184 1 0
-1.1771145 -20.169844 -1.886021 3 3204479507488 1 0
3.127706 -79.25284 1.8456045 27 3204479507488 1 0
-4.0907254 -69.91969 0.815388 58 3204479509792 1 0
1.0425385 -26.514715 -1.8555222 6 3204479509792 1 0
-0.21965599 -22.607721 -1.8456717 7 3204479512096 1 0
6.800937 -77.063736 2.251491 39 3204479512096 1 0
-0.65557444 -66.47864 1.1604455 38 3204479514400 1 0
2.4972115 -28.34383 -1.8235574 9 3204479514400 1 0
-1.9269803 -32.69177 -1.9071925 9 3204479516704 1 0
0 0 0 3 3204479516704 1 0
-0.7248886 -71.401085 2.909105 29 3204479519008 1 0
1.1805388 -30.476072 -1.4206883 42 3204479519008 1 0
-0.31943572 -31.019783 -1.6257641 36 3204479521312 1 0
0 0 0 1 3204479521312 1 0
0 0 0 8 3204479523616 1 0
2.6172066 -29.904789 -1.2230096 43 3204479523616 1 0
-2.594945 -43.592213 -1.5249684 25 3204479525920 1 0
0 0 0 9 3204479525920 1 0
0 0 0 29 3204479528224 1 0
1.8239212 -47.804268 -1.1131878 26 3204479528224 1 0
-0.045446705 -3.773592 -1.7597824 1 3204479548960 1 0
4.348378 -50.61783 -0.88679165 26 3204479548960 1 0
-0.5516352 -45.257473 -1.3172194 28 3204479551264 1 0
0.2274294 -6.197415 -1.7360654 5 3204479551264 1 0
-0.109231554 -8.855929 -1.7713314 2 3204479553568 1 0
2.7386806 -74.925964 0 73 3204479553568 1 0
-4.076093 -66.35842 -0.77399236 10 3204479555872 1 0
0.3879683 -10.656659 -1.6590266 4 3204479555872 1 0
-0.1402595 -11.109471 -1.4142041 12 3204479558176 1 0
6.475701 -75.898964 0.44272834 37 3204479558176 1 0
-0.58187735 -45.563515 -0.2648373 15 3204479560480 1 0
0.59495354 -16.473902 -1.7756691 2 3204479560480 1 0
-1.2497264 -20.201387 -1.889367 3 3204479562784 1 0
2.8569367 -79.427124 1.8494196 28 3204479562784 1 0
-4.333033 -69.87704 0.8150621 58 3204479565088 1 0
0.9509785 -26.546106 -1.8574754 6 3204479565088 1 0
-0.29867563 -22.61479 -1.8463227 7 3204479567392 1 0
6.497122 -76.67665 2.2395058 38 3204479567392 1 0
-0.8902941 -66.675896 1.1639359 38 3204479569696 1 0
2.401959 -28.396128 -1.8263716 9 3204479569696 1 0
-2.0425773 -32.708755 -1.9085878 9 3204479572000 1 0
3.3456252 -94.54453 5.509486 28 3204479572000 1 0
-0.9200875 -67.437775 2.7477415 29 3204479574304 1 0
1.0756983 -30.523933 -1.4227357 42 3204479574304 1 0
0 0 0 1 3204479576608 1 0
-0.4282087 -31.054426 -1.6276482 36 3204479576608 1 0
0 0 0 8 3204479578912 1 0
2.5144763 -29.933657 -1.2238237 43 3204479578912 1 0
-2.7380412 -43.439262 -1.5199429 24 3204479581216 1 0
0 0 0 9 3204479581216 1 0
0 0 0 29 3204479583520 1 0
1.6538563 -47.718422 -1.1110476 26 3204479583520 1 0
-0.058562413 -3.7697856 -1.7580919 1 3204479604256 1 0
6.2960806 -76.41739 -1.3383901 26 3204479604256 1 0
0.20553936 -6.1904716 -1.7339088 5 3204479606560 1 0
-0.14020592 -8.859416 -1.7721158 2 3204479608864 1 0
2.4394593 -73.79569 0 70 3204479608864 1 0
-0.71029943 -45.299248 -1.3184993 28 3204479606560 1 0
-2.6801984 -41.278275 -0.48156834 27 3204479611168 1 0
0.35102728 -10.665849 -1.6602565 5 3204479611168 1 0
-0.17916583 -11.116849 -1.4152143 12 3204479613472 1 0
6.2107244 -75.921104 0.44272834 37 3204479613472 1 0
-0.73805845 -45.38523 -0.2638144 22 3204479615776 1 0
0.5377046 -16.483828 -1.7765259 2 3204479615776 1 0
-1.3189359 -20.17703 -1.8875082 1 3204479618080 1 0
2.4389694 -75.104065 1.7485507 24 3204479618080 1 0
-4.575877 -69.84553 0.81487584 58 3204479620384 1 0
0.8588252 -26.565218 -1.8585914 6 3204479620384 1 0
-0.37794697 -22.633541 -1.8479499 10 3204479622688 1 0
6.1135554 -75.27216 2.197848 36 3204479622688 1 0
-1.1154871 -66.22452 1.1561172 37 3204479624992 1 0
2.306049 -28.444128 -1.8289298 9 3204479624992 1 0
-2.164098 -32.812996 -1.9150994 9 3204479627296 1 0
2.3951805 -75.1025 4.376008 28 3204479627296 1 0
-1.1555521 -67.43815 2.7479043 29 3204479629600 1 0
0.9702843 -30.563444 -1.4244107 42 3204479629600 1 0
-0.53722745 -31.088688 -1.6295323 36 3204479631904 1 0
0 0 0 1 3204479631904 1 0
0 0 0 8 3204479634208 1 0
2.4122174 -29.970137 -1.2249634 43 3204479634208 1 0
-2.7463408 -41.27552 -1.4445599 23 3204479636512 1 0
0 0 0 9 3204479636512 1 0
0 0 0 29 3204479638816 1 0
1.4817971 -47.54804 -1.1069533 17 3204479638816 1 0
-0.07199691 -3.7840564 -1.7648538 1 3204479659552 1 0
5.998162 -76.04419 -1.331479 25 3204479659552 1 0
0.18392934 -6.191151 -1.7339088 6 3204479661856 1 0
-0.86903214 -45.328476 -1.3194302 19 3204479661856 1 0
2.211281 -74.799324 0 72 3204479664160 1 0
-2.8248162 -41.27665 -0.48166147 4 3204479666464 1 0
0.3139106 -10.670959 -1.6608714 4 3204479666464 1 0
-0.17105444 -8.854951 -1.7713314 3 3204479664160 1 0
-0.2185921 -11.147894 -1.4192548 10 3204479668768 1 0
5.9181986 -75.5914 0.44068253 37 3204479668768 1 0
-0.89371306 -45.24241 -0.26300073 15 3204479671072 1 0
0.48039362 -16.493555 -1.7773826 3 3204479671072 1 0
-1.3912745 -20.200117 -1.8901106 3 3204479673376 1 0
2.1699579 -74.87629 1.7430606 48 3204479673376 1 0
-4.818279 -69.80917 0.814643 19 3204479675680 1 0
0.7694254 -26.683723 -1.8666832 6 3204479675680 1 0
-0.4575943 -22.66397 -1.8505536 7 3204479677984 1 0
5.879577 -75.66377 2.2086697 36 3204479677984 1 0
-1.3596573 -66.85999 1.1672868 38 3204479680288 1 0
2.2073638 -28.459963 -1.8294414 9 3204479680288 1 0
-2.2802837 -32.829144 -1.9164947 9 3204479682592 1 0
2.127228 -74.90683 4.3641477 28 3204479682592 1 0
-1.3775134 -66.78238 2.721363 29 3204479684896 1 0
0.8644948 -30.598598 -1.4258997 42 3204479684896 1 0
-0.64624166 -31.110584 -1.6307884 36 3204479687200 1 0
0 0 0 1 3204479687200 1 0
0 0 0 8 3204479689504 1 0
2.309428 -30.002285 -1.2259405 43 3204479689504 1 0
-2.8920784 -41.289608 -1.4453975 31 3204479691808 1 0
0 0 0 9 3204479691808 1 0
0 0 0 29 3204479694112 1 0
1.3117218 -47.405018 -1.1035103 17 3204479694112 1 0
-0.085450135 -3.794655 -1.7699252 1 3204479714296 1 0
5.6650543 -75.16734 -1.3157718 49 3204479714296 1 0
-1.0243874 -45.21325 -1.3161721 19 3204479716600 1 0
0.16246305 -6.195605 -1.734987 6 3204479716600 1 0
-0.20183416 -8.854302 -1.7713314 4 3204479718904 1 0
1.9454165 -74.582634 0 48 3204479718904 1 0
-4.630728 -64.385315 -0.75150174 10 3204479721208 1 0
0.27689293 -10.671985 -1.6608714 5 3204479721208 1 0
-0.257363 -11.1550045 -1.420265 10 3204479723512 1 0
5.5953264 -74.79373 0.43591678 36 3204479723512 1 0
-1.0459973 -45.0671 -0.26200107 15 3204479725816 1 0
0.42372337 -16.507042 -1.7786678 3 3204479725816 1 0
-1.4608963 -20.195202 -1.8901106 3 3204479728120 1 0
1.9026593 -74.52354 1.7346858 72 3204479728120 1 0
-5.0531716 -69.72038 0.81380486 19 3204479730424 1 0
0.6778382 -26.69419 -1.8672413 6 3204479730424 1 0
-0.5358559 -22.682196 -1.8521808 7 3204479732728 1 0
5.7794137 -77.83268 2.271389 40 3204479732728 1 0
-1.5833378 -66.631035 1.1633774 38 3204479735032 1 0
2.1148856 -28.535032 -1.8337905 9 3204479735032 1 0
-2.3936393 -32.83709 -1.9174249 9 3204479737336 1 0
1.8621156 -74.55039 4.3429847 28 3204479737336 1 0
-1.5921185 -66.229904 2.6990554 29 3204479739640 1 0
0.7611206 -30.641314 -1.427761 38 3204479739640 1 0
-0.7531813 -31.152132 -1.6330912 36 3204479741944 1 0
0 0 0 1 3204479741944 1 0
0 0 0 8 3204479744248 1 0
2.2078166 -30.01394 -1.2261033 39 3204479744248 1 0
-3.033157 -41.295517 -1.445956 39 3204479746552 1 0
0 0 0 29 3204479748856 1 0
0 0 0 9 3204479746552 1 0
1.1479157 -47.265263 -1.1001605 17 3204479748856 1 0
-0.0977523 -3.7834787 -1.7648538 1 3204479769592 1 0
0 0 0 36 3204479769592 1 0
-1.1699698 -45.02973 -1.3109359 19 3204479771896 1 0
0.14187174 -6.1961107 -1.734987 6 3204479771896 1 0
-0.2314262 -8.857502 -1.7721158 3 3204479774200 1 0
1.6607852 -72.99711 0 45 3204479774200 1 0
-3.2360153 -42.98745 -0.5018704 10 3204479776504 1 0
0.24162628 -10.688655 -1.663331 30 3204479776504 1 0
-0.2952013 -11.173914 -1.4227903 11 3204479778808 1 0
5.3305564 -74.60855 0.43473116 35 3204479778808 1 0
-1.1927229 -44.899403 -0.26104793 15 3204479781112 1 0
0.36864763 -16.520298 -1.779953 3 3204479781112 1 0
-1.5284382 -20.186209 -1.8897388 3 3204479783416 1 0
1.6465955 -74.27364 1.7287304 71 3204479783416 1 0
-5.2869854 -69.69101 0.81366515 19 3204479785720 1 0
0.5883936 -26.716267 -1.8686364 6 3204479785720 1 0
-0.6129273 -22.700184 -1.8538082 7 3204479788024 1 0
5.4509 -76.92246 2.2442765 38 3204479788024 1 0
-1.8090802 -66.6413 1.1636566 38 3204479790328 1 0
2.0121853 -28.45442 -1.8281623 9 3204479790328 1 0
-2.5158424 -32.972126 -1.925797 9 3204479792632 1 0
1.6019676 -74.20895 4.3227525 28 3204479792632 1 0
-1.8080448 -65.896515 2.6857035 29 3204479794936 1 0
0.6579971 -30.687664 -1.4298084 42 3204479794936 1 0
-0.86063147 -31.201298 -1.6358126 36 3204479797240 1 0
0 0 0 1 3204479797240 1 0
0 0 0 8 3204479799544 1 0
2.1087918 -30.06914 -1.2280573 39 3204479799544 1 0
-3.1767364 -41.316795 -1.4470727 40 3204479801848 1 0
0 0 0 9 3204479801848 1 0
0 0 0 29 3204479804152 1 0
0.98359734 -47.152977 -1.0974619 8 3204479804152 1 0
-0.11106479 -3.7867382 -1.7665443 1 3204479824888 1 0
0 0 0 7 3204479824888 1 0
-1.322053 -44.841522 -1.3055831 9 3204479827192 1 0
0.120346755 -6.2042713 -1.7371436 6 3204479827192 1 0
-0.26282063 -8.868399 -1.7744693 2 3204479829496 1 0
1.4220688 -73.89432 0 47 3204479829496 1 0
-3.3756742 -42.832275 -0.5001941 15 3204479831800 1 0
0.2046848 -10.721051 -1.6682503 46 3204479831800 1 0
-0.33488503 -11.184704 -1.4243056 11 3204479834104 1 0
5.0619583 -74.539055 0.4342197 35 3204479834104 1 0
-1.3461431 -44.73099 -0.26009476 14 3204479836408 1 0
0.31090093 -16.54933 -1.7829517 3 3204479836408 1 0
-1.6016608 -20.204502 -1.8919694 3 3204479838712 1 0
-5.532817 -69.65988 0.81352544 19 3204479841016 1 0
1.3770779 -73.90316 1.7199836 70 3204479838712 1 0
-0.69396955 -22.713806 -1.8551099 7 3204479843320 1 0
0.49421516 -26.74212 -1.8703105 6 3204479841016 1 0
5.166337 -76.76978 2.2392728 38 3204479843320 1 0
-2.03881 -66.39859 1.1595379 19 3204479845624 1 0
1.9128579 -28.489275 -1.8299531 9 3204479845624 1 0
-2.6361804 -32.99878 -1.92789 9 3204479847928 1 0
1.3326303 -73.94269 4.3069386 28 3204479847928 1 0
-2.182447 -70.375755 2.8685606 29 3204479850232 1 0
0.54948896 -30.749743 -1.4326003 33 3204479850232 1 0
-0.97350585 -31.237944 -1.6379061 31 3204479852536 1 0
0 0 0 1 3204479852536 1 0
0 0 0 8 3204479854840 1 0
2.0038931 -30.120373 -1.2298484 39 3204479854840 1 0
-3.326428 -41.321056 -1.4476311 40 3204479857144 1 0
0 0 0 9 3204479857144 1 0
0 0 0 29 3204479859448 1 0
0.8116447 -47.028263 -1.0944842 17 3204479859448 1 0
-0.12422576 -3.7645662 -1.7564015 1 3204479880184 1 0
3.1559012 -48.67036 -0.8513284 8 3204479880184 1 0
-1.4811698 -44.68853 -1.3012778 18 3204479882488 1 0
0.097469434 -6.1931157 -1.7339088 5 3204479882488 1 0
-0.29519418 -8.86738 -1.7744693 3 3204479884792 1 0
1.1469346 -73.55506 0 23 3204479884792 1 0
-5.25679 -63.73525 -0.7445171 10 3204479887096 1 0
0.16525643 -10.698014 -1.6645608 37 3204479887096 1 0
4.758062 -74.046036 0.431244 34 3204479889400 1 0
-1.5027924 -44.55791 -0.25911835 14 3204479891704 1 0
0.25096485 -16.558302 -1.7838085 3 3204479891704 1 0
-0.37555143 -11.183413 -1.4243056 11 3204479889400 1 0
-1.6754802 -20.206507 -1.892713 1 3204479894008 1 0
1.1059437 -73.67575 1.7145865 70 3204479894008 1 0
-5.7828956 -69.6195 0.8132926 19 3204479896312 1 0
0.3976178 -26.747723 -1.8705896 6 3204479896312 1 0
-0.77671057 -22.735062 -1.8570627 7 3204479898616 1 0
4.9117527 -77.13905 2.249513 39 3204479898616 1 0
-2.2653346 -66.027084 1.1531852 37 3204479900920 1 0
1.8120632 -28.523863 -1.831744 9 3204479900920 1 0
-2.7676697 -33.14429 -1.9369596 9 3204479903224 1 0
1.061685 -73.57966 4.2855434 28 3204479903224 1 0
-2.4301827 -70.23567 2.8631873 29 3204479905528 1 0
0.43952712 -30.771492 -1.4335308 33 3204479905528 1 0
-1.0866535 -31.274183 -1.6399995 37 3204479907832 1 0
0 0 0 1 3204479907832 1 0
0 0 0 8 3204479910136 1 0
1.8990929 -30.171213 -1.2316395 39 3204479910136 1 0
-3.4759939 -41.336826 -1.4486083 40 3204479912440 1 0
0 0 0 9 3204479912440 1 0
0 0 0 29 3204479914744 1 0
0 0 0 17 3204479914744 1 0
-0.13763021 -3.7713552 -1.7597824 1 3204479935480 1 0
4.5667663 -74.45271 -1.3020194 24 3204479935480 1 0
-1.6301259 -44.491295 -1.2956924 18 3204479937784 1 0
0.076039515 -6.208825 -1.7382219 6 3204479937784 1 0
-0.32614532 -8.866295 -1.7744693 6 3204479940088 1 0
0.887946 -73.374626 0 69 3204479940088 1 0
-5.4603877 -63.497334 -0.74195606 10 3204479942392 1 0
-0.4150276 -11.19393 -1.4258208 11 3204479944696 1 0
0.12800689 -10.70643 -1.6657907 31 3204479942392 1 0
4.4954405 -73.994316 0.43084878 34 3204479944696 1 0
-1.6525168 -44.396507 -0.2582117 14 3204479947000 1 0
0.19321045 -16.563055 -1.7842368 2 3204479947000 1 0
-1.7470328 -20.212439 -1.8938284 3 3204479949304 1 0
0.8444767 -73.30729 1.7059326 69 3204479949304 1 0
-6.0172524 -69.499275 0.81212854 19 3204479951608 1 0
0.30442992 -26.764908 -1.8717057 6 3204479951608 1 0
-0.85666615 -22.748148 -1.8583646 12 3204479953912 1 0
5.611197 -93.25578 2.7189176 34 3204479953912 1 0
-2.5160441 -66.55431 1.1625397 38 3204479956216 1 0
1.7172688 -28.609707 -1.8368605 9 3204479956216 1 0
-2.8878484 -33.186146 -1.9399829 9 3204479958520 1 0
0.8020861 -73.33135 4.2708926 28 3204479958520 1 0
-2.674271 -70.1988 2.8620474 29 3204479960824 1 0
-1.1973406 -31.310114 -1.642093 37 3204479963128 1 0
0 0 0 1 3204479963128 1 0
0.33258623 -30.816788 -1.4355782 38 3204479960824 1 0
0 0 0 8 3204479965432 1 0
1.7961355 -30.217554 -1.2332678 35 3204479965432 1 0
-3.6213117 -41.336388 -1.4490271 40 3204479967736 1 0
0 0 0 9 3204479967736 1 0
0 0 0 29 3204479970040 1 0
0 0 0 3 3204479970040 1 0
-0.14934531 -3.7346284 -1.7428777 1 3204479990776 1 0
4.2770615 -73.95314 -1.2930139 47 3204479990776 1 0
0 0 0 37 3204479993080 1 0
0.054377608 -6.2052 -1.7371436 6 3204479993080 1 0
-0.35743695 -8.876865 -1.7768227 4 3204479995384 1 0
0.61690956 -71.52534 0 43 3204479995384 1 0
-5.6578 -63.223045 -0.73897594 10 3204479997688 1 0
0.090900816 -10.710762 -1.6664056 23 3204479997688 1 0
-0.4540951 -11.200355 -1.4268309 12 3204479999992 1 0
4.230128 -73.8497 0.4299189 69 3204479999992 1 0
0.13602835 -16.5676 -1.7846652 2 3204480002296 1 0
0 0 0 95 3204480002296 1 0
-1.816695 -20.206297 -1.8938284 3 3204480004600 1 0
0.5899079 -73.077835 1.7005355 68 3204480004600 1 0
-6.265962 -69.585724 0.8133858 39 3204480006904 1 0
0.21331339 -26.8855 -1.8800765 6 3204480006904 1 0
-0.93507093 -22.75304 -1.8590155 10 3204480009208 1 0
4.6866894 -82.62014 2.4083471 41 3204480009208 1 0
-2.760963 -66.956894 1.1697301 39 3204480011512 1 0
1.6215199 -28.655275 -1.8394189 6 3204480011512 1 0
-2.8789353 -31.823902 -1.8609138 13 3204480013816 1 0
0.54879767 -72.98228 4.2504277 28 3204480013816 1 0
-2.7477472 -66.19203 2.6990554 29 3204480016120 1 0
-1.3053901 -31.341778 -1.643977 37 3204480018424 1 0
0.22777371 -30.857698 -1.4374394 38 3204480016120 1 0
0 0 0 1 3204480018424 1 0
0 0 0 8 3204480020728 1 0
1.6952918 -30.255404 -1.2345704 35 3204480020728 1 0
-3.7631853 -41.34378 -1.4497252 24 3204480023032 1 0
0 0 0 9 3204480023032 1 0
0 0 0 29 3204480025336 1 0
0.21555987 -31.56672 -0.7345569 8 3204480025336 1 0
-0.16172896 -3.7341125 -1.7428777 1 3204480046072 1 0
4.024617 -73.83513 -1.2907102 23 3204480046072 1 0
0 0 0 18 3204480048376 1 0
0.03377914 -6.2014947 -1.7360654 6 3204480048376 1 0
-0.38704255 -8.87955 -1.7776071 4 3204480050680 1 0
0.3856441 -72.642975 0 67 3204480050680 1 0
-5.9010687 -63.566353 -0.7432133 10 3204480052984 1 0
0.055402588 -10.714957 -1.6670204 21 3204480052984 1 0
-0.4910604 -11.194823 -1.4263258 12 3204480055288 1 0
3.9918907 -73.98714 0.43063956 34 3204480055288 1 0
0 0 0 19 3204480057592 1 0
0.08114585 -16.579891 -1.7859504 2 3204480057592 1 0
-1.8851707 -20.216022 -1.8953154 3 3204480059896 1 0
0.34578204 -72.7035 1.6917886 67 3204480059896 1 0
-6.4870124 -69.46101 0.8121751 38 3204480062200 1 0
0.124230385 -26.902021 -1.8811926 6 3204480062200 1 0
-1.011579 -22.77371 -1.8609682 10 3204480064504 1 0
4.4263306 -82.890755 2.4157944 41 3204480064504 1 0
-2.984765 -66.98732 1.1704282 58 3204480066808 1 0
1.5273359 -28.67644 -1.8404422 9 3204480066808 1 0
-2.9740083 -31.70286 -1.8544022 22 3204480069112 1 0
0.30573604 -72.736115 4.236009 28 3204480069112 1 0
-2.9428878 -65.63956 2.6769109 58 3204480071416 1 0
0.12555833 -30.886253 -1.4387424 42 3204480071416 1 0
-1.4109312 -31.373192 -1.6458611 37 3204480073720 1 0
0 0 0 1 3204480073720 1 0
0 0 0 8 3204480076024 1 0
1.5974762 -30.308752 -1.2365243 35 3204480076024 1 0
-2.9966507 -31.75548 -1.1138524 24 3204480078328 1 0
0 0 0 9 3204480078328 1 0
0 0 0 29 3204480080632 1 0
0.112340465 -31.983145 -0.7442344 9 3204480080632 1 0
-0.17343533 -3.7190707 -1.7361158 1 3204480101368 1 0
3.7781134 -73.81612 -1.2901517 23 3204480101368 1 0
-2.0628004 -44.08908 -1.2845216 9 3204480103672 1 0
0.013148315 -6.2131286 -1.7393003 5 3204480103672 1 0
0.14190565 -72.27186 0 66 3204480105976 1 0
0 0 0 10 3204480108280 1 0
-0.4163765 -8.87037 -1.7760382 4 3204480105976 1 0
0.019416984 -10.722988 -1.6682503 21 3204480108280 1 0
-0.52883226 -11.193103 -1.4263258 11 3204480110584 1 0
3.7844355 -74.835106 0.43549833 35 3204480110584 1 0
-2.0833855 -43.95391 -0.25574744 14 3204480112888 1 0
0.02497673 -16.592001 -1.7872355 2 3204480112888 1 0
-1.961245 -20.28481 -1.9023792 3 3204480115192 1 0
0.097887665 -72.36835 1.6839722 44 3204480115192 1 0
-6.7336397 -69.53399 0.8132926 58 3204480117496 1 0
0.032280445 -26.902288 -1.8811926 6 3204480117496 1 0
-1.0908867 -22.793997 -1.862921 7 3204480119800 1 0
4.6259665 -92.59727 2.6982052 34 3204480119800 1 0
-3.2054887 -66.764915 1.1667283 38 3204480122104 1 0
1.4306629 -28.72539 -1.8432562 9 3204480122104 1 0
-3.0891461 -31.748016 -1.857658 22 3204480124408 1 0
0.053695872 -72.38933 4.215777 56 3204480124408 1 0
-3.389001 -70.13992 2.8609076 87 3204480126712 1 0
0.018217191 -30.92646 -1.4406036 42 3204480126712 1 0
-1.522176 -31.403984 -1.6477453 37 3204480129016 1 0
0 0 0 1 3204480129016 1 0
0 0 0 8 3204480131320 1 0
1.4933884 -30.358076 -1.2383155 35 3204480131320 1 0
-4.051949 -41.38075 -1.4519587 24 3204480133624 1 0
0 0 0 9 3204480133624 1 0
0 0 0 29 3204480135928 1 0
0 0 0 35 3204480135928 1 0
-0.18779384 -3.7328925 -1.7428777 1 3204480156664 1 0
3.3856924 -71.264755 -1.2453339 21 3204480156664 1 0
-2.2151957 -43.90554 -1.2794017 9 3204480158968 1 0
-0.009572906 -6.2092834 -1.7382219 6 3204480158968 1 0
-0.4495491 -8.8844595 -1.7791761 3 3204480161272 1 0
-0.121488355 -72.0079 0 44 3204480161272 1 0
0 0 0 28 3204480163576 1 0
-0.019665409 -10.730892 -1.6694801 18 3204480163576 1 0
-0.5693263 -11.187143 -1.4258208 11 3204480165880 1 0
3.5051782 -74.69654 0.4346149 71 3204480165880 1 0
-2.2353292 -43.798256 -0.25488728 14 3204480168184 1 0
-0.03524975 -16.599937 -1.7880924 2 3204480168184 1 0
-2.0362852 -20.293425 -1.9038663 3 3204480170488 1 0
-0.16359067 -72.100296 1.6777377 22 3204480170488 1 0
-6.984911 -69.50919 0.8132926 38 3204480172792 1 0
-0.06497139 -26.91021 -1.8817506 6 3204480172792 1 0
-1.1741225 -22.809822 -1.8645483 7 3204480175096 1 0
4.2697263 -92.13406 2.6842418 35 3204480175096 1 0
-3.6134243 -70.00012 1.2234834 43 3204480177400 1 0
-3.3687923 -33.377583 -1.9537036 9 3204480179704 1 0
1.3283551 -28.754278 -1.8447913 9 3204480177400 1 0
-0.2056318 -72.133484 4.200893 56 3204480179704 1 0
-0.09270803 -30.942308 -1.4413481 42 3204480182008 1 0
-1.636396 -31.434238 -1.6496294 37 3204480184312 1 0
0 0 0 1 3204480184312 1 0
0 0 0 8 3204480186616 1 0
-3.6398225 -70.11534 2.8604193 87 3204480182008 1 0
1.3866199 -30.399147 -1.2397809 36 3204480186616 1 0
-4.2022047 -41.393887 -1.4529358 32 3204480188920 1 0
0 0 0 9 3204480188920 1 0
0 0 0 1 3204480191224 1 0
0 0 0 29 3204480191224 1 0
-0.20082292 -3.7322142 -1.7428777 1 3204480211960 1 0
3.125833 -71.02442 -1.2409359 21 3204480211960 1 0
-2.3643484 -43.821682 -1.2771908 9 3204480214264 1 0
-0.03124729 -6.209212 -1.7382219 6 3204480214264 1 0
-0.48013514 -8.875003 -1.7776071 4 3204480216568 1 0
-0.37178582 -71.80304 0 21 3204480216568 1 0
-4.3078833 -41.650978 -0.487482 4 3204480218872 1 0
-0.057165172 -10.738663 -1.67071 21 3204480218872 1 0
-0.6083732 -11.185087 -1.4258208 10 3204480221176 1 0
3.2581275 -75.02402 0.43645146 72 3204480221176 1 0
-2.3799229 -43.638412 -0.25400388 7 3204480223480 1 0
-0.093238786 -16.607666 -1.7889491 2 3204480223480 1 0
-2.1075215 -20.290155 -1.9042381 3 3204480225784 1 0
-0.38444987 -66.748825 1.5532334 35 3204480225784 1 0
-7.227501 -69.48439 0.8132926 58 3204480228088 1 0
-0.15895228 -26.917799 -1.8823087 6 3204480228088 1 0
-1.2550495 -22.829468 -1.866501 7 3204480230392 1 0
3.4719524 -81.03532 2.3605223 43 3204480230392 1 0
-3.8586287 -70.00305 1.2237628 65 3204480232696 1 0
1.2300193 -28.806599 -1.8478612 9 3204480232696 1 0
-3.4910893 -33.421223 -1.9569595 9 3204480235000 1 0
-0.4553723 -71.80888 4.182056 28 3204480235000 1 0
-3.8763669 -69.95456 2.8543944 58 3204480237304 1 0
-0.20097548 -30.981752 -1.4432093 38 3204480237304 1 0
-1.748328 -31.468218 -1.6517228 37 3204480239608 1 0
0 0 0 1 3204480239608 1 0
0 0 0 8 3204480241912 1 0
1.2825168 -30.45172 -1.2417349 36 3204480241912 1 0
0 0 0 9 3204480244216 1 0
-4.3487587 -41.398846 -1.4536338 24 3204480244216 1 0
0 0 0 29 3204480246520 1 0
-0.49794173 -70.44317 -1.6392139 21 3204480246520 1 0
-0.21343471 -3.724252 -1.7394967 1 3204480267256 1 0
-3.8092055 -66.298546 -1.9326587 23 3204480269560 1 0
1.938886 -47.857445 -0.8360401 16 3204480267256 1 0
-0.052954122 -6.212917 -1.7393003 6 3204480269560 1 0
-0.5104351 -8.861526 -1.7752538 3 3204480271864 1 0
-0.61250633 -70.65735 0 41 3204480271864 1 0
-4.43453 -41.460697 -0.48543316 9 3204480274168 1 0
-0.094614916 -10.734446 -1.670095 23 3204480274168 1 0
-0.64787143 -11.190819 -1.4268309 10 3204480276472 1 0
2.99814 -75.08289 0.43673044 72 3204480276472 1 0
-2.5350158 -43.677757 -0.25428286 7 3204480278776 1 0
-2.1796103 -20.294554 -1.9053534 3 3204480281080 1 0
-0.15131842 -16.619171 -1.7902342 2 3204480278776 1 0
-0.62428766 -67.48685 1.570448 18 3204480281080 1 0
-7.469147 -69.45078 0.8131995 58 3204480283384 1 0
-0.2531744 -26.945011 -1.8842618 6 3204480283384 1 0
3.1981833 -81.27866 2.3672712 42 3204480285688 1 0
-4.100153 -69.941246 1.2229251 64 3204480287992 1 0
-1.3356625 -22.840868 -1.8678029 7 3204480285688 1 0
1.130709 -28.842627 -1.8499079 9 3204480287992 1 0
-3.615447 -33.480297 -1.9611454 9 3204480290296 1 0
-0.6607615 -67.20288 3.913919 28 3204480290296 1 0
-4.120295 -69.936615 2.8542316 58 3204480292600 1 0
-0.3095593 -31.024813 -1.4452567 38 3204480292600 1 0
-1.8598105 -31.489838 -1.6531882 37 3204480294904 1 0
0 0 0 1 3204480294904 1 0
0 0 0 8 3204480297208 1 0
1.1772923 -30.483967 -1.2428747 36 3204480297208 1 0
-4.50144 -41.458923 -1.4562862 24 3204480299512 1 0
0 0 0 9 3204480299512 1 0
0 0 0 29 3204480301816 1 0
-0.74163556 -70.23307 -1.6343752 20 3204480301816 1 0
-0.22643347 -3.7234843 -1.7394967 1 3204480322552 1 0
1.7656069 -47.69606 -0.83310807 8 3204480322552 1 0
-4.0486355 -66.41654 -1.9364986 23 3204480324856 1 0
-0.074687205 -6.2165456 -1.7403785 6 3204480324856 1 0
-0.5425606 -8.879265 -1.7791761 3 3204480327160 1 0
-0.85860777 -70.61078 0 41 3204480327160 1 0
-4.577031 -41.425087 -0.48520035 9 3204480329464 1 0
-0.13223045 -10.745907 -1.6719397 21 3204480329464 1 0
-0.6871739 -11.19245 -1.427336 10 3204480331768 1 0
2.7360334 -75.0929 0.43673044 36 3204480331768 1 0
-2.6751792 -43.469025 -0.25312045 6 3204480334072 1 0
-0.20942941 -16.626493 -1.7910911 2 3204480334072 1 0
-2.249121 -20.274946 -1.9042381 3 3204480336376 1 0
-0.8573604 -67.28832 1.5658885 36 3204480336376 1 0
-7.699608 -69.316956 0.8119423 58 3204480338680 1 0
-0.347537 -26.967903 -1.885936 6 3204480338680 1 0
2.9183164 -81.39722 2.370413 42 3204480340984 1 0
-1.4163704 -22.851982 -1.8691046 7 3204480340984 1 0
-4.3417883 -69.8866 1.222227 64 3204480343288 1 0
1.0320168 -28.902248 -1.8534895 10 3204480343288 1 0
-3.7349484 -33.491283 -1.9625407 9 3204480345592 1 0
-4.3638964 -69.913826 2.853906 87 3204480347896 1 0
-0.90597904 -67.99874 3.9604301 28 3204480345592 1 0
-0.41828468 -31.055506 -1.4467458 48 3204480347896 1 0
-1.9724628 -31.527006 -1.655491 38 3204480350200 1 0
0 0 0 1 3204480350200 1 0
0 0 0 8 3204480352504 1 0
1.071718 -30.511856 -1.2438517 40 3204480352504 1 0
-4.6394506 -41.383366 -1.4541923 24 3204480354808 1 0
0 0 0 9 3204480354808 1 0
-0.9758346 -69.45034 -1.6162299 20 3204480357112 1 0
0 0 0 29 3204480357112 1 0
-0.23942949 -3.7226713 -1.7394967 1 3204480378296 1 0
1.0233258 -30.5262 -0.5331361 4 3204480378296 1 0
-2.6597831 -41.260853 -1.2033008 26 3204480380600 1 0
-0.096386544 -6.216247 -1.7403785 6 3204480380600 1 0
-0.5738046 -8.881231 -1.7799605 3 3204480382904 1 0
-1.0920601 -69.77545 0 60 3204480382904 1 0
-7.473003 -65.53886 -0.767939 21 3204480385208 1 0
-0.7272666 -11.205821 -1.4293563 10 3204480387512 1 0
-0.16980228 -10.749331 -1.6725546 23 3204480385208 1 0
2.3830287 -72.34354 0.42068955 32 3204480387512 1 0
-4.213605 -64.77801 -0.3772862 15 3204480389816 1 0
-0.26765734 -16.63759 -1.7923762 2 3204480389816 1 0
-2.3216918 -20.2828 -1.9057251 3 3204480392120 1 0
-1.0836028 -66.753136 1.5535125 17 3204480392120 1 0
-7.9437995 -69.309525 0.8121751 58 3204480394424 1 0
-0.44356546 -27.082228 -1.8940278 6 3204480394424 1 0
-1.4976931 -22.87077 -1.8710574 12 3204480396728 1 0
2.4231358 -74.885086 2.18051 70 3204480396728 1 0
-4.5841403 -69.84707 1.2218081 64 3204480399032 1 0
0.9339503 -28.993448 -1.8591177 10 3204480399032 1 0
-1.1272879 -67.04092 3.9048493 28 3204480401336 1 0
-3.85594 -33.51375 -1.9646338 9 3204480401336 1 0
-4.6052856 -69.85829 2.8522778 58 3204480403640 1 0
-0.5272959 -31.089811 -1.4484208 43 3204480403640 1 0
-2.0846074 -31.551817 -1.6571658 38 3204480405944 1 0
0 0 0 1 3204480405944 1 0
0 0 0 8 3204480408248 1 0
0.9665951 -30.559353 -1.2456428 36 3204480408248 1 0
-4.7714777 -41.2597 -1.4504231 16 3204480410552 1 0
0 0 0 9 3204480410552 1 0
0 0 0 29 3204480412856 1 0
-0.797067 -45.436707 -1.0574493 24 3204480412856 1 0
-0.25242257 -3.7218127 -1.7394967 1 3204480433592 1 0
1.4209411 -47.319458 -0.82633656 8 3204480433592 1 0
-2.8425663 -41.821762 -1.2199407 8 3204480435896 1 0
-0.11801154 -6.2120214 -1.7393003 6 3204480435896 1 0
-0.60480237 -8.879174 -1.7799605 3 3204480438200 1 0
-1.3461035 -70.319115 0 61 3204480438200 1 0
-7.7031317 -65.524284 -0.7680787 21 3204480440504 1 0
-0.20747586 -10.756577 -1.6737845 24 3204480440504 1 0
-0.7663778 -11.203214 -1.4293563 12 3204480442808 1 0
-4.4268394 -64.57535 -0.37619355 14 3204480445112 1 0
2.1516802 -73.07109 0.42487413 33 3204480442808 1 0
-0.3259653 -16.648485 -1.7936614 2 3204480445112 1 0
-2.3934112 -20.282482 -1.9064687 3 3204480447416 1 0
-1.3218919 -67.01682 1.559747 17 3204480447416 1 0
-8.179585 -69.22974 0.81156975 57 3204480449720 1 0
-0.53817666 -27.084503 -1.8943068 6 3204480449720 1 0
-1.5786154 -22.881311 -1.8723593 17 3204480452024 1 0
2.151456 -74.537384 2.1701539 69 3204480452024 1 0
-4.826545 -69.81069 1.221459 64 3204480454328 1 0
0.8339991 -29.040424 -1.8619319 10 3204480454328 1 0
-3.9747825 -33.515945 -1.965564 9 3204480456632 1 0
-1.4286691 -70.35426 4.0981035 28 3204480456632 1 0
-4.846617 -69.8059 2.8508122 58 3204480458936 1 0
-0.63630664 -31.111752 -1.4495375 43 3204480458936 1 0
-2.1972263 -31.580212 -1.6590499 38 3204480461240 1 0
0 0 0 1 3204480461240 1 0
0 0 0 8 3204480463544 1 0
0.86115366 -30.606487 -1.2474339 36 3204480463544 1 0
-4.900806 -41.11974 -1.4460956 15 3204480465848 1 0
0 0 0 9 3204480465848 1 0
0 0 0 29 3204480468152 1 0
-0.9556658 -45.433647 -1.0574493 16 3204480468152 1 0
-0.26515466 -3.7172928 -1.7378063 1 3204480488888 1 0
0.81464523 -30.700516 -0.53606814 4 3204480488888 1 0
-3.0540714 -42.732864 -1.2468203 9 3204480491192 1 0
-0.13973624 -6.2154236 -1.7403785 5 3204480491192 1 0
-0.6356637 -8.877018 -1.7799605 4 3204480493496 1 0
-1.5204269 -67.214806 0 36 3204480493496 1 0
-9.567416 -79.0175 -0.9266302 13 3204480495800 1 0
-0.24523705 -10.77555 -1.676859 20 3204480495800 1 0
-0.8048693 -11.196536 -1.4288512 11 3204480498104 1 0
1.8541574 -71.36271 0.4149009 61 3204480498104 1 0
-3.0915835 -42.924084 -0.2501215 6 3204480500408 1 0
-0.38365522 -16.65521 -1.7945181 2 3204480500408 1 0
-2.4637914 -20.278065 -1.9068406 3 3204480502712 1 0
-9.841463 -80.90611 0.9488414 28 3204480505016 1 0
-0.6317092 -27.098448 -1.8954229 6 3204480505016 1 0
-1.5333444 -66.16832 1.540113 17 3204480502712 1 0
-1.6588739 -22.899616 -1.874312 17 3204480507320 1 0
1.8889892 -74.28452 2.1625903 68 3204480507320 1 0
-5.063606 -69.76583 1.2209704 64 3204480509624 1 0
0.73523134 -29.071043 -1.8637227 10 3204480509624 1 0
-4.1038294 -33.62108 -1.9725407 9 3204480511928 1 0
-1.6042446 -67.61437 3.9388025 28 3204480511928 1 0
-5.08293 -69.76505 2.8498354 87 3204480514232 1 0
-0.7432724 -31.145351 -1.4512126 43 3204480514232 1 0
-2.306438 -31.596455 -1.6603059 38 3204480516536 1 0
0 0 0 1 3204480516536 1 0
0 0 0 8 3204480518840 1 0
0.7583916 -30.65718 -1.2493879 36 3204480518840 1 0
-5.022124 -40.956085 -1.4409304 15 3204480521144 1 0
0 0 0 9 3204480521144 1 0
0 0 0 29 3204480523448 1 0
-0.27721027 -3.712778 -1.7361158 1 3204480544184 1 0
-1.6651175 -68.19321 -1.5872905 38 3204480523448 1 0
1.0421916 -44.889065 -0.7837527 22 3204480544184 1 0
-3.209509 -42.897892 -1.2519403 9 3204480546488 1 0
-0.16053635 -6.2187743 -1.7414569 6 3204480546488 1 0
-0.6656488 -8.878754 -1.780745 3 3204480548792 1 0
-1.8281265 -70.40027 0 20 3204480548792 1 0
-9.973663 -80.116104 -0.93990105 28 3204480551096 1 0
-0.28133565 -10.770714 -1.6762441 22 3204480551096 1 0
-0.84353876 -11.205627 -1.4303664 11 3204480553400 1 0
1.6168735 -71.52452 0.41580755 31 3204480553400 1 0
-3.2343206 -42.87746 -0.24991229 6 3204480555704 1 0
-0.4400949 -16.653814 -1.7945181 2 3204480555704 1 0
-2.5367417 -20.301178 -1.9098147 3 3204480558008 1 0
-1.7831817 -67.09014 1.5617012 18 3204480558008 1 0
-10.122902 -80.91169 0.949307 57 3204480560312 1 0
-0.72443277 -27.10012 -1.8957019 6 3204480560312 1 0
-1.7392768 -22.917639 -1.8762647 20 3204480562616 1 0
1.6259097 -73.92281 2.151885 66 3204480562616 1 0
-5.302543 -69.72802 1.2206213 64 3204480564920 1 0
0.6357159 -29.105331 -1.8657694 10 3204480564920 1 0
-4.223669 -33.634407 -1.9741685 9 3204480567224 1 0
-1.9070988 -70.13919 4.086243 28 3204480567224 1 0
-5.3241935 -69.73102 2.849184 58 3204480569528 1 0
-0.85284305 -31.19051 -1.4534461 43 3204480569528 1 0
0 0 0 1 3204480571832 1 0
-2.4194586 -31.624056 -1.66219 38 3204480571832 1 0
0 0 0 8 3204480574136 1 0
0.6516911 -30.695612 -1.2508533 36 3204480574136 1 0
-5.1477284 -40.79141 -1.4357653 23 3204480576440 1 0
0 0 0 9 3204480576440 1 0
-1.90411 -68.114944 -1.5856156 19 3204480578744 1 0
-0.2916659 -3.7225795 -1.7411872 1 3204480599480 1 0
0 0 0 29 3204480578744 1 0
0.8784397 -44.932568 -0.78445077 15 3204480599480 1 0
-3.3617122 -42.830082 -1.2503111 18 3204480601784 1 0
-0.6973135 -8.868454 -1.7791761 4 3204480604088 1 0
-0.18323778 -6.218147 -1.7414569 6 3204480601784 1 0
-2.083623 -70.37716 0 20 3204480604088 1 0
-9.810683 -76.54462 -0.8984122 13 3204480606392 1 0
-0.320458 -10.773575 -1.676859 21 3204480606392 1 0
-0.8836399 -11.198556 -1.4298613 11 3204480608696 1 0
1.357886 -71.4779 0.41550532 31 3204480608696 1 0
-3.3864443 -42.84164 -0.2497728 6 3204480611000 1 0
-0.5002783 -16.664053 -1.7958033 2 3204480611000 1 0
-2.1194131 -70.27302 1.6359571 20 3204480613304 1 0
-2.6083455 -20.284073 -1.9090712 3 3204480613304 1 0
-10.412178 -80.88304 0.9494002 57 3204480615608 1 0
-0.8214794 -27.11332 -1.896818 6 3204480615608 1 0
-1.8221755 -22.931192 -1.877892 25 3204480617912 1 0
1.3590623 -73.684265 2.1447868 66 3204480617912 1 0
-5.547362 -69.68891 1.2202723 64 3204480620216 1 0
-4.3435616 -33.63121 -1.9748663 9 3204480622520 1 0
-2.1537135 -70.12406 4.0857778 28 3204480622520 1 0
-5.566354 -69.684044 2.8480442 58 3204480624824 1 0
-0.96339875 -31.227266 -1.4553074 39 3204480624824 1 0
-2.5330186 -31.655235 -1.6642834 38 3204480627128 1 0
0.5332107 -29.127354 -1.8670485 10 3204480620216 1 0
0 0 0 1 3204480627128 1 0
0 0 0 8 3204480629432 1 0
0.5457663 -30.74165 -1.2526444 27 3204480629432 1 0
-5.273473 -40.654415 -1.4315773 23 3204480631736 1 0
0 0 0 9 3204480631736 1 0
0 0 0 29 3204480634040 1 0
-2.1032438 -66.97285 -1.5591887 18 3204480634040 1 0
-0.3048943 -3.7324314 -1.7462586 4 3204480654776 1 0
0 0 0 72 3204480654776 1 0
-5.204364 -63.59639 -1.8570234 22 3204480657080 1 0
-0.20402835 -6.2213535 -1.7425351 5 3204480657080 1 0
-0.72780895 -8.87781 -1.7815294 4 3204480659384 1 0
-2.3118246 -70.18193 0 61 3204480659384 1 0
