# .PCD v.7 - Point Cloud Data file format
VERSION .7
FIELDS x y z rgb timestamp_ns device_id active
SIZE 4 4 4 4 8 1 1
TYPE F F F F F U U
COUNT 1 1 1 1 1 1 1
WIDTH 968
HEIGHT 1
VIEWPOINT 0 0 0 1 0 0 0
POINTS 968               
DATA ascii
9.72017 -14.577766 -1.2252027 27 3203370824384 1 1
9.60859 -16.063267 -1.5280248 4 3203370826688 1 0
10.413609 -14.080035 0.50966614 67 3203370826688 1 1
8.61057 -14.399331 0.2928514 90 3203370828992 1 1
10.423224 -14.097111 -1.1236061 3 3203370828992 1 1
7.79625 -14.618985 -0.9648752 31 3203370831296 1 1
9.502197 -14.263668 0.99813074 59 3203370831296 1 1
8.611017 -14.409118 0.6838823 80 3203370833600 1 1
9.964483 -14.962082 -0.8373741 16 3203370833600 1 1
9.040725 -15.132909 -0.9238343 14 3203370835904 1 1
22.411644 -33.662086 4.9654446 8 3203370835904 1 0
8.632631 -14.454354 1.3744087 1 3203370838208 1 1
10.36879 -14.039715 -0.71107477 1 3203370838208 1 1
7.7552714 -14.561522 -0.5761209 87 3203370840512 1 1
0 0 0 9 3203370840512 1 0
16.578074 -27.775522 5.8976483 33 3203370842816 1 0
9.490347 -14.267233 -0.39873022 100 3203370842816 1 1
0 0 0 4 3203370863552 1 0
10.36393 -14.077859 -0.30513787 97 3203370863552 1 1
8.574347 -14.410989 -0.4880228 92 3203370865856 1 1
3.3190088 -5.0045853 -1.681072 2 3203370865856 1 0
4.312998 -7.2511773 -1.6873932 4 3203370868160 1 0
9.453532 -14.258836 0 100 3203370868160 1 1
7.731416 -14.579791 -0.19212444 81 3203370870464 1 1
5.871673 -8.858948 -1.6534925 8 3203370870464 1 0
5.745973 -9.6664295 -1.4313766 41 3203370872768 1 0
10.367028 -14.098382 0.10170849 79 3203370872768 1 1
8.563733 -14.411269 -0.09743092 100 3203370875072 1 1
6.4086046 -9.674853 -1.2500367 13 3203370875072 1 0
8.460579 -15.970827 -1.6871207 2 3203370877376 1 0
9.4497175 -14.270201 0.39826497 66 3203370877376 1 1
7.7158694 -14.569923 0.19193818 72 3203370879680 1 1
9.62552 -14.540047 -1.2193432 12 3203370879680 1 1
9.604115 -16.177317 -1.5358357 3 3203370881984 1 0
10.347925 -14.088711 0.50873524 66 3203370881984 1 1
8.552567 -14.410608 0.29250234 91 3203370884288 1 1
0 0 0 89 3203370884288 1 0
7.777607 -14.701233 -0.9685961 5 3203370886592 1 1
9.4438305 -14.278446 0.9969679 61 3203370886592 1 1
8.552994 -14.420406 0.68306816 76 3203370888896 1 1
9.901589 -14.975045 -0.83625734 15 3203370888896 1 1
8.957895 -15.107831 -0.9204848 11 3203370891200 1 1
22.25392 -33.666668 4.9552073 8 3203370891200 1 0
8.598881 -14.506907 1.3766869 1 3203370893504 1 1
10.310357 -14.057908 -0.7102606 1 3203370893504 1 1
7.6920013 -14.558883 -0.5750041 27 3203370895808 1 1
0 0 0 9 3203370895808 1 0
16.463814 -27.793102 5.889756 38 3203370898112 1 0
9.425353 -14.27193 -0.39798582 100 3203370898112 1 1
0 0 0 4 3203370919296 1 0
10.298207 -14.091347 -0.3046492 97 3203370919296 1 1
8.509659 -14.41679 -0.48720828 94 3203370921600 1 1
3.2951298 -5.0065117 -1.677837 2 3203370921600 1 0
4.2935343 -7.276385 -1.6897466 6 3203370923904 1 0
9.3881035 -14.268494 0 96 3203370923904 1 1
7.6652665 -14.578536 -0.19175193 60 3203370926208 1 1
5.8405204 -8.879517 -1.6534925 8 3203370926208 1 0
0 0 0 22 3203370928512 1 0
10.293759 -14.102476 0.10147601 81 3203370928512 1 1
8.500664 -14.42071 -0.09729143 100 3203370930816 1 1
6.374441 -9.697396 -1.2500367 6 3203370930816 1 0
8.415193 -16.021786 -1.6893514 2 3203370933120 1 0
9.379458 -14.273432 0.3974275 72 3203370933120 1 1
7.6493464 -14.568828 0.19156566 53 3203370935424 1 1
9.532339 -14.51068 -1.2140417 11 3203370935424 1 1
9.647795 -16.383064 -1.5521086 3 3203370937728 1 0
10.276663 -14.096268 0.507688 71 3203370937728 1 1
8.491122 -14.423698 0.29215327 96 3203370940032 1 1
10.302589 -14.136148 -1.1210477 96 3203370940032 1 1
7.69364 -14.668736 -0.96464264 5 3203370942336 1 1
9.375362 -14.2853 0.9951075 68 3203370942336 1 1
8.489289 -14.430185 0.6820912 76 3203370944640 1 1
9.830521 -14.983579 -0.83476835 15 3203370944640 1 1
8.869359 -15.08125 -0.91692597 7 3203370946944 1 1
22.122433 -33.729477 4.95277 8 3203370946944 1 0
8.52257 -14.496402 1.3727814 1 3203370949248 1 1
10.245778 -14.075395 -0.70928365 1 3203370949248 1 1
7.628521 -14.565174 -0.57416654 22 3203370951552 1 1
0 0 0 9 3203370951552 1 0
16.3517 -27.83183 5.8854513 38 3203370953856 1 0
9.360767 -14.285697 -0.3974275 100 3203370953856 1 1
0 0 0 4 3203370974592 1 0
10.234865 -14.107785 -0.30423036 97 3203370974592 1 1
8.44312 -14.418804 -0.48627737 96 3203370976896 1 1
3.2818468 -5.024433 -1.6799936 2 3203370976896 1 0
4.266127 -7.287943 -1.6889621 4 3203370979200 1 0
9.3207445 -14.274384 0 100 3203370979200 1 1
7.612482 -14.601657 -0.19170536 28 3203370981504 1 1
5.8138103 -8.906469 -1.6547223 8 3203370981504 1 0
5.672056 -9.6961975 -1.4298613 3 3203370983808 1 0
10.223348 -14.109171 0.10126679 82 3203370983808 1 1
8.438159 -14.429577 -0.09715195 100 3203370986112 1 1
6.344898 -9.72625 -1.2508935 3 3203370986112 1 0
8.361054 -16.054594 -1.6897231 2 3203370988416 1 0
9.316472 -14.285988 0.39686918 75 3203370988416 1 1
7.594751 -14.588345 0.19147253 24 3203370990720 1 1
9.516497 -14.597348 -1.2185061 12 3203370990720 1 1
10.234075 -17.518198 -1.6562552 5 3203370993024 1 0
10.210986 -14.109381 0.5068735 63 3203370993024 1 1
8.434671 -14.44289 0.29194385 96 3203370995328 1 1
10.236803 -14.149386 -1.119257 22 3203370995328 1 1
7.7566204 -14.915156 -0.9790611 5 3203370997632 1 1
9.314544 -14.3012085 0.9939447 63 3203370997632 1 1
8.42678 -14.439019 0.6811142 76 3203370999936 1 1
9.767258 -15.00106 -0.83383775 15 3203370999936 1 1
8.830752 -15.1362705 -0.91839135 11 3203371002240 1 1
21.995897 -33.793182 4.95082 8 3203371002240 1 0
8.47995 -14.539838 1.3740833 1 3203371004544 1 1
10.18722 -14.098115 -0.70863235 1 3203371004544 1 1
7.599741 -14.634287 -0.5758417 20 3203371006848 1 1
0 0 0 9 3203371006848 1 0
16.224726 -27.83774 5.874689 38 3203371009152 1 0
9.295584 -14.294819 -0.3967761 100 3203371009152 1 1
0 0 0 4 3203371029888 1 0
10.171535 -14.123953 -0.3038115 95 3203371029888 1 1
8.382696 -14.430902 -0.48569557 94 3203371032192 1 1
3.2663834 -5.0390906 -1.681072 2 3203371032192 1 0
4.2426314 -7.306182 -1.6897466 4 3203371034496 1 0
9.26216 -14.293405 0 88 3203371034496 1 1
7.568813 -14.642353 -0.19189161 17 3203371036800 1 1
5.7783875 -8.920074 -1.6534925 8 3203371036800 1 0
5.624234 -9.691915 -1.4263258 3 3203371039104 1 0
10.160021 -14.125288 0.1011273 77 3203371039104 1 1
8.37971 -14.445105 -0.09705896 100 3203371041408 1 1
6.3109083 -9.748339 -1.2508935 4 3203371041408 1 0
8.30679 -16.087221 -1.690095 2 3203371043712 1 0
9.255684 -14.301636 0.3964039 72 3203371043712 1 1
7.5437818 -14.614766 0.19147253 19 3203371046016 1 1
9.415631 -14.553422 -1.2120885 26 3203371046016 1 1
10.170863 -17.550365 -1.6559298 5 3203371048320 1 0
10.143011 -14.118959 0.5059426 29 3203371048320 1 1
8.378191 -14.461863 0.29173443 97 3203371050624 1 1
0 0 0 22 3203371050624 1 0
7.752091 -15.03442 -0.9851076 5 3203371052928 1 1
9.255896 -14.320221 0.99301445 65 3203371052928 1 1
8.370319 -14.45797 0.68062574 76 3203371055232 1 1
9.703992 -15.018282 -0.83290714 16 3203371055232 1 1
8.775863 -15.163546 -0.918182 4 3203371057536 1 1
21.877802 -33.86976 4.95082 8 3203371057536 1 0
8.367253 -14.462375 1.363994 1 3203371059840 1 1
10.128628 -14.120599 -0.70798105 1 3203371059840 1 1
7.5412917 -14.646509 -0.5752833 47 3203371062144 1 1
0 0 0 9 3203371062144 1 0
16.111698 -27.866953 5.8689494 38 3203371064448 1 0
9.228282 -14.300299 -0.3960317 100 3203371064448 1 1
0 0 0 4 3203371085184 1 0
10.108215 -14.139852 -0.30339262 95 3203371085184 1 1
8.326283 -14.449682 -0.48534647 94 3203371087488 1 1
3.244606 -5.0439825 -1.6789154 2 3203371087488 1 0
4.217102 -7.3209467 -1.6897466 5 3203371089792 1 0
9.201393 -14.308826 0 89 3203371089792 1 1
7.490292 -14.615292 -0.19119315 31 3203371092096 1 1
5.7536273 -8.950165 -1.6553372 8 3203371092096 1 0
5.5824504 -9.697732 -1.4243056 3 3203371094400 1 0
10.08741 -14.128114 0.10089482 66 3203371094400 1 1
8.325247 -14.467333 -0.09701246 100 3203371096704 1 1
6.276842 -9.7703085 -1.2508935 4 3203371096704 1 0
8.288697 -16.190567 -1.6979022 2 3203371099008 1 0
9.197062 -14.320397 0.3960317 72 3203371099008 1 1
7.505476 -14.665934 0.1917985 22 3203371101312 1 1
9.263451 -14.428385 -1.1989743 3 3203371101312 1 1
10.117487 -17.599586 -1.6572316 5 3203371103616 1 0
10.0774145 -14.131492 0.505128 39 3203371103616 1 1
8.311717 -14.463279 0.29117596 97 3203371105920 1 1
10.1006975 -14.168501 -1.1151637 6 3203371105920 1 1
7.681387 -15.025833 -0.982782 8 3203371108224 1 1
9.188605 -14.325553 0.991154 65 3203371108224 1 1
8.311839 -14.473237 0.67997444 76 3203371110528 1 1
9.638569 -15.031882 -0.8317904 15 3203371110528 1 1
8.710945 -15.173302 -0.91692597 4 3203371112832 1 1
21.746586 -33.925865 4.9478955 8 3203371112832 1 0
8.310766 -14.48112 1.3630177 1 3203371115136 1 1
10.07464 -14.149357 -0.7076554 1 3203371115136 1 1
7.488302 -14.669184 -0.5751437 33 3203371117440 1 1
0 0 0 9 3203371117440 1 0
15.996706 -27.892302 5.862492 38 3203371119744 1 0
9.167526 -14.315586 -0.39556643 100 3203371119744 1 1
0 0 0 4 3203371140480 1 0
10.037966 -14.145695 -0.30276436 97 3203371140480 1 1
8.267857 -14.464773 -0.484881 96 3203371142784 1 1
3.2352698 -5.068265 -1.6832286 2 3203371142784 1 0
4.195413 -7.342434 -1.6913155 5 3203371145088 1 0
9.138479 -14.320626 0 88 3203371145088 1 1
7.6222205 -15.001498 -0.19589615 39 3203371147392 1 1
5.7223506 -8.970195 -1.6553372 8 3203371147392 1 0
5.5465975 -9.713713 -1.4238005 11 3203371149696 1 0
10.026467 -14.146922 0.10077858 59 3203371149696 1 1
8.264781 -14.478936 -0.09689622 100 3203371152000 1 1
6.2491126 -9.802219 -1.2521787 7 3203371152000 1 0
8.232131 -16.2194 -1.6979022 2 3203371154304 1 0
9.131974 -14.328808 0.39538032 72 3203371154304 1 1
7.6098723 -14.998796 0.19580302 26 3203371156608 1 1
9.200166 -14.44044 -1.1973001 3 3203371156608 1 1
10.05994 -17.641724 -1.6578825 5 3203371158912 1 0
10.021094 -14.156792 0.5047789 63 3203371158912 1 1
8.255238 -14.481781 0.2909665 94 3203371161216 1 1
10.099602 -14.2721 -1.1205361 13 3203371161216 1 1
7.639722 -15.073926 -0.98417735 7 3203371163520 1 1
9.125678 -14.337327 0.9897587 68 3203371163520 1 1
8.251376 -14.484798 0.6791603 75 3203371165824 1 1
9.204227 -14.465381 -0.7986602 8 3203371165824 1 1
8.646068 -15.182789 -0.9156699 7 3203371168128 1 1
21.632292 -34.008266 4.94887 8 3203371168128 1 0
8.250305 -14.492719 1.3613904 1 3203371170432 1 1
9.962906 -14.096315 -0.703259 1 3203371170432 1 1
7.590486 -14.998411 -0.58700955 45 3203371172736 1 1
0 0 0 9 3203371172736 1 0
15.881734 -27.917187 5.8560348 33 3203371175040 1 0
9.098196 -14.317124 -0.39472896 100 3203371175040 1 1
0 0 0 4 3203371195776 1 0
9.965496 -14.14795 -0.30206624 90 3203371195776 1 1
8.207456 -14.476154 -0.4842992 88 3203371198080 1 1
3.2154973 -5.076273 -1.6821502 2 3203371198080 1 0
4.1658897 -7.350209 -1.6897466 5 3203371200384 1 0
9.075596 -14.332162 0 78 3203371200384 1 1
7.578806 -15.045875 -0.19612896 34 3203371202688 1 1
5.695232 -8.996794 -1.656567 9 3203371202688 1 0
5.50679 -9.722657 -1.4222853 56 3203371204992 1 0
9.977024 -14.181834 0.10077858 15 3203371204992 1 1
8.202365 -14.486814 -0.09675674 100 3203371207296 1 1
6.2233634 -9.837417 -1.2538923 11 3203371207296 1 0
8.173675 -16.24448 -1.6975305 2 3203371209600 1 0
9.062665 -14.330179 0.39454284 72 3203371209600 1 1
7.5772405 -15.064574 0.19631523 26 3203371211904 1 1
9.18382 -14.526431 -1.2017646 2 3203371211904 1 1
10.002224 -17.683672 -1.6585335 5 3203371214208 1 0
9.960124 -14.175328 0.5041971 66 3203371214208 1 1
8.192825 -14.48962 0.29054767 96 3203371216512 1 1
10.081843 -14.352999 -1.1241177 11 3203371216512 1 1
7.6569757 -15.23966 -0.99324703 5 3203371218816 1 1
9.054252 -14.335332 0.98743314 61 3203371218816 1 1
8.185036 -14.485676 0.67785764 75 3203371221120 1 1
9.217675 -14.598778 -0.8042439 8 3203371221120 1 1
8.583194 -15.195487 -0.9146232 7 3203371223424 1 1
21.504972 -34.07014 4.9469204 8 3203371223424 1 0
8.183984 -14.493657 1.3587867 1 3203371225728 1 1
9.899868 -14.111376 -0.702282 1 3203371225728 1 1
7.5398784 -15.028389 -0.58714914 33 3203371228032 1 1
0 0 0 9 3203371228032 1 0
15.768717 -27.945036 5.8502946 22 3203371230336 1 0
9.037499 -14.331882 -0.3942637 100 3203371230336 1 1
0 0 0 4 3203371251072 1 0
9.900008 -14.159706 -0.3015776 88 3203371251072 1 1
8.1490345 -14.490775 -0.48383376 98 3203371253376 1 1
3.199808 -5.0907273 -1.6832286 2 3203371253376 1 0
4.1421294 -7.368125 -1.690531 5 3203371255680 1 0
9.006358 -14.333272 0 88 3203371255680 1 1
7.660254 -15.340618 -0.19962129 11 3203371257984 1 1
5.66169 -9.013272 -1.6559521 8 3203371257984 1 0
5.463101 -9.724523 -1.4197599 59 3203371260288 1 0
9.895399 -14.170662 0.100453116 10 3203371260288 1 1
8.143912 -14.501406 -0.09666375 100 3203371262592 1 1
6.1762996 -9.83887 -1.2513219 14 3203371262592 1 0
8.127587 -16.294296 -1.6997612 2 3203371264896 1 0
9.00196 -14.34479 0.3940776 72 3203371264896 1 1
7.6691756 -15.380866 0.20008694 9 3203371267200 1 1
9.215757 -14.690227 -1.2126465 4 3203371267200 1 1
9.944337 -17.725431 -1.6591843 3 3203371269504 1 0
9.880848 -14.1673765 0.5026844 65 3203371269504 1 1
8.13046 -14.497201 0.2901288 93 3203371271808 1 1
10.123002 -14.519083 -1.1343509 9 3203371271808 1 1
8.1057825 -16.274279 -1.0588279 3 3203371274112 1 1
8.991433 -14.346548 0.9860378 70 3203371274112 1 1
8.120744 -14.489754 0.6767178 75 3203371276416 1 1
9.236667 -14.742602 -0.81038606 5 3203371276416 1 1
8.502766 -15.176567 -0.9116924 7 3203371278720 1 1
21.369057 -34.118084 4.9430203 7 3203371278720 1 0
8.150875 -14.553442 1.3617158 1 3203371281024 1 1
9.845982 -14.139287 -0.70195633 1 3203371281024 1 1
7.6386876 -15.358858 -0.59901494 19 3203371283328 1 1
0 0 0 9 3203371283328 1 0
15.649934 -27.962137 5.8424025 21 3203371285632 1 0
8.976811 -14.346393 -0.39379844 100 3203371285632 1 1
0 0 0 4 3203371306368 1 0
9.83912 -14.17775 -0.30122852 87 3203371306368 1 1
8.090612 -14.505165 -0.4833683 88 3203371308672 1 1
3.188134 -5.111671 -1.6864635 2 3203371308672 1 0
4.114475 -7.379113 -1.6897466 4 3203371310976 1 0
8.943573 -14.344257 0 90 3203371310976 1 1
7.727315 -15.611018 -0.20278767 23 3203371313280 1 1
5.6239214 -9.022917 -1.6541073 8 3203371313280 1 0
5.4291224 -9.743533 -1.4197599 54 3203371315584 1 0
9.83448 -14.18868 0.10033688 30 3203371315584 1 1
8.079618 -14.505284 -0.096501015 100 3203371317888 1 1
6.1398153 -9.856994 -1.2508935 12 3203371317888 1 0
8.070661 -16.322567 -1.6997612 2 3203371320192 1 0
8.937036 -14.352364 0.39342624 75 3203371320192 1 1
7.728865 -15.637025 0.20306705 26 3203371322496 1 1
9.065313 -14.563091 -1.1995323 3 3203371322496 1 1
9.880465 -17.756552 -1.6588589 3 3203371324800 1 0
9.813128 -14.175481 0.5017535 60 3203371324800 1 1
8.066196 -14.501027 0.28964013 96 3203371327104 1 1
9.938235 -14.360666 -1.119257 3 3203371327104 1 1
8.029479 -16.263086 -1.0562698 5 3203371329408 1 1
8.930756 -14.360892 0.984875 70 3203371329408 1 1
8.062348 -14.504039 0.6760665 73 3203371331712 1 1
9.275862 -14.92067 -0.8183894 5 3203371331712 1 1
8.461379 -15.227105 -0.9129484 4 3203371334016 1 1
21.26031 -34.209328 4.945458 8 3203371334016 1 0
8.090344 -14.564379 1.3600886 1 3203371336320 1 1
9.807928 -14.190009 -0.7027705 1 3203371336320 1 1
7.7246737 -15.668684 -0.6100432 49 3203371338624 1 1
0 0 0 9 3203371338624 1 0
15.536953 -27.98907 5.836663 26 3203371340928 1 0
8.92035 -14.367448 -0.39351928 100 3203371340928 1 1
0 0 0 4 3203371361664 1 0
9.773689 -14.188952 -0.30073985 90 3203371361664 1 1
8.0244465 -14.505329 -0.4824374 94 3203371363968 1 1
3.1702714 -5.1227684 -1.6864635 2 3203371363968 1 0
4.094386 -7.4037275 -1.6920999 6 3203371366272 1 0
8.882925 -14.35838 0 89 3203371366272 1 1
7.6956787 -15.684577 -0.20339301 30 3203371368576 1 1
5.600707 -9.05594 -1.656567 8 3203371368576 1 0
5.387401 -9.748533 -1.4177396 56 3203371370880 1 0
9.759954 -14.186672 0.10008115 57 3203371370880 1 1
8.023133 -14.522896 -0.09643127 99 3203371373184 1 1
6.1032796 -9.874983 -1.2504652 12 3203371373184 1 0
8.018893 -16.361368 -1.7008765 2 3203371375488 1 0
8.876372 -14.366463 0.39296097 75 3203371375488 1 1
7.6883125 -15.692643 0.20343956 23 3203371377792 1 1
8.995552 -14.564093 -1.1970211 3 3203371377792 1 1
9.822275 -17.797915 -1.6595098 3 3203371380096 1 0
9.752266 -14.1931715 0.5011717 68 3203371380096 1 1
8.003938 -14.508084 0.2892213 94 3203371382400 1 1
9.8270235 -14.306431 -1.1123495 5 3203371382400 1 1
7.986704 -16.31971 -1.0581301 5 3203371384704 1 1
8.874282 -14.3817835 0.98417735 68 3203371384704 1 1
8.0000925 -14.511093 0.67508954 76 3203371387008 1 1
9.301338 -15.078784 -0.825276 5 3203371387008 1 1
8.396607 -15.235558 -0.9116924 4 3203371389312 1 1
20.971975 -34.009605 4.9059725 7 3203371389312 1 0
8.027913 -14.57158 1.3581358 1 3203371391616 1 1
9.733466 -14.187906 -0.70097935 1 3203371391616 1 1
7.659402 -15.674003 -0.6092056 30 3203371393920 1 1
0 0 0 9 3203371393920 1 0
15.422078 -28.012108 5.8302054 21 3203371396224 1 0
8.859656 -14.3814745 -0.393054 100 3203371396224 1 1
0 0 0 4 3203371416960 1 0
9.710558 -14.203174 -0.300321 91 3203371416960 1 1
7.9699183 -14.52624 -0.4822047 92 3203371419264 1 1
3.1523702 -5.1338034 -1.6864635 2 3203371419264 1 0
4.07229 -7.424853 -1.693669 5 3203371421568 1 0
8.820195 -14.368847 0 100 3203371421568 1 1
7.763333 -15.963128 -0.2066525 9 3203371423872 1 1
5.5690618 -9.075435 -1.656567 9 3203371423872 1 0
5.347618 -9.756841 -1.4162244 36 3203371426176 1 0
9.701352 -14.207441 0.09998816 28 3203371426176 1 1
7.9531703 -14.515734 -0.0961988 100 3203371428480 1 1
6.0666933 -9.892837 -1.2500367 7 3203371428480 1 0
7.9617324 -16.38926 -1.7008765 2 3203371430784 1 0
8.8199005 -14.387132 0.3926818 76 3203371430784 1 1
7.769769 -16.000023 0.20707159 9 3203371433088 1 1
8.827899 -14.4048815 -1.1813956 2 3203371433088 1 1
9.767745 -17.84608 -1.6608117 5 3203371435392 1 0
9.686893 -14.204004 0.5003572 69 3203371435392 1 1
7.9455676 -14.521901 0.28894204 96 3203371437696 1 1
9.770279 -14.330751 -1.111582 13 3203371437696 1 1
7.9889436 -16.469646 -1.066037 3 3203371440000 1 1
8.807345 -14.385428 0.9823169 70 3203371440000 1 1
8.827306 -14.42274 -0.78767884 8 3203371442304 1 1
7.9582953 -14.560246 -0.86961424 6 3203371444608 1 1
7.943639 -14.52841 0.6746011 76 3203371442304 1 1
20.793041 -33.984394 4.891835 7 3203371444608 1 0
7.978912 -14.603012 1.3584613 1 3203371446912 1 1
9.677133 -14.2118845 -0.7004909 1 3203371446912 1 1
7.780644 -16.064018 -0.623305 16 3203371449216 1 1
0 0 0 9 3203371449216 1 0
15.305346 -28.031233 5.823031 21 3203371451520 1 0
8.790632 -14.381605 -0.39221653 100 3203371451520 1 1
0 0 0 4 3203371472256 1 0
9.651938 -14.223745 -0.30004176 90 3203371472256 1 1
7.9038754 -14.525876 -0.4812738 96 3203371474560 1 1
3.1304226 -5.138197 -1.6843069 2 3203371474560 1 0
4.0463476 -7.4390225 -1.693669 4 3203371476864 1 0
7.8465014 -16.27837 -0.21037765 27 3203371479168 1 1
8.759582 -14.382466 0 100 3203371476864 1 1
5.5394044 -9.098195 -1.6571819 10 3203371479168 1 0
0 0 0 30 3203371481472 1 0
9.635991 -14.21804 0.09982543 26 3203371481472 1 1
7.8948135 -14.529349 -0.09610581 100 3203371483776 1 1
6.032124 -9.913954 -1.2500367 4 3203371483776 1 0
7.913113 -16.434895 -1.7027353 2 3203371486080 1 0
8.755079 -14.393915 0.39203045 76 3203371486080 1 1
7.838764 -16.286537 0.21042421 28 3203371488384 1 1
8.756831 -14.401514 -1.1786054 2 3203371488384 1 1
9.709195 -17.887075 -1.6614625 3 3203371490688 1 0
9.621565 -14.214554 0.49954265 73 3203371490688 1 1
7.8910136 -14.542517 0.28880242 93 3203371492992 1 1
9.733619 -14.384604 -1.113117 12 3203371492992 1 1
11.91268 -24.77854 -1.6011486 7 3203371495296 1 0
8.746712 -14.399019 0.98115414 70 3203371495296 1 1
7.8852563 -14.541996 0.6739497 76 3203371497600 1 1
8.762389 -14.429558 -0.786376 5 3203371497600 1 1
7.951204 -14.668708 -0.87442917 38 3203371499904 1 1
20.79172 -34.250214 4.9196215 7 3203371499904 1 0
7.922191 -14.620259 1.3574848 1 3203371502208 1 1
9.625228 -14.242267 -0.70032805 1 3203371502208 1 1
7.8317833 -16.314516 -0.6319601 62 3203371504512 1 1
0 0 0 9 3203371504512 1 0
15.196162 -28.063725 5.818726 26 3203371506816 1 0
8.727936 -14.391686 -0.39165822 100 3203371506816 1 1
0 0 0 4 3203371527552 1 0
9.584356 -14.230813 -0.2994833 88 3203371527552 1 1
7.84173 -14.532265 -0.48057562 96 3203371529856 1 1
3.1124678 -5.149093 -1.6843069 2 3203371529856 1 0
8.694843 -14.38899 0 100 3203371532160 1 1
7.806873 -16.341751 -0.2108433 24 3203371534464 1 1
4.0203557 -7.4531016 -1.693669 5 3203371532160 1 0
5.5076118 -9.1174755 -1.6571819 11 3203371534464 1 0
5.2699585 -9.776472 -1.413699 3 3203371536768 1 0
9.572907 -14.231676 0.099685945 68 3203371536768 1 1
7.8345613 -14.539212 -0.09598957 100 3203371539072 1 1
6.0077577 -9.951973 -1.2521787 4 3203371539072 1 0
7.857412 -16.46601 -1.7031071 2 3203371541376 1 0
8.696517 -14.410694 0.39165822 75 3203371541376 1 1
7.799086 -16.3499 0.21088986 24 3203371543680 1 1
8.700324 -14.421743 -1.1777683 2 3203371543680 1 1
9.646698 -17.920858 -1.6614625 3 3203371545984 1 0
9.562969 -14.234777 0.4990772 54 3203371545984 1 1
7.830727 -14.552363 0.28845337 96 3203371548288 1 1
9.736761 -14.498026 -1.119257 10 3203371548288 1 1
11.826114 -24.819971 -1.6011486 7 3203371550592 1 0
8.6860895 -14.412363 0.9799913 70 3203371550592 1 1
7.8287687 -14.558872 0.67346126 76 3203371552896 1 1
8.689285 -14.422409 -0.78432864 3 3203371552896 1 1
8.142038 -15.146729 -0.90122515 7 3203371555200 1 1
20.725294 -34.411007 4.9322963 7 3203371555200 1 0
7.8692217 -14.644312 1.3571594 1 3203371557504 1 1
9.562096 -14.255863 -0.6993511 1 3203371557504 1 1
7.771353 -16.334536 -0.6316809 32 3203371559808 1 1
0 0 0 9 3203371559808 1 0
15.086939 -28.095798 5.814421 26 3203371562112 1 0
8.665276 -14.401506 -0.3910999 100 3203371562112 1 1
0 0 0 4 3203371582296 1 0
9.517104 -14.232595 -0.298855 90 3203371582296 1 1
7.786054 -14.544032 -0.48011017 96 3203371584600 1 1
3.1053216 -5.1758785 -1.6896983 2 3203371584600 1 0
3.9957268 -7.4663343 -1.693669 4 3203371586904 1 0
8.643175 -14.410758 0 100 3203371586904 1 1
7.881413 -16.638483 -0.21433562 11 3203371589208 1 1
5.477546 -9.13557 -1.6571819 13 3203371589208 1 0
5.2303095 -9.779746 -1.4116788 3 3203371591512 1 0
9.508303 -14.236456 0.09949996 76 3203371591512 1 1
7.786834 -14.56483 -0.09598957 76 3203371593816 1 1
5.9771295 -9.975035 -1.2526071 7 3203371593816 1 0
7.803485 -16.491634 -1.7031071 2 3203371596120 1 0
8.632872 -14.411632 0.3909138 75 3203371596120 1 1
7.879057 -16.657299 0.21452188 10 3203371598424 1 1
8.6470375 -14.439805 -1.1769313 3 3203371598424 1 1
9.593897 -17.962742 -1.6624389 3 3203371600728 1 0
9.492135 -14.229269 0.49779722 71 3203371600728 1 1
7.7796135 -14.570686 0.28831375 81 3203371603032 1 1
9.700655 -14.5462055 -1.1205361 12 3203371603032 1 1
11.752375 -24.872639 -1.6020789 7 3203371605336 1 0
8.626998 -14.419899 0.978596 65 3203371605336 1 1
7.774088 -14.570026 0.67280996 69 3203371607640 1 1
8.630261 -14.429878 -0.7832119 3 3203371607640 1 1
8.072411 -15.134171 -0.8989224 4 3203371609944 1 1
20.654825 -34.5459 4.9420457 7 3203371609944 1 0
7.769481 -14.571086 1.3480465 1 3203371612248 1 1
9.513905 -14.283268 -0.69918823 1 3203371612248 1 1
7.904742 -16.753504 -0.6468971 17 3203371614552 1 1
0 0 0 9 3203371614552 1 0
14.9727 -28.09889 5.805094 26 3203371616856 1 0
8.606741 -14.408624 -0.39054158 79 3203371616856 1 1
0 0 0 4 3203371637592 1 0
9.4543705 -14.240754 -0.29836634 91 3203371637592 1 1
7.733819 -14.562821 -0.47987744 32 3203371639896 1 1
3.084124 -5.1795735 -1.6875417 2 3203371639896 1 0
3.972567 -7.4831233 -1.6944534 4 3203371642200 1 0
8.580598 -14.41553 0 100 3203371642200 1 1
7.9495735 -16.929161 -0.21773481 72 3203371644504 1 1
5.4589486 -9.174301 -1.6608714 17 3203371644504 1 0
5.1898417 -9.783318 -1.4096584 3 3203371646808 1 0
9.44916 -14.25179 0.09938373 76 3203371646808 1 1
7.7280617 -14.573465 -0.095873326 99 3203371649112 1 1
5.955487 -10.015743 -1.2551774 11 3203371649112 1 0
7.7557683 -16.536127 -1.704966 2 3203371651416 1 0
8.573557 -14.423741 0.39044854 76 3203371651416 1 1
7.942626 -16.941257 0.21782795 48 3203371653720 1 1
8.573173 -14.428111 -1.1735829 3 3203371653720 1 1
9.535915 -18.002613 -1.6630899 3 3203371656024 1 0
9.4322 -14.245098 0.49721542 73 3203371656024 1 1
7.71437 -14.56914 0.28775528 37 3203371658328 1 1
9.657066 -14.589543 -1.1213036 25 3203371658328 1 1
11.666205 -24.913172 -1.6020789 7 3203371660632 1 0
8.562763 -14.425638 0.9769681 65 3203371660632 1 1
7.715917 -14.582831 0.6721586 16 3203371662936 1 1
8.569855 -14.44261 -0.7822813 3 3203371662936 1 1
8.083032 -15.282311 -0.9060401 4 3203371665240 1 1
0 0 0 22 3203371665240 1 0
7.7164955 -14.594706 1.3477211 1 3203371667544 1 1
9.395457 -14.213172 -0.69414055 1 3203371667544 1 1
7.9185276 -16.93694 -0.6528998 60 3203371669848 1 1
14.860429 -28.127277 5.8000717 26 3203371672152 1 0
8.543531 -14.41831 -0.3899833 100 3203371672152 1 1
0 0 0 4 3203371692888 1 0
9.386713 -14.25193 -0.29787767 93 3203371692888 1 1
7.672942 -14.576918 -0.479412 26 3203371695192 1 1
0 0 0 9 3203371669848 1 0
3.0631607 -5.1875257 -1.6864635 2 3203371695192 1 0
3.94694 -7.5011044 -1.6952379 4 3203371697496 1 0
8.515505 -14.426215 0 97 3203371697496 1 1
7.882411 -16.947304 -0.21759513 17 3203371699800 1 1
5.4192605 -9.184035 -1.6590266 19 3203371699800 1 0
5.155796 -9.805785 -1.4101635 11 3203371702104 1 0
9.377077 -14.25625 0.09917449 75 3203371702104 1 1
7.6690125 -14.59107 -0.09580359 114 3203371704408 1 1
5.908637 -10.020374 -1.2530354 10 3203371704408 1 0
8.510481 -14.437843 0.3899833 73 3203371706712 1 1
7.6984644 -16.571667 -1.7057096 2 3203371706712 1 0
0 0 0 100 3203371709016 1 0
8.514156 -14.449122 -1.1727458 3 3203371709016 1 1
9.479135 -18.055092 -1.6647171 3 3203371711320 1 0
9.362366 -14.252839 0.4962845 73 3203371711320 1 1
7.649768 -14.576069 0.2873364 36 3203371713624 1 1
9.544369 -14.534749 -1.1143962 12 3203371713624 1 1
11.588258 -24.984743 -1.6039393 7 3203371715928 1 0
8.495653 -14.432837 0.9753402 70 3203371715928 1 1
7.649423 -14.586237 0.67101884 16 3203371718232 1 1
8.51281 -14.467035 -0.781909 3 3203371718232 1 1
7.6968355 -14.6820965 -0.86877686 4 3203371720536 1 1
0 0 0 34 3203371722840 1 0
18.601496 -31.62323 4.5047784 54 3203371720536 1 0
9.330151 -14.22746 -0.6931636 1 3203371722840 1 1
12.420398 -26.821783 -1.0321875 49 3203371725144 1 0
0 0 0 9 3203371725144 1 0
14.742634 -28.153666 5.7943316 21 3203371727448 1 0
8.480499 -14.432288 -0.38951802 100 3203371727448 1 1
0 0 0 4 3203371748184 1 0
9.321289 -14.2661495 -0.29745883 88 3203371748184 1 1
7.6140213 -14.594253 -0.4790629 46 3203371750488 1 1
3.91953 -7.5154634 -1.6952379 4 3203371752792 1 0
3.0422182 -5.195372 -1.6853851 2 3203371750488 1 0
12.580259 -27.307493 -0.35002407 36 3203371755096 1 0
8.448638 -14.433042 0 100 3203371752792 1 1
5.3817716 -9.196897 -1.6577969 32 3203371755096 1 0
5.123775 -9.831505 -1.4111737 54 3203371757400 1 0
9.314249 -14.273503 0.099058256 75 3203371757400 1 1
0 0 0 14 3203371759704 1 0
5.8842816 -10.062348 -1.2556058 14 3203371759704 1 0
7.6383986 -16.599438 -1.7057096 2 3203371762008 1 0
8.441992 -14.440951 0.38923886 76 3203371762008 1 1
14.7974415 -32.16948 0.41223404 27 3203371764312 1 0
8.451811 -14.462576 -1.1713507 3 3203371764312 1 1
9.458119 -18.174042 -1.6725281 4 3203371766616 1 0
7.617552 -14.642539 0.28810433 12 3203371768920 1 1
9.383033 -14.401783 -1.1016047 5 3203371768920 1 1
11.5034275 -25.037098 -1.604637 7 3203371771224 1 0
9.302162 -14.273117 0.49581906 71 3203371766616 1 1
8.433682 -14.44602 0.9741774 65 3203371771224 1 1
7.63948 -14.695128 0.67476386 9 3203371773528 1 1
8.44679 -14.473306 -0.78060615 1 3203371773528 1 1
7.9279213 -15.255389 -0.9010158 7 3203371775832 1 1
18.468224 -31.655289 4.4999037 54 3203371775832 1 0
7.616203 -14.660772 1.3486975 3 3203371778136 1 1
9.270571 -14.247284 -0.6925123 1 3203371778136 1 1
12.298074 -26.807737 -1.029954 37 3203371780440 1 0
0 0 0 9 3203371780440 1 0
14.626105 -28.17448 5.787874 21 3203371782744 1 0
8.419055 -14.44508 -0.38905275 100 3203371782744 1 1
9.258379 -14.278466 -0.29703996 91 3203371803480 1 1
7.5593576 -14.613639 -0.4788302 30 3203371805784 1 1
3.0240645 -5.20596 -1.6853851 2 3203371805784 1 0
0 0 0 4 3203371803480 1 0
3.8932722 -7.5290995 -1.6952379 5 3203371808088 1 0
8.382136 -14.4347725 0 100 3203371808088 1 1
14.692176 -32.18692 -0.4119081 58 3203371810392 1 0
5.345667 -9.20879 -1.656567 28 3203371810392 1 0
5.067567 -9.807029 -1.4051127 51 3203371812696 1 0
9.251323 -14.285785 0.09891877 63 3203371812696 1 1
7.5484166 -14.613315 -0.095594354 30 3203371815000 1 1
5.847126 -10.079387 -1.2551774 9 3203371815000 1 0
7.585366 -16.636871 -1.7068249 2 3203371817304 1 0
8.379496 -14.449575 0.38868055 73 3203371817304 1 1
14.670131 -32.188183 0.41181496 37 3203371819608 1 0
8.385265 -14.464373 -1.1691185 3 3203371819608 1 1
9.354404 -18.129002 -1.6653681 3 3203371821912 1 0
9.237083 -14.282 0.49500453 69 3203371821912 1 1
9.311029 -14.400927 -1.0990463 5 3203371824216 1 1
7.5572267 -14.651268 0.28775528 22 3203371824216 1 1
11.414308 -25.073465 -1.6044044 10 3203371826520 1 0
7.668707 -14.878017 0.68192834 20 3203371828824 1 1
8.377202 -14.465005 0.97347975 70 3203371826520 1 1
8.396217 -14.502702 -0.78060615 1 3203371828824 1 1
0 0 0 25 3203371831128 1 0
18.33176 -31.674892 4.4935665 54 3203371831128 1 0
7.6635594 -14.878656 1.3662722 1 3203371833432 1 1
9.229454 -14.292987 -0.6931636 1 3203371833432 1 1
0 0 0 9 3203371835736 1 0
12.280514 -27.017908 -1.0363754 41 3203371835736 1 0
14.516864 -28.20437 5.78357 26 3203371838040 1 0
8.360574 -14.460532 -0.38868055 100 3203371838040 1 1
9.19766 -14.29388 -0.2966909 91 3203371858776 1 1
0 0 0 4 3203371858776 1 0
7.515599 -14.654167 -0.47929564 32 3203371861080 1 1
3.007797 -5.2198215 -1.6864635 2 3203371861080 1 0
8.321716 -14.446613 0 100 3203371863384 1 1
3.8615985 -7.5321727 -1.6928844 5 3203371863384 1 0
14.566547 -32.208855 -0.41153556 65 3203371865688 1 0
5.3194065 -9.237669 -1.6584117 21 3203371865688 1 0
5.0296845 -9.817595 -1.4041027 54 3203371867992 1 0
9.188425 -14.297801 0.09877928 68 3203371867992 1 1
7.5648227 -14.771302 -0.096454516 18 3203371870296 1 1
5.809923 -10.096289 -1.2547491 6 3203371870296 1 0
7.530525 -16.670506 -1.7075684 2 3203371872600 1 0
8.323025 -14.468339 0.3884014 76 3203371872600 1 1
14.546161 -32.213676 0.411489 41 3203371874904 1 0
8.326768 -14.479718 -1.1680024 3 3203371874904 1 1
9.332827 -18.243177 -1.6728536 4 3203371877208 1 0
9.172055 -14.290603 0.49418998 70 3203371877208 1 1
7.5989075 -14.8591585 0.29131556 13 3203371879512 1 1
9.265016 -14.44006 -1.099558 2 3203371879512 1 1
11.37761 -25.226 -1.6116136 7 3203371881816 1 0
8.316712 -14.476846 0.972317 70 3203371881816 1 1
8.343552 -14.528458 -0.78042 1 3203371884120 1 1
7.704024 -15.075523 0.6897442 16 3203371884120 1 1
7.828495 -15.324593 -0.9018532 4 3203371886424 1 1
18.201317 -31.704258 4.488692 54 3203371886424 1 0
7.7548146 -15.185812 1.3919834 1 3203371888728 1 1
9.1557865 -14.288101 -0.69137245 1 3203371888728 1 1
12.333859 -27.388662 -1.0489392 38 3203371891032 1 0
0 0 0 9 3203371891032 1 0
8.300099 -14.472283 -0.38821527 100 3203371893336 1 1
14.405804 -28.230335 5.7785473 26 3203371893336 1 0
0 0 0 4 3203371914072 1 0
9.1391 -14.312416 -0.29641166 91 3203371914072 1 1
2.9877226 -5.226901 -1.6853851 2 3203371916376 1 0
3.8408344 -7.555984 -1.6952379 4 3203371918680 1 0
8.261736 -14.457968 0 100 3203371918680 1 1
14.442352 -32.22967 -0.41116306 65 3203371920984 1 0
5.289493 -9.259382 -1.6590266 21 3203371920984 1 0
7.5987196 -14.943941 -0.48790643 26 3203371916376 1 1
4.990565 -9.824188 -1.4025874 53 3203371923288 1 0
9.119936 -14.298904 0.098570056 70 3203371923288 1 1
5.7694654 -10.105726 -1.2534639 7 3203371925592 1 0
7.619335 -15.003924 -0.097802885 31 3203371925592 1 1
8.265806 -14.482689 0.3880292 76 3203371927896 1 1
7.478627 -16.706944 -1.7086837 2 3203371927896 1 0
8.269741 -14.49399 -1.1668863 3 3203371930200 1 1
14.425474 -32.237232 0.41116306 27 3203371930200 1 0
9.276628 -18.28523 -1.6738299 4 3203371932504 1 0
9.106596 -14.294493 0.4932591 73 3203371932504 1 1
7.6285377 -15.041549 0.2943872 13 3203371934808 1 1
9.267913 -14.551912 -1.105698 3 3203371934808 1 1
11.29642 -25.27121 -1.6120788 7 3203371937112 1 0
8.25835 -14.48724 0.9711542 70 3203371937112 1 1
7.742305 -15.275782 0.6977228 16 3203371939416 1 1
8.24368 -14.465906 -0.77558076 1 3203371939416 1 1
7.662089 -15.122421 -0.8884552 4 3203371941720 1 1
18.072498 -31.723045 4.482842 54 3203371941720 1 0
7.782096 -15.364264 1.4059781 3 3203371944024 1 1
9.108563 -14.318252 -0.69137245 1 3203371944024 1 1
12.2291 -27.396202 -1.0476829 42 3203371946328 1 0
0 0 0 9 3203371946328 1 0
14.295571 -28.242218 5.7713723 26 3203371948632 1 0
8.242804 -14.481991 -0.38775003 100 3203371948632 1 1
0 0 0 4 3203371969368 1 0
9.076957 -14.314036 -0.2958532 91 3203371969368 1 1
7.6001434 -15.064232 -0.49104822 42 3203371971672 1 1
2.9750128 -5.243005 -1.6875417 2 3203371971672 1 0
3.82039 -7.5751286 -1.6968068 5 3203371973976 1 0
8.2119055 -14.477132 0 100 3203371973976 1 1
14.3315 -32.257236 -0.41093025 65 3203371976280 1 0
5.259973 -9.276183 -1.6590266 18 3203371976280 1 0
4.953747 -9.829476 -1.4010723 48 3203371978584 1 0
9.063436 -14.311116 0.09845382 65 3203371978584 1 1
7.6466537 -15.178371 -0.09877928 18 3203371980888 1 1
5.7271495 -10.106919 -1.2513219 2 3203371980888 1 0
7.4634147 -16.818373 -1.7176064 2 3203371983192 1 0
8.207174 -14.488426 0.38747087 78 3203371983192 1 1
14.306244 -32.250942 0.41074398 23 3203371985496 1 0
8.214823 -14.506847 -1.1657702 3 3203371985496 1 1
9.222382 -18.32604 -1.6748064 4 3203371987800 1 0
9.051428 -14.31057 0.49279365 71 3203371987800 1 1
7.679923 -15.266508 0.29829654 12 3203371990104 1 1
9.143443 -14.460702 -1.096488 8 3203371990104 1 1
11.219762 -25.32281 -1.613009 7 3203371992408 1 0
8.198889 -14.493454 0.96975887 70 3203371992408 1 1
7.790557 -15.497659 0.7066784 18 3203371994712 1 1
8.186041 -14.475655 -0.77465016 1 3203371994712 1 1
7.5562983 -15.037101 -0.8819655 4 3203371997016 1 1
18.05903 -31.94524 4.5057535 13 3203371997016 1 0
7.757723 -15.443536 1.41086 4 3203371999320 1 1
9.056556 -14.341751 -0.6910468 1 3203371999320 1 1
12.127682 -27.415022 -1.0468453 33 3203372001624 1 0
0 0 0 9 3203372001624 1 0
14.1864805 -28.261953 5.7656326 21 3203372003928 1 0
8.184269 -14.492193 -0.38728476 100 3203372003928 1 1
0 0 0 4 3203372024664 1 0
9.007766 -14.315168 -0.2952249 90 3203372024664 1 1
7.653035 -15.301653 -0.49791357 14 3203372026968 1 1
2.9529147 -5.246644 -1.6853851 2 3203372026968 1 0
3.7939246 -7.588418 -1.6968068 5 3203372029272 1 0
8.1554365 -14.49525 0 100 3203372029272 1 1
13.804736 -31.366224 -0.3989632 28 3203372031576 1 0
5.233374 -9.304822 -1.6608714 17 3203372031576 1 0
0 0 0 30 3203372033880 1 0
9.000655 -14.322347 0.09831433 66 3203372033880 1 1
7.6883435 -15.39463 -0.10001141 18 3203372036184 1 1
7.4436183 -13.243603 -1.6364429 2 3203372036184 1 0
7.406265 -16.84797 -1.7179781 2 3203372038488 1 0
8.146756 -14.499555 0.3870056 76 3203372038488 1 1
14.1855345 -32.282375 0.41051117 23 3203372040792 1 0
8.154364 -14.518039 -1.1643751 3 3203372040792 1 1
9.158356 -18.35812 -1.6748064 4 3203372043096 1 0
8.992918 -14.328531 0.4923282 75 3203372043096 1 1
7.7140427 -15.4685955 0.3017172 16 3203372045400 1 1
9.12049 -14.536489 -1.0998138 5 3203372045400 1 1
11.13451 -25.369133 -1.6134741 7 3203372047704 1 0
8.136523 -14.50109 0.9683635 66 3203372047704 1 1
7.7756295 -15.603456 0.7102606 20 3203372050008 1 1
8.123733 -14.483232 -0.7735334 1 3203372050008 1 1
7.6088476 -15.274337 -0.8943168 7 3203372052312 1 1
18.135757 -32.34399 4.5530386 13 3203372052312 1 0
0 0 0 25 3203372054616 1 0
8.959751 -14.298769 -0.68746454 1 3203372054616 1 1
11.770384 -26.860373 -1.0240909 37 3203372056920 1 0
0 0 0 9 3203372056920 1 0
8.117998 -14.492762 -0.38654032 100 3203372059224 1 1
14.073717 -28.283115 5.759893 21 3203372059224 1 0
0 0 0 4 3203372079960 1 0
8.947151 -14.329562 -0.29487586 90 3203372079960 1 1
7.711465 -15.553953 -0.5052444 21 3203372082264 1 1
2.9345825 -5.25692 -1.6853851 2 3203372082264 1 0
3.7656713 -7.5981007 -1.6960223 4 3203372084568 1 0
8.093094 -14.502672 0 100 3203372084568 1 1
11.98167 -27.483778 -0.34904623 34 3203372086872 1 0
5.202788 -9.326486 -1.6614863 15 3203372086872 1 0
4.883243 -9.860265 -1.4005672 3 3203372089176 1 0
8.944256 -14.343494 0.09824459 70 3203372089176 1 1
7.744588 -15.643625 -0.10145277 32 3203372091480 1 1
7.3954077 -13.266031 -1.6360145 3 3203372091480 1 0
7.3537693 -16.888325 -1.7194653 2 3203372093784 1 0
8.0922 -14.520918 0.38681948 76 3203372093784 1 1
14.061588 -32.306023 0.41018522 23 3203372096088 1 0
8.093927 -14.528985 -1.16298 3 3203372096088 1 1
9.09952 -18.400698 -1.6757827 4 3203372098392 1 0
8.928052 -14.336078 0.49151367 73 3203372098392 1 1
7.7592506 -15.696202 0.30562654 17 3203372100696 1 1
9.16041 -14.713952 -1.1108146 5 3203372100696 1 1
11.05544 -25.429817 -1.6148695 7 3203372103000 1 0
8.076146 -14.511957 0.96720076 68 3203372103000 1 1
7.8521023 -15.895669 0.72231 23 3203372105304 1 1
8.073128 -14.5115 -0.7735334 1 3203372105304 1 1
7.995867 -16.192635 -0.94644344 10 3203372107608 1 1
19.386995 -34.860184 4.897685 7 3203372107608 1 0
19.753391 -40.017757 3.6431756 13 3203372109912 1 0
8.899233 -14.312987 -0.6866504 3 3203372109912 1 1
11.667002 -26.879293 -1.0232532 41 3203372112216 1 0
0 0 0 9 3203372112216 1 0
13.966201 -28.314425 5.7563057 26 3203372114520 1 0
8.055707 -14.500037 -0.38598204 100 3203372114520 1 1
0 0 0 4 3203372135256 1 0
8.882333 -14.336908 -0.2943872 97 3203372135256 1 1
7.7222595 -15.713603 -0.5095498 40 3203372137560 1 1
2.9161763 -5.267153 -1.6853851 2 3203372137560 1 0
3.7407446 -7.6147738 -1.6968068 5 3203372139864 1 0
8.034462 -14.516952 0 100 3203372139864 1 1
13.551442 -31.385017 -0.39798534 38 3203372142168 1 0
5.175737 -9.355078 -1.663331 13 3203372142168 1 0
4.8397646 -9.859581 -1.3980417 3 3203372144472 1 0
8.8789835 -14.351077 0.09808186 70 3203372144472 1 1
7.7545586 -15.803707 -0.10231293 16 3203372146776 1 1
7.3601174 -13.312915 -1.6385849 3 3203372146776 1 0
7.2924585 -16.910553 -1.7190934 2 3203372149080 1 0
8.025354 -14.521427 0.38607508 78 3203372149080 1 1
13.93917 -32.337257 0.40995237 18 3203372151384 1 0
9.032408 -18.429295 -1.6754572 4 3203372153688 1 0
8.040491 -14.554067 -1.1627009 3 3203372151384 1 1
8.86451 -14.347262 0.4908155 74 3203372153688 1 1
7.7843246 -15.888906 0.30883777 13 3203372155992 1 1
9.187739 -14.875491 -1.1205361 5 3203372155992 1 1
10.97107 -25.483723 -1.6157997 7 3203372158296 1 0
8.010877 -14.51617 0.96557283 66 3203372158296 1 1
7.862071 -16.06001 0.7284975 21 3203372160600 1 1
8.019331 -14.536736 -0.77334726 1 3203372160600 1 1
7.9378796 -16.22114 -0.94644344 5 3203372162904 1 1
19.29857 -34.99538 4.906947 7 3203372162904 1 0
19.690376 -40.25306 3.6581466 26 3203372165208 1 0
8.835272 -14.32439 -0.6856734 3 3203372165208 1 1
11.556157 -26.88798 -1.0219969 45 3203372167512 1 0
0 0 0 9 3203372167512 1 0
13.848634 -28.332697 5.7498484 26 3203372169816 1 0
7.993811 -14.511428 -0.38551676 100 3203372169816 1 1
0 0 0 4 3203372190552 1 0
8.823444 -14.359144 -0.29417777 90 3203372190552 1 1
7.760882 -15.939517 -0.5159497 13 3203372192856 1 1
2.8968515 -5.2778053 -1.6853851 2 3203372192856 1 0
3.71281 -7.628433 -1.6968068 4 3203372195160 1 0
7.9677315 -14.521754 0 100 3203372195160 1 1
13.852913 -32.409103 -0.4103249 87 3203372197464 1 0
5.1452155 -9.380916 -1.6645608 12 3203372197464 1 0
4.7966537 -9.86298 -1.3960215 3 3203372199768 1 0
7.8032613 -16.051462 -0.103731036 4 3203372202072 1 1
7.3093624 -13.336314 -1.6381564 4 3203372202072 1 0
7.236684 -16.951818 -1.7205806 2 3203372204376 1 0
8.809588 -14.35625 0.097895876 78 3203372199768 1 1
13.812705 -32.369736 0.40971956 27 3203372206680 1 0
7.9624696 -14.533209 0.3856098 75 3203372204376 1 1
7.96026 -14.534442 -1.1587945 3 3203372206680 1 1
8.968283 -18.46945 -1.6761081 4 3203372208984 1 0
8.79933 -14.359201 0.4901173 71 3203372208984 1 1
7.8273273 -16.12601 0.31288674 11 3203372211288 1 1
8.870421 -14.480175 -1.0883015 40 3203372211288 1 1
10.885422 -25.54213 -1.6169624 11 3203372213592 1 0
7.9499526 -14.531421 0.96464264 72 3203372213592 1 1
7.9287314 -16.347635 0.7402212 17 3203372215896 1 1
7.960245 -14.555513 -0.7727889 1 3203372215896 1 1
7.8888288 -16.27169 -0.9476995 5 3203372218200 1 1
19.15875 -35.04498 4.904022 7 3203372218200 1 0
19.584438 -40.41106 3.6659577 26 3203372220504 1 0
8.776454 -14.346449 -0.68518496 3 3203372220504 1 1
11.45127 -26.91544 -1.0214385 41 3203372222808 1 0
0 0 0 9 3203372222808 1 0
13.737836 -28.369099 5.7469783 31 3203372225112 1 0
7.9329042 -14.52659 -0.38514456 100 3203372225112 1 1
8.763284 -14.367839 -0.2937589 93 3203372246296 1 1
0 0 0 4 3203372246296 1 0
7.8332634 -16.224354 -0.5243278 22 3203372248600 1 1
2.8830566 -5.2941275 -1.6875417 2 3203372248600 1 0
3.6927185 -7.651247 -1.6991602 5 3203372250904 1 0
7.9120936 -14.533929 0 100 3203372250904 1 1
13.735152 -32.428783 -0.40999895 79 3203372253208 1 0
5.114284 -9.397815 -1.6645608 13 3203372253208 1 0
4.7590365 -9.867971 -1.3945062 5 3203372255512 1 0
8.751947 -14.368049 0.09777964 77 3203372255512 1 1
7.265583 -13.360215 -1.6381564 4 3203372257816 1 0
7.179619 -16.971743 -1.7202088 2 3203372260120 1 0
7.8495846 -16.282345 -0.10505615 22 3203372257816 1 1
7.905318 -14.541621 0.38514456 80 3203372260120 1 1
7.9451494 -14.619958 -1.163538 3 3203372262424 1 1
13.708495 -32.418346 0.40976614 64 3203372262424 1 0
8.740034 -14.367298 0.48941913 70 3203372264728 1 1
7.8650694 -16.338758 0.31651685 16 3203372267032 1 1
8.914982 -18.512938 -1.67741 4 3203372264728 1 0
8.777674 -14.433899 -1.0826732 8 3203372267032 1 1
10.849131 -25.687658 -1.6239392 11 3203372269336 1 0
7.8913484 -14.536073 0.9632473 70 3203372269336 1 1
7.9676075 -16.564096 0.7488511 18 3203372271640 1 1
7.9092884 -14.574173 -0.77241665 1 3203372271640 1 1
7.8068213 -16.235878 -0.9441407 5 3203372273944 1 1
19.049282 -35.113636 4.9049973 7 3203372273944 1 0
19.395426 -40.351772 3.6548922 39 3203372276248 1 0
0 0 0 10 3203372276248 1 0
11.3646965 -26.952108 -1.0214385 41 3203372278552 1 0
0 0 0 9 3203372278552 1 0
13.62634 -28.370443 5.7383685 26 3203372280856 1 0
7.8786545 -14.537893 -0.38477233 100 3203372280856 1 1
0 0 0 4 3203372301592 1 0
8.704795 -14.384654 -0.29347968 93 3203372301592 1 1
7.8196087 -16.341822 -0.5272368 36 3203372303896 1 1
2.8608599 -5.2974014 -1.6853851 2 3203372303896 1 0
3.6658766 -7.6641436 -1.6991602 5 3203372306200 1 0
7.8535 -14.547493 0 100 3203372306200 1 1
5.084997 -9.422677 -1.6657907 12 3203372308504 1 0
13.864038 -33.055912 -0.41730955 56 3203372308504 1 0
0 0 0 50 3203372310808 1 0
8.688909 -14.378224 0.09764015 76 3203372310808 1 1
7.881771 -16.497608 -0.10626503 19 3203372313112 1 1
7.1211295 -17.000685 -1.7205806 2 3203372315416 1 0
7.218416 -13.385758 -1.6381564 4 3203372313112 1 0
7.8405914 -14.54483 0.38449317 78 3203372315416 1 1
13.83612 -33.04593 0.41707674 37 3203372317720 1 0
0 0 0 21 3203372317720 1 0
8.854377 -18.555252 -1.6783863 4 3203372320024 1 0
8.676597 -14.377685 0.48872098 70 3203372320024 1 1
7.8981757 -16.55794 0.32021675 13 3203372322328 1 1
8.800521 -14.588071 -1.0918831 3 3203372322328 1 1
10.759068 -25.72984 -1.6241717 11 3203372324632 1 0
7.8338227 -14.553552 0.9625496 70 3203372324632 1 1
7.9909525 -16.765615 0.75666696 9 3203372326936 1 1
7.8439455 -14.577691 -0.77111375 1 3203372326936 1 1
7.812251 -16.397133 -0.95188636 7 3203372329240 1 1
19.219778 -40.356262 3.6490338 26 3203372331544 1 0
18.906599 -35.1501 4.90061 7 3203372329240 1 0
8.647662 -14.354504 -0.68274254 3 3203372331544 1 1
11.343256 -27.173525 -1.0282788 41 3203372333848 1 0
0 0 0 9 3203372333848 1 0
13.512289 -28.394438 5.7333465 21 3203372336152 1 0
7.8168073 -14.548548 -0.3843071 100 3203372336152 1 1
0 0 0 4 3203372356888 1 0
8.639666 -14.395886 -0.2930608 91 3203372356888 1 1
7.8796616 -16.623222 -0.5353822 11 3203372359192 1 1
3.6361938 -7.673931 -1.6983757 5 3203372361496 1 0
2.8450992 -5.3146224 -1.6875417 2 3203372359192 1 0
7.783354 -14.544326 0 100 3203372361496 1 1
13.80792 -33.261356 -0.41926524 22 3203372363800 1 0
5.054362 -9.448112 -1.6670204 12 3203372363800 1 0
8.622176 -14.385707 0.09747741 76 3203372366104 1 1
4.6883016 -9.901773 -1.3945062 62 3203372366104 1 0
7.177294 -13.425894 -1.63987 4 3203372368408 1 0
7.9142566 -16.721333 -0.1075204 17 3203372368408 1 1
7.067141 -17.044758 -1.7224395 2 3203372370712 1 0
7.782211 -14.562549 0.384214 78 3203372370712 1 1
13.719655 -33.10311 0.41716987 18 3203372373016 1 0
7.971941 -14.922805 -1.1830698 2 3203372373016 1 1
8.787391 -18.58707 -1.6783863 6 3203372375320 1 0
8.614412 -14.391734 0.48813915 71 3203372375320 1 1
7.941052 -16.80322 0.32440534 6 3203372377624 1 1
9.602659 -16.048052 -1.1985643 3 3203372377624 1 1
10.66962 -25.775703 -1.6246368 11 3203372379928 1 0
24.603037 -52.09911 2.3473446 49 3203372382232 1 0
7.773969 -14.567508 0.96161944 70 3203372379928 1 1
7.7935123 -14.609245 -0.7712999 1 3203372382232 1 1
12.563896 -26.615187 -1.5424453 9 3203372384536 1 0
18.771374 -35.200005 4.898173 7 3203372384536 1 0
19.055141 -40.381367 3.6451285 26 3203372386840 1 0
8.594302 -14.38186 -0.6825797 3 3203372386840 1 1
11.379186 -27.535196 -1.0404238 41 3203372389144 1 0
0 0 0 9 3203372389144 1 0
13.404516 -28.428072 5.7304764 26 3203372391448 1 0
7.757501 -14.562136 -0.38393486 100 3203372391448 1 1
0 0 0 4 3203372412184 1 0
8.5770855 -14.405339 -0.29264194 96 3203372412184 1 1
7.947509 -16.918367 -0.543993 59 3203372414488 1 1
2.8283753 -5.3279033 -1.6886201 2 3203372414488 1 0
3.614498 -7.6971755 -1.7007291 6 3203372416792 1 0
7.7402496 -14.585427 0 109 3203372416792 1 1
16.621344 -40.434025 -0.50894815 61 3203372419096 1 0
5.017853 -9.458604 -1.6657907 13 3203372419096 1 0
4.640513 -9.889206 -1.3904657 59 3203372421400 1 0
7.936288 -16.918774 -0.108613044 29 3203372423704 1 1
8.566195 -14.405152 0.09740768 77 3203372421400 1 1
7.140188 -13.468175 -1.642012 5 3203372423704 1 0
7.0128837 -17.080069 -1.7235548 2 3203372426008 1 0
7.724477 -14.575154 0.3838418 45 3203372426008 1 1
16.5914 -40.4247 0.50871533 19 3203372428312 1 0
7.9224315 -14.953664 -1.1833488 3 3203372428312 1 1
0 0 0 28 3203372430616 1 0
8.550671 -14.397154 0.48732463 74 3203372430616 1 1
15.049299 -32.12864 0.6192812 29 3203372432920 1 0
0 0 0 45 3203372432920 1 0
7.720397 -14.586935 0.9611543 16 3203372435224 1 1
22.022669 -47.049877 2.116453 43 3203372437528 1 0
10.579943 -25.808327 -1.6244042 11 3203372435224 1 0
0 0 0 16 3203372437528 1 0
0 0 0 15 3203372439832 1 0
18.636616 -35.23561 4.894273 7 3203372439832 1 0
18.902689 -40.413345 3.6421993 26 3203372442136 1 0
8.551525 -14.421277 -0.68306816 12 3203372442136 1 1
0 0 0 9 3203372444440 1 0
11.278236 -27.555101 -1.0397258 37 3203372444440 1 0
13.298311 -28.451849 5.7261715 26 3203372446744 1 0
7.698873 -14.570606 -0.3834696 34 3203372446744 1 1
0 0 0 4 3203372467480 1 0
8.519095 -14.416487 -0.2922929 90 3203372467480 1 1
12.430178 -26.691053 -0.8568908 52 3203372469784 1 0
2.8070633 -5.330457 -1.6864635 2 3203372469784 1 0
3.5888412 -7.7091713 -1.7007291 5 3203372472088 1 0
7.6748576 -14.57927 0 132 3203372472088 1 1
16.478743 -40.470757 -0.50871533 61 3203372474392 1 0
4.989934 -9.482296 -1.6670204 13 3203372474392 1 0
4.602385 -9.893881 -1.3889505 59 3203372476696 1 0
8.503728 -14.409615 0.09724494 76 3203372476696 1 1
12.689541 -27.289452 -0.17491536 20 3203372479000 1 0
7.0949965 -13.492037 -1.642012 4 3203372479000 1 0
6.9629607 -17.12198 -1.7254137 2 3203372481304 1 0
7.668021 -14.586865 0.3834696 22 3203372481304 1 1
16.447664 -40.46181 0.5084825 26 3203372483608 1 0
7.9685583 -15.163931 -1.1978582 3 3203372483608 1 1
8.669067 -18.664532 -1.6800137 20 3203372485912 1 0
8.493921 -14.412147 0.48685917 73 3203372485912 1 1
14.925409 -32.146698 0.6186529 17 3203372488216 1 0
8.948128 -15.187876 -1.129746 2 3203372488216 1 1
10.493924 -25.847733 -1.6246368 11 3203372490520 1 0
7.6634955 -14.598872 0.9602241 4 3203372490520 1 1
7.6530447 -14.584116 -0.7672052 21 3203372492824 1 1
