# .PCD v.7 - Point Cloud Data file format
VERSION .7
FIELDS x y z rgb timestamp_ns device_id active
SIZE 4 4 4 4 8 1 1
TYPE F F F F F U U
COUNT 1 1 1 1 1 1 1
WIDTH 1012
HEIGHT 1
VIEWPOINT 0 0 0 1 0 0 0
POINTS 1012               
DATA ascii
10.493503 20.480755 0.40168458 67 3202536910328 1 0
7.678832 19.465202 -1.3410617 24 3202536910328 1 0
9.232123 20.411257 1.3046396 26 3202536912632 1 0
11.367179 19.738224 -1.3264999 7 3202536912632 1 0
0 0 0 72 3202536914936 1 0
9.311698 20.57882 -1.0521618 27 3202536914936 1 0
10.047077 19.587322 -1.1536938 3 3202536917240 1 0
22.721903 50.194912 6.765211 42 3202536917240 1 0
26.877207 52.378872 4.8060365 27 3202536919544 1 0
7.892541 19.97119 -0.87488085 38 3202536919544 1 0
11.425522 19.811539 -0.7986401 21 3202536921848 1 0
8.466392 18.687893 5.4973164 4 3202536921848 1 0
26.593594 51.787216 10.614332 54 3202536924152 1 0
8.96703 19.784916 -0.5054615 4 3202536924152 1 0
0 0 0 4 3202536944888 1 0
7.94916 20.016022 -0.37592483 78 3202536944888 1 0
0 0 0 28 3202536947192 1 0
2.7888057 6.128449 -1.8848709 4 3202536947192 1 0
4.4830937 8.694521 -1.9564661 2 3202536949496 1 0
22.482077 38.80703 -0.52212584 10 3202536951800 1 0
5.500787 12.078753 -2.064867 8 3202536951800 1 0
7.490898 14.517494 -2.079385 3 3202536954104 1 0
8.652355 21.749775 0.13604528 32 3202536954104 1 0
9.309001 20.448803 0 31 3202536949496 1 0
10.657601 20.647251 -0.13504563 100 3202536956408 1 0
7.575409 16.621437 -1.967587 5 3202536956408 1 0
10.675104 18.408115 -1.9864006 8 3202536958712 1 0
9.986934 21.904194 0.56017643 15 3202536958712 1 0
29.888454 51.522285 0.693436 21 3202536961016 1 0
8.955075 19.633469 -1.508972 6 3202536961016 1 0
10.115317 19.575708 -1.7988057 4 3202536963320 1 0
8.969345 22.50847 0.70515454 19 3202536963320 1 0
10.581852 20.47127 0.40224308 62 3202536965624 1 0
7.918848 19.863857 -1.3704822 75 3202536965624 1 0
11.522236 19.842297 -1.3362672 13 3202536967928 1 0
9.343541 20.461506 1.3099884 22 3202536967928 1 0
10.281328 19.875711 0.9116803 9 3202536970232 1 0
8.991937 19.683949 -1.0080503 5 3202536970232 1 0
10.117094 19.551249 -1.1536938 6 3202536972536 1 0
22.919504 50.153015 6.770573 42 3202536972536 1 0
0 0 0 8 3202536974840 1 0
7.9741764 19.968863 -0.87602067 29 3202536974840 1 0
11.534225 19.83636 -0.8012924 6 3202536977144 1 0
9.8827715 21.60909 6.3669486 8 3202536977144 1 0
26.833696 51.800636 10.636574 55 3202536979448 1 0
0 0 0 4 3202537000184 1 0
8.026426 20.006712 -0.37627387 76 3202537000184 1 0
10.169065 19.561329 -0.6416208 6 3202537002488 1 0
0 0 0 101 3202536979448 1 0
2.8101363 6.1186976 -1.8848709 4 3202537002488 1 0
4.5096703 8.671925 -1.9548972 2 3202537004792 1 0
9.346628 20.343626 0 47 3202537004792 1 0
5.5393515 12.052417 -2.0636373 7 3202537007096 1 0
20.268776 34.708447 -0.46792498 35 3202537007096 1 0
7.54477 14.498516 -2.0803952 3 3202537009400 1 0
8.685833 21.615772 0.13539433 14 3202537009400 1 0
10.741788 20.635149 -0.13520835 32 3202537011704 1 0
7.626132 16.580717 -1.9658735 5 3202537011704 1 0
10.740504 18.374647 -1.9867724 9 3202537014008 1 0
9.62612 20.92147 0.5358897 22 3202537014008 1 0
30.126068 51.52276 0.694833 21 3202537016312 1 0
9.1326685 19.841782 -1.5273877 4 3202537016312 1 0
9.073423 22.544315 0.70724905 38 3202537018616 1 0
10.672243 20.473917 0.40301096 62 3202537020920 1 0
10.291147 19.749468 -1.8180078 7 3202537018616 1 0
11.412487 19.49952 -1.3158023 7 3202537023224 1 0
8.05244 19.999546 -1.3817387 42 3202537020920 1 0
9.622313 20.882793 1.3390579 33 3202537023224 1 0
10.363845 19.86888 0.9129829 6 3202537025528 1 0
0 0 0 101 3202537025528 1 0
0 0 0 25 3202537027832 1 0
23.124973 50.150433 6.7808104 64 3202537027832 1 0
8.05241 19.967613 -0.8771605 29 3202537030136 1 0
27.3337 52.36707 4.8223095 27 3202537030136 1 0
11.668079 19.910975 -0.8058992 3 3202537032440 1 0
9.531805 20.656324 6.095706 2 3202537032440 1 0
27.045147 51.77936 10.650923 55 3202537034744 1 0
9.474472 20.524624 -0.5260261 20 3202537034744 1 0
8.103237 20.005932 -0.37676254 76 3202537055480 1 0
10.248867 19.555756 -0.6425517 24 3202537057784 1 0
0 0 0 4 3202537055480 1 0
2.8288364 6.1058292 -1.8837926 5 3202537057784 1 0
9.427791 20.341415 0 45 3202537060088 1 0
4.534886 8.649908 -1.9533283 2 3202537060088 1 0
20.362204 34.602676 -0.46741277 30 3202537062392 1 0
5.5745635 12.023103 -2.0617926 7 3202537062392 1 0
7.6300974 14.543471 -2.0904968 4 3202537064696 1 0
9.036295 22.272295 0.13969515 21 3202537064696 1 0
0 0 0 38 3202537067000 1 0
7.6783276 16.547842 -1.9650166 5 3202537067000 1 0
10.800157 18.335028 -1.9864006 9 3202537069304 1 0
9.8361025 21.19007 0.5436131 7 3202537069304 1 0
11.22876 19.056313 0.25750077 16 3202537071608 1 0
10.357729 19.71463 -1.8180078 7 3202537073912 1 0
0 0 0 3 3202537073912 1 0
9.147327 19.698727 -1.5187379 10 3202537071608 1 0
8.130548 19.998087 -1.3835295 65 3202537076216 1 0
10.211137 19.428747 0.38311523 24 3202537076216 1 0
11.423727 19.367865 -1.3095233 13 3202537078520 1 0
9.655991 20.770401 1.3339417 20 3202537078520 1 0
10.446145 19.861866 0.91428554 6 3202537080824 1 0
9.5267315 20.484566 -1.0523479 8 3202537080824 1 0
10.370834 19.711714 -1.1673012 9 3202537083128 1 0
23.332365 50.15063 6.791535 43 3202537083128 1 0
27.322754 51.91369 4.789113 27 3202537085432 1 0
8.140062 19.988153 -0.8792772 42 3202537085432 1 0
0 0 0 12 3202537087736 1 0
9.362618 20.108736 5.9435205 5 3202537087736 1 0
27.27919 51.794357 10.673164 56 3202537090040 1 0
0 0 0 4 3202537110776 1 0
9.554848 20.513802 -0.52658445 42 3202537090040 1 0
8.182108 19.999735 -0.3771814 78 3202537110776 1 0
10.320662 19.527006 -0.6427844 6 3202537113080 1 0
2.8484569 6.092449 -1.8827143 4 3202537113080 1 0
4.56126 8.627157 -1.9517592 2 3202537115384 1 0
9.511999 20.337507 0 33 3202537115384 1 0
11.238839 18.948133 -0.25647634 54 3202537117688 1 0
5.607861 11.985793 -2.058718 7 3202537117688 1 0
0 0 0 53 3202537119992 1 0
0 0 0 1 3202537119992 1 0
10.197195 19.26762 -0.12669972 29 3202537122296 1 0
10.857194 18.287416 -1.9852853 8 3202537124600 1 0
7.73207 16.514017 -1.9641598 6 3202537122296 1 0
9.912478 21.16328 0.54379916 28 3202537124600 1 0
11.235014 18.917845 0.2561504 42 3202537126904 1 0
9.286138 19.818903 -1.530457 6 3202537126904 1 0
10.290961 19.425312 -1.7945749 18 3202537129208 1 0
0 0 0 50 3202537129208 1 0
10.213951 19.273508 0.3807417 49 3202537131512 1 0
0 0 0 25 3202537133816 1 0
9.765929 20.820429 1.3392905 27 3202537133816 1 0
11.388263 21.475063 0.9903267 6 3202537136120 1 0
9.267265 19.750206 -1.0162398 15 3202537136120 1 0
8.206577 19.988585 -1.3848087 65 3202537131512 1 0
10.441605 19.683361 -1.1677198 9 3202537138424 1 0
23.53159 50.13203 6.799822 43 3202537138424 1 0
27.437233 51.704384 4.778373 27 3202537140728 1 0
11.241079 18.886427 -0.76750976 63 3202537143032 1 0
8.221578 19.99366 -0.8807427 63 3202537140728 1 0
9.764177 20.786804 6.1536818 8 3202537143032 1 0
27.481865 51.753944 10.683927 56 3202537145336 1 0
9.634366 20.50309 -0.52714276 19 3202537145336 1 0
0 0 0 4 3202537166072 1 0
8.257544 19.99467 -0.37760025 80 3202537166072 1 0
10.221934 19.185602 -0.6326609 57 3202537168376 1 0
2.8654027 6.075981 -1.8805578 4 3202537168376 1 0
4.5881243 8.608457 -1.9509748 2 3202537170680 1 0
9.257118 19.621983 0 34 3202537170680 1 0
11.27535 18.86588 -0.255871 78 3202537172984 1 0
5.6360292 11.941987 -2.0544136 7 3202537172984 1 0
7.6934347 14.424677 -2.0809004 6 3202537175288 1 0
8.924702 21.574532 0.13569656 7 3202537175288 1 0
10.216542 19.148628 -0.12614177 68 3202537177592 1 0
10.914484 18.244 -1.9845418 4 3202537179896 1 0
10.09286 21.36126 0.5497545 40 3202537179896 1 0
7.7873898 16.488003 -1.9641598 5 3202537177592 1 0
11.280162 18.84902 0.2557313 64 3202537182200 1 0
9.3016615 19.679298 -1.5220863 12 3202537182200 1 0
10.224976 19.144316 -1.7717928 63 3202537184504 1 0
8.907601 21.497776 0.6772276 36 3202537184504 1 0
10.2809515 19.242386 0.3808115 72 3202537186808 1 0
8.284823 19.986532 -1.3865994 65 3202537186808 1 0
11.300836 18.864882 -1.2806864 100 3202537189112 1 0
9.790314 20.689756 1.3330115 10 3202537189112 1 0
10.616901 19.85727 0.91737926 6 3202537191416 1 0
9.31548 19.678894 -1.0141923 15 3202537191416 1 0
10.25232 19.168669 -1.1392491 51 3202537193720 1 0
24.498995 51.734512 7.0284486 49 3202537193720 1 0
27.96136 52.260822 4.8385825 27 3202537196024 1 0
8.300449 19.99134 -0.88188255 68 3202537196024 1 0
11.311735 18.858181 -0.76792854 84 3202537198328 1 0
10.3960905 21.936918 6.50464 3 3202537198328 1 0
27.72398 51.780933 10.709039 57 3202537200632 1 0
9.701111 20.462744 -0.5269567 18 3202537200632 1 0
0 0 0 4 3202537221368 1 0
8.336525 19.987873 -0.37801912 42 3202537221368 1 0
10.262349 19.100492 -0.6310319 63 3202537223672 1 0
2.8865943 6.065942 -1.8805578 4 3202537223672 1 0
4.6144314 8.585479 -1.9494059 2 3202537225976 1 0
9.268818 19.470366 0 57 3202537225976 1 0
11.35971 18.85724 -0.25629008 89 3202537228280 1 0
5.6708827 11.907968 -2.051954 7 3202537228280 1 0
7.738101 14.387251 -2.079385 7 3202537230584 1 0
8.992247 21.524792 0.13558032 7 3202537230584 1 0
10.283321 19.112848 -0.12614177 91 3202537232888 1 0
7.841474 16.453539 -1.9633031 6 3202537232888 1 0
10.984271 18.216022 -1.9856571 4 3202537235192 1 0
10.163921 21.318678 0.5495684 23 3202537235192 1 0
11.364481 18.840355 0.2561504 64 3202537237496 1 0
9.292999 19.484636 -1.5095301 40 3202537237496 1 0
9.339114 22.318575 0.7041073 27 3202537239800 1 0
10.367027 19.24159 0.3815096 72 3202537242104 1 0
8.362246 19.9759 -1.3878787 70 3202537242104 1 0
10.286068 19.097977 -1.7708164 90 3202537239800 1 0
11.381065 18.849249 -1.2823143 100 3202537244408 1 0
9.826342 20.579782 1.3281277 57 3202537244408 1 0
28.293455 52.477146 2.428922 28 3202537246712 1 0
9.279063 19.426323 -1.0028387 57 3202537246712 1 0
10.292622 19.083544 -1.1363183 75 3202537249016 1 0
0 0 0 8 3202537251320 1 0
24.783846 51.867195 7.058185 50 3202537249016 1 0
8.376363 19.976988 -0.88253385 57 3202537251320 1 0
11.389903 18.839106 -0.7687661 75 3202537253624 1 0
27.936342 51.742706 10.721235 57 3202537255928 1 0
0 0 0 28 3202537253624 1 0
9.291018 19.422289 -0.500995 58 3202537255928 1 0
8.334835 19.789104 -0.3748079 23 3202537276664 1 0
0 0 0 4 3202537276664 1 0
10.342293 19.089163 -0.6318464 78 3202537278968 1 0
2.9060836 6.0523567 -1.8794794 4 3202537278968 1 0
9.345386 19.45592 0 72 3202537281272 1 0
11.448299 18.855082 -0.2568023 87 3202537283576 1 0
5.7107024 11.884537 -2.0513391 7 3202537283576 1 0
4.640634 8.562422 -1.9478369 2 3202537281272 1 0
7.7901664 14.36364 -2.0798903 9 3202537285880 1 0
21.472713 50.899105 0.32107335 25 3202537285880 1 0
10.359512 19.094416 -0.12625802 87 3202537288184 1 0
7.888519 16.404562 -1.9607328 5 3202537288184 1 0
11.027105 18.143534 -1.9819393 4 3202537290488 1 0
10.200137 21.20379 0.5475213 9 3202537290488 1 0
11.453033 18.838165 0.2566626 64 3202537292792 1 0
9.293475 19.311852 -1.498648 71 3202537292792 1 0
10.367891 19.089983 -1.7734201 83 3202537295096 1 0
9.452757 22.370548 0.7067836 27 3202537295096 1 0
10.453223 19.240427 0.3822077 74 3202537297400 1 0
8.438141 19.961298 -1.388902 70 3202537297400 1 0
11.465476 18.840107 -1.2844073 100 3202537299704 1 0
9.872122 20.491394 1.3246394 13 3202537299704 1 0
28.125208 51.731987 2.3989615 26 3202537302008 1 0
9.306918 19.311028 -0.9985579 85 3202537302008 1 0
10.368715 19.065046 -1.137365 81 3202537304312 1 0
24.985435 51.823284 7.0640345 50 3202537304312 1 0
8.453836 19.96603 -0.883348 68 3202537306616 1 0
28.415073 52.228935 4.853879 28 3202537306616 1 0
11.478477 18.836782 -0.7703017 81 3202537308920 1 0
10.282027 21.310513 6.340031 8 3202537308920 1 0
9.30661 19.281698 -0.4982034 94 3202537311224 1 0
0 0 0 4 3202537331960 1 0
8.320902 19.564829 -0.37110797 46 3202537331960 1 0
28.177 51.755474 10.744195 57 3202537311224 1 0
10.424198 19.081017 -0.6327773 81 3202537334264 1 0
2.925513 6.038709 -1.8784012 4 3202537334264 1 0
4.6686134 8.542729 -1.9470525 2 3202537336568 1 0
9.428943 19.455576 0 70 3202537336568 1 0
11.537011 18.852531 -0.2573145 82 3202537338872 1 0
5.748704 11.857417 -2.0501094 7 3202537338872 1 0
7.840257 14.33636 -2.0798903 7 3202537341176 1 0
20.988722 49.2709 0.31126285 12 3202537341176 1 0
10.443379 19.089722 -0.12646724 87 3202537343480 1 0
7.9457335 16.376926 -1.9607328 19 3202537343480 1 0
11.079968 18.087952 -1.9800805 4 3202537345784 1 0
20.79962 42.85416 1.1084421 23 3202537345784 1 0
11.543798 18.838997 0.25722137 64 3202537348088 1 0
9.360829 19.279295 -1.498648 80 3202537348088 1 0
10.451698 19.085146 -1.7763492 85 3202537350392 1 0
9.511958 22.293285 0.7053873 6 3202537350392 1 0
10.537615 19.23539 0.38283598 69 3202537352696 1 0
8.521872 19.964764 -1.3912044 70 3202537352696 1 0
11.552049 18.83401 -1.2867328 97 3202537355000 1 0
9.882489 20.331108 1.3165 9 3202537355000 1 0
0 0 0 16 3202537357304 1 0
9.376017 19.282015 -0.998744 83 3202537357304 1 0
10.45825 19.070765 -1.1398771 81 3202537359608 1 0
25.190495 51.785736 7.0708594 50 3202537359608 1 0
28.395878 51.76242 4.819706 27 3202537361912 1 0
8.536049 19.965797 -0.88465065 61 3202537361912 1 0
11.569263 18.837479 -0.7719769 78 3202537364216 1 0
9.539547 19.596571 5.839993 14 3202537364216 1 0
28.38968 51.715443 10.756392 58 3202537366520 1 0
9.386115 19.274261 -0.4988548 98 3202537366520 1 0
0 0 0 4 3202537387256 1 0
8.397036 19.554039 -0.371457 93 3202537387256 1 0
10.510032 19.079535 -0.63394094 81 3202537389560 1 0
2.9482658 6.031921 -1.8794794 5 3202537389560 1 0
4.6927257 8.516074 -1.944699 2 3202537391864 1 0
9.509097 19.447699 0 70 3202537391864 1 0
11.625845 18.849592 -0.25782672 87 3202537394168 1 0
5.7883224 11.833728 -2.0494943 7 3202537394168 1 0
7.8864207 14.301955 -2.07888 7 3202537396472 1 0
0 0 0 15 3202537396472 1 0
10.531202 19.091677 -0.12672296 90 3202537398776 1 0
8.001102 16.345518 -1.9603044 8 3202537398776 1 0
11.1304865 18.028831 -1.9778497 4 3202537401080 1 0
10.638096 21.724651 0.5628749 7 3202537401080 1 0
11.628403 18.829214 0.25764045 56 3202537403384 1 0
9.4386015 19.268002 -1.5003222 78 3202537403384 1 0
10.533671 19.076468 -1.7789528 85 3202537405688 1 0
9.401467 21.822973 0.6915402 65 3202537405688 1 0
10.616297 19.219494 0.38325486 40 3202537407992 1 0
8.602569 19.960556 -1.3929952 61 3202537407992 1 0
11.640819 18.830933 -1.2892909 100 3202537410296 1 0
10.334936 21.074503 1.3669647 35 3202537410296 1 0
11.308812 20.459143 0.9523875 52 3202537412600 1 0
9.460865 19.285042 -1.0006052 85 3202537412600 1 0
10.542152 19.065605 -1.1417612 78 3202537414904 1 0
25.42533 51.807976 7.085971 50 3202537414904 1 0
28.57253 51.65601 4.819055 27 3202537417208 1 0
8.61361 19.954227 -0.8854648 59 3202537417208 1 0
11.653884 18.827572 -0.77323323 60 3202537419512 1 0
9.737338 19.826723 5.918674 2 3202537419512 1 0
28.6272 51.71932 10.777916 58 3202537421816 1 0
9.470971 19.277271 -0.4997853 98 3202537421816 1 0
0 0 0 4 3202537442552 1 0
8.46365 19.52094 -0.3713872 74 3202537442552 1 0
10.597922 19.08118 -0.6352209 75 3202537444856 1 0
2.9658961 6.0146832 -1.8773228 4 3202537444856 1 0
9.589312 19.439497 0 65 3202537447160 1 0
4.7148037 8.485928 -1.9415612 2 3202537447160 1 0
0 0 0 6 3202537449464 1 0
5.8156023 11.785096 -2.044575 7 3202537449464 1 0
7.938224 14.277807 -2.079385 9 3202537451768 1 0
0 0 0 3 3202537451768 1 0
10.617223 19.089756 -0.12695545 74 3202537454072 1 0
8.061632 16.324621 -1.9611611 5 3202537454072 1 0
11.180727 17.96958 -1.9756191 4 3202537456376 1 0
10.715635 21.690971 0.562968 5 3202537456376 1 0
0 0 0 43 3202537458680 1 0
9.518177 19.25998 -1.5022755 78 3202537458680 1 0
10.615711 19.067448 -1.7815565 78 3202537460984 1 0
9.431339 21.683695 0.68816566 14 3202537460984 1 0
11.541489 20.723194 0.4140409 90 3202537463288 1 0
8.686526 19.963348 -1.3952976 26 3202537463288 1 0
0 0 0 36 3202537465592 1 0
11.399615 20.454454 0.95401585 55 3202537467896 1 0
9.538758 19.273386 -1.001722 87 3202537467896 1 0
10.369481 20.959557 1.3618485 31 3202537465592 1 0
10.626145 19.06009 -1.1436453 78 3202537470200 1 0
25.635965 51.779396 7.0942583 51 3202537470200 1 0
0 0 0 8 3202537472504 1 0
8.692791 19.946022 -0.88644177 27 3202537472504 1 0
0 0 0 10 3202537474808 1 0
9.839079 19.858393 5.938344 5 3202537474808 1 0
28.84783 51.691235 10.792983 58 3202537477112 1 0
9.55241 19.272758 -0.5005297 96 3202537477112 1 0
0 0 0 4 3202537497296 1 0
8.542965 19.516924 -0.37187588 72 3202537497296 1 0
10.740653 19.180124 -0.639759 36 3202537499600 1 0
2.9868731 6.004294 -1.8773228 4 3202537499600 1 0
4.74248 8.465996 -1.9407767 1 3202537501904 1 0
9.66602 19.423813 0 19 3202537501904 1 0
25.019789 39.939137 -0.54866755 17 3202537504208 1 0
5.853182 11.7576475 -2.0433452 7 3202537504208 1 0
7.9802537 14.236166 -2.077365 9 3202537506512 1 0
21.514769 49.074055 0.3114256 36 3202537506512 1 0
8.116794 16.292822 -1.9607328 5 3202537508816 1 0
11.626769 20.734201 -0.13816081 100 3202537508816 1 0
11.239153 17.923695 -1.9748756 4 3202537511120 1 0
21.318586 42.777164 1.1121643 7 3202537511120 1 0
9.599592 19.255205 -1.5045077 82 3202537513424 1 0
32.21608 51.360153 0.70582217 22 3202537513424 1 0
0 0 0 28 3202537515728 1 0
10.121051 23.04911 0.732616 11 3202537515728 1 0
11.629421 20.710678 0.41459936 100 3202537518032 1 0
8.706389 19.819609 -1.3873669 14 3202537518032 1 0
16.356367 26.05071 -1.7913796 8 3202537520336 1 0
10.456846 20.951817 1.3637089 17 3202537520336 1 0
11.498355 20.463318 0.95629543 52 3202537522640 1 0
9.620255 19.268572 -1.003211 95 3202537522640 1 0
10.706314 19.047256 -1.1451107 24 3202537524944 1 0
25.867998 51.792595 7.108395 51 3202537524944 1 0
29.428766 52.337944 4.9017215 28 3202537527248 1 0
9.542993 21.689812 -0.96541387 18 3202537527248 1 0
23.474337 37.33921 -1.5401846 8 3202537529552 1 0
0 0 0 38 3202537529552 1 0
29.095629 51.710255 10.818095 58 3202537531856 1 0
9.633933 19.26791 -0.50127417 90 3202537531856 1 0
8.625588 19.519907 -0.37250417 80 3202537552592 1 0
11.013939 19.508097 -0.65197706 43 3202537554896 1 0
3.0095415 5.997274 -1.8784012 4 3202537554896 1 0
0 0 0 4 3202537552592 1 0
4.7739315 8.4528055 -1.9415612 1 3202537557200 1 0
10.369041 20.655447 0 72 3202537557200 1 0
24.96688 39.547165 -0.54447675 17 3202537559504 1 0
8.027946 14.204768 -2.0768597 7 3202537561808 1 0
5.8835454 11.715952 -2.039656 7 3202537559504 1 0
9.6515045 21.807255 0.13860252 5 3202537561808 1 0
11.714823 20.721346 -0.13834679 100 3202537564112 1 0
8.170045 16.257282 -1.959876 6 3202537564112 1 0
11.293139 17.870886 -1.9733884 4 3202537566416 1 0
0 0 0 26 3202537566416 1 0
32.446457 51.328526 0.7069397 22 3202537568720 1 0
9.682881 19.253662 -1.5070188 60 3202537568720 1 0
11.100046 19.61394 -1.8398135 2 3202537571024 1 0
10.222509 23.06116 0.7341287 23 3202537571024 1 0
11.719377 20.70128 0.41522765 88 3202537573328 1 0
8.7431555 19.716114 -1.3822503 4 3202537573328 1 0
16.432255 25.969837 -1.7897516 8 3202537575632 1 0
10.389854 20.636984 1.3455695 10 3202537575632 1 0
11.589415 20.457832 0.9579237 52 3202537577936 1 0
9.698241 19.256285 -1.0043278 30 3202537577936 1 0
0 0 0 17 3202537580240 1 0
29.507078 52.051083 4.884472 28 3202537582544 1 0
26.06828 51.740986 7.113757 77 3202537580240 1 0
0 0 0 3 3202537582544 1 0
23.591696 37.236782 -1.539347 8 3202537584848 1 0
9.728734 19.295868 5.7903 4 3202537584848 1 0
29.303137 51.656296 10.828139 58 3202537587152 1 0
10.410664 20.640932 -0.53793687 49 3202537587152 1 0
0 0 0 4 3202537607888 1 0
8.706707 19.5189 -0.37306264 82 3202537607888 1 0
11.1037245 19.507755 -0.653257 18 3202537610192 1 0
3.0269783 5.9798584 -1.8762445 4 3202537610192 1 0
4.8189344 8.463358 -1.9478369 2 3202537612496 1 0
10.451921 20.64054 0 82 3202537612496 1 0
24.930868 39.186428 -0.540705 28 3202537614800 1 0
5.9208336 11.688292 -2.038426 7 3202537614800 1 0
8.071588 14.166316 -2.0753446 7 3202537617104 1 0
0 0 0 31 3202537617104 1 0
0 0 0 28 3202537619408 1 0
8.226744 16.228664 -1.959876 6 3202537619408 1 0
11.351173 17.824638 -1.9726449 4 3202537621712 1 0
10.356196 20.42201 0.532819 45 3202537621712 1 0
32.74362 51.40049 0.70950073 23 3202537624016 1 0
0 0 0 8 3202537624016 1 0
0 0 0 28 3202537626320 1 0
0 0 0 21 3202537628624 1 0
8.890209 19.86036 -1.3945302 5 3202537628624 1 0
16.509926 25.892117 -1.7883563 8 3202537630928 1 0
9.755872 21.80272 0.6951474 21 3202537626320 1 0
10.939173 21.540543 1.4069643 10 3202537630928 1 0
0 0 0 4 3202537633232 1 0
11.33243 19.835676 -1.1972374 9 3202537635536 1 0
11.676612 20.445017 0.95922637 52 3202537633232 1 0
26.315283 51.780632 7.131794 78 3202537635536 1 0
0 0 0 100 3202537637840 1 0
23.64839 37.039646 -1.5346006 8 3202537640144 1 0
10.452835 20.553257 6.1785283 2 3202537640144 1 0
29.502642 51.622402 4.853879 28 3202537637840 1 0
29.551647 51.673252 10.853251 58 3202537642448 1 0
10.49897 20.636543 -0.5387743 21 3202537642448 1 0
0 0 0 4 3202537663184 1 0
8.787924 19.517563 -0.3736211 78 3202537663184 1 0
11.193642 19.507023 -0.654537 53 3202537665488 1 0
3.0460818 5.9658256 -1.8751662 3 3202537665488 1 0
4.832826 8.419271 -1.9415612 1 3202537667792 1 0
10.538463 20.632427 0 95 3202537667792 1 0
24.91639 38.863464 -0.53744555 45 3202537670096 1 0
5.949009 11.642915 -2.0341215 7 3202537670096 1 0
8.120989 14.138055 -2.0753446 7 3202537672400 1 0
9.977811 22.125853 0.14106677 13 3202537672400 1 0
0 0 0 9 3202537674704 1 0
8.283342 16.19985 -1.959876 8 3202537674704 1 0
11.402569 17.768147 -1.970786 4 3202537677008 1 0
10.42924 20.389297 0.532912 42 3202537677008 1 0
32.9747 51.36666 0.71061826 34 3202537679312 1 0
10.035177 19.611862 -1.540502 4 3202537679312 1 0
11.31224 19.667292 -1.8521808 5 3202537681616 1 0
9.845084 21.797682 0.6960783 8 3202537681616 1 0
29.64108 51.516205 1.0374409 14 3202537683920 1 0
8.908527 19.716436 -1.3865994 4 3202537683920 1 0
16.60884 25.847767 -1.7892865 8 3202537686224 1 0
11.067093 21.605295 1.4137084 29 3202537686224 1 0
0 0 0 29 3202537688528 1 0
10.032877 19.579268 -1.0248015 2 3202537688528 1 0
11.429511 19.844458 -1.2001681 9 3202537690832 1 0
34.445335 59.78551 5.6327 28 3202537693136 1 0
26.490438 51.67786 7.1303315 52 3202537690832 1 0
8.904524 19.67706 -0.8799286 10 3202537693136 1 0
23.781864 36.963596 -1.5348799 8 3202537695440 1 0
0 0 0 9 3202537695440 1 0
0 0 0 1 3202537697744 1 0
29.775082 51.644787 10.869036 58 3202537697744 1 0
0 0 0 4 3202537718480 1 0
8.869237 19.515896 -0.3741796 76 3202537718480 1 0
0 0 0 18 3202537720784 1 0
4.8581347 8.395631 -1.9399922 1 3202537723088 1 0
10.628438 20.631227 0 90 3202537723088 1 0
24.886099 38.52147 -0.53390664 33 3202537725392 1 0
5.9839287 11.611669 -2.0322769 7 3202537725392 1 0
8.163915 14.099557 -2.0738294 9 3202537727696 1 0
3.065081 5.951754 -1.8740879 4 3202537720784 1 0
9.259007 20.343693 0.12990789 25 3202537727696 1 0
22.637928 39.084568 -0.2625125 7 3202537730000 1 0
8.34472 16.181744 -1.9611611 8 3202537730000 1 0
11.45726 17.718702 -1.9696707 4 3202537732304 1 0
10.510461 20.37455 0.53347033 45 3202537732304 1 0
33.218536 51.357044 0.71206176 35 3202537734608 1 0
10.086109 19.545315 -1.5379907 4 3202537734608 1 0
9.516884 20.879677 0.6678023 45 3202537736912 1 0
11.315694 19.517979 -1.8417662 19 3202537736912 1 0
30.318964 52.279297 1.0548933 14 3202537739216 1 0
9.020722 19.783873 -1.3935069 5 3202537739216 1 0
16.69492 25.787497 -1.7890539 8 3202537741520 1 0
11.124379 21.535412 1.4116154 18 3202537741520 1 0
11.197573 19.2958 0.9089122 30 3202537743824 1 0
10.106934 19.559135 -1.025546 2 3202537743824 1 0
11.50701 19.822716 -1.2012149 6 3202537746128 1 0
26.706272 51.664993 7.141056 52 3202537746128 1 0
0 0 0 8 3202537748432 1 0
9.376368 20.533787 -0.9196589 19 3202537748432 1 0
23.867853 36.82241 -1.5323671 8 3202537750736 1 0
0 0 0 9 3202537750736 1 0
30.01677 51.659485 10.89343 58 3202537753040 1 0
10.118621 19.555244 -0.5123474 2 3202537753040 1 0
0 0 0 4 3202537773776 1 0
8.945573 19.511827 -0.37466827 76 3202537773776 1 0
18.238644 31.288956 -1.0540082 7 3202537776080 1 0
3.086619 5.9449534 -1.8751662 3 3202537776080 1 0
10.710001 20.620562 0 97 3202537778384 1 0
4.8702645 8.352297 -1.9337165 1 3202537778384 1 0
24.896734 38.25716 -0.53139216 27 3202537780688 1 0
6.022654 11.59163 -2.0322769 7 3202537780688 1 0
8.201036 14.055032 -2.0713038 7 3202537782992 1 0
9.278605 20.20719 0.12923372 19 3202537782992 1 0
22.768831 39.008457 -0.2625125 7 3202537785296 1 0
8.398922 16.153677 -1.9611611 6 3202537785296 1 0
11.503683 17.660088 -1.96744 4 3202537787600 1 0
10.600998 20.381695 0.53458697 42 3202537787600 1 0
33.419655 51.28847 0.7126671 35 3202537789904 1 0
10.20159 19.606817 -1.5455245 4 3202537789904 1 0
11.381489 19.479685 -1.8417662 9 3202537792208 1 0
9.6273775 20.934628 0.670595 16 3202537792208 1 0
11.180299 19.128956 0.38674533 7 3202537794512 1 0
9.094245 19.767761 -1.3945302 10 3202537794512 1 0
16.797483 25.754185 -1.7906818 8 3202537796816 1 0
11.197295 21.49759 1.4116154 7 3202537796816 1 0
0 0 0 6 3202537799120 1 0
11.192417 19.13691 0.90321314 48 3202537799120 1 0
11.7075405 20.010994 -1.2150315 3 3202537801424 1 0
26.933336 51.67238 7.1547055 52 3202537801424 1 0
30.540104 52.182945 4.9358945 28 3202537803728 1 0
9.083411 19.713999 -0.88432497 31 3202537803728 1 0
23.984827 36.727226 -1.5318087 8 3202537806032 1 0
0 0 0 9 3202537806032 1 0
30.227345 51.614098 10.905627 58 3202537808336 1 0
10.229939 19.605558 -0.51458067 4 3202537808336 1 0
0 0 0 4 3202537829072 1 0
9.023704 19.50226 -0.3750871 76 3202537829072 1 0
0 0 0 84 3202537831376 1 0
3.1073089 5.9341655 -1.8751662 2 3202537831376 1 0
4.885356 8.311646 -1.9282252 2 3202537833680 1 0
0 0 0 7 3202537833680 1 0
24.932789 38.023396 -0.5293433 44 3202537835984 1 0
6.057324 11.560165 -2.0304322 7 3202537835984 1 0
8.239581 14.009458 -2.0687785 7 3202537838288 1 0
9.336726 20.149544 0.12907098 12 3202537838288 1 0
0 0 0 22 3202537840592 1 0
8.456518 16.128092 -1.9615896 6 3202537840592 1 0
11.551378 17.600351 -1.9652094 4 3202537842896 1 0
10.674906 20.352114 0.53477305 33 3202537842896 1 0
33.70124 51.333702 0.7149022 36 3202537845200 1 0
0 0 0 14 3202537845200 1 0
11.233845 19.076359 -1.8072677 45 3202537847504 1 0
9.737887 20.984875 0.6732713 13 3202537847504 1 0
11.190946 18.997509 0.38486046 74 3202537849808 1 0
9.2089615 19.837875 -1.4016935 8 3202537849808 1 0
16.889797 25.703297 -1.791147 8 3202537852112 1 0
22.171913 42.21486 2.7769523 15 3202537852112 1 0
11.259651 19.102068 0.903376 51 3202537854416 1 0
10.353196 19.705654 -1.0368996 7 3202537854416 1 0
0 0 0 85 3202537856720 1 0
27.14598 51.650703 7.164455 53 3202537856720 1 0
30.530811 51.76301 4.9059525 28 3202537859024 1 0
9.180637 19.748274 -0.8872559 6 3202537859024 1 0
24.091576 36.61902 -1.530692 8 3202537861328 1 0
0 0 0 9 3202537861328 1 0
30.46371 51.616642 10.927869 58 3202537863632 1 0
0 0 0 4 3202537884368 1 0
10.314797 19.606243 -0.5155112 4 3202537863632 1 0
9.100166 19.497597 -0.37557578 63 3202537884368 1 0
11.209641 18.933094 -0.64034086 54 3202537886672 1 0
3.1216187 5.9135866 -1.8719313 4 3202537886672 1 0
4.9170094 8.302079 -1.9297942 1 3202537888976 1 0
0 0 0 7 3202537888976 1 0
0 0 0 84 3202537891280 1 0
6.092185 11.532893 -2.0292025 7 3202537891280 1 0
8.284377 13.978403 -2.0682735 7 3202537893584 1 0
9.226228 19.73772 0.12662998 34 3202537893584 1 0
11.210937 18.910177 -0.12776911 87 3202537895888 1 0
8.514257 16.106682 -1.9624463 8 3202537895888 1 0
11.595071 17.538185 -1.9626069 4 3202537898192 1 0
10.251581 19.386406 0.5103002 36 3202537898192 1 0
33.95111 51.336704 0.71653193 36 3202537900496 1 0
10.40198 19.6639 -1.5555694 4 3202537900496 1 0
11.216765 18.901205 -1.7942494 45 3202537902800 1 0
9.927307 21.205378 0.6814167 20 3202537902800 1 0
11.216333 18.894215 0.38353407 85 3202537905104 1 0
9.2539835 19.759626 -1.3983676 17 3202537905104 1 0
16.961374 25.622602 -1.7895191 8 3202537907408 1 0
22.393333 42.287697 2.7867196 15 3202537907408 1 0
11.344871 19.098082 0.90500426 48 3202537909712 1 0
10.416318 19.663319 -1.0365273 7 3202537909712 1 0
11.24355 18.92125 -1.1534845 59 3202537912016 1 0
27.356932 51.62467 7.173717 53 3202537912016 1 0
30.60736 51.490654 4.8900046 28 3202537914320 1 0
0 0 0 100 3202537914320 1 0
24.221012 36.543125 -1.5309712 8 3202537916624 1 0
0 0 0 9 3202537916624 1 0
30.690622 51.596546 10.945806 58 3202537918928 1 0
10.383766 19.574331 -0.51560426 4 3202537918928 1 0
0 0 0 4 3202537939664 1 0
9.185211 19.501896 -0.37627387 85 3202537939664 1 0
11.267466 18.880116 -0.6398754 78 3202537941968 1 0
3.145862 5.9094543 -1.8740879 2 3202537941968 1 0
4.9399276 8.274761 -1.9274408 2 3202537944272 1 0
25.163044 37.808968 -0.528738 77 3202537946576 1 0
0 0 0 37 3202537944272 1 0
6.1268306 11.501092 -2.0273576 7 3202537946576 1 0
8.335155 13.952806 -2.0687785 7 3202537948880 1 0
9.230224 19.567924 0.12574656 36 3202537948880 1 0
11.289188 18.891531 -0.1279086 100 3202537951184 1 0
8.566687 16.069845 -1.9615896 9 3202537951184 1 0
11.651804 17.490976 -1.9618634 4 3202537953488 1 0
10.290965 19.297577 0.50890446 46 3202537953488 1 0
34.194424 51.314404 0.71788234 36 3202537955792 1 0
0 0 0 50 3202537955792 1 0
11.297001 18.885885 -1.7965276 78 3202537958096 1 0
10.096909 21.373047 0.68793297 42 3202537958096 1 0
11.302753 18.889267 0.3842322 85 3202537960400 1 0
9.241031 19.553968 -1.3860878 37 3202537960400 1 0
22.54457 42.21632 2.7871847 15 3202537962704 1 0
17.057358 25.573206 -1.7902167 8 3202537962704 1 0
11.4340515 19.096083 0.9067954 51 3202537965008 1 0
10.266497 19.21802 -1.0149369 80 3202537965008 1 0
11.301319 18.86818 -1.1526471 87 3202537967312 1 0
27.58562 51.619904 7.1863914 53 3202537967312 1 0
30.860676 51.506615 4.9017215 28 3202537969616 1 0
9.273961 19.594133 -0.88318515 17 3202537969616 1 0
24.308462 36.398518 -1.5284584 8 3202537971920 1 0
30.93934 51.60385 10.9702 58 3202537974224 1 0
0 0 0 9 3202537971920 1 0
0 0 0 66 3202537974224 1 0
0 0 0 4 3202537994960 1 0
9.225762 19.411919 -0.37515694 38 3202537994960 1 0
11.35611 18.878277 -0.64115536 81 3202537997264 1 0
3.161048 5.8882327 -1.8708531 3 3202537997264 1 0
4.968902 8.257395 -1.9274408 2 3202537999568 1 0
10.264974 19.114046 0 99 3202537999568 1 0
25.317968 37.75357 -0.52920365 66 3202538001872 1 0
6.174672 11.493428 -2.0298173 8 3202538001872 1 0
8.376026 13.909785 -2.0667584 7 3202538004176 1 0
9.304198 19.54615 0.1258163 38 3202538004176 1 0
11.376388 18.885859 -0.12814108 94 3202538006480 1 0
8.625195 16.043034 -1.9620179 8 3202538006480 1 0
11.671374 17.386858 -1.9547997 4 3202538008784 1 0
10.368574 19.278694 0.50936973 54 3202538008784 1 0
10.277212 19.101828 -1.5167848 82 3202538011088 1 0
34.41385 51.24943 0.7186739 24 3202538011088 1 0
11.376305 18.86616 -1.7984803 78 3202538013392 1 0
10.220873 21.438135 0.6911911 25 3202538013392 1 0
11.396709 18.893473 0.3851397 81 3202538015696 1 0
9.236615 19.366055 -1.3750871 48 3202538015696 1 0
17.150604 25.515577 -1.7904493 8 3202538018000 1 0
22.776285 42.286892 2.7971845 15 3202538018000 1 0
10.293355 19.103853 -1.0108421 87 3202538020304 1 0
11.526949 19.096193 0.90874934 51 3202538020304 1 0
11.387339 18.858398 -1.1545312 75 3202538022608 1 0
27.811579 51.59776 7.197116 53 3202538022608 1 0
9.233895 19.329952 -0.8727641 54 3202538024912 1 0
31.082243 51.457066 4.9075794 28 3202538024912 1 0
24.416744 36.277794 -1.5270624 8 3202538027216 1 0
0 0 0 9 3202538027216 1 0
31.198183 51.61338 10.996029 58 3202538029520 1 0
10.292517 19.074385 -0.5043449 95 3202538029520 1 0
0 0 0 4 3202538050256 1 0
9.269169 19.32028 -0.37403998 70 3202538050256 1 0
11.445549 18.870962 -0.64231896 81 3202538052560 1 0
3.1824799 5.876677 -1.8708531 2 3202538052560 1 0
5.019119 8.27288 -1.9352854 2 3202538054864 1 0
10.3474655 19.101364 0 91 3202538054864 1 0
25.4985 37.728466 -0.5301349 60 3202538057168 1 0
6.20659 11.453751 -2.0267427 7 3202538057168 1 0
8.415445 13.862768 -2.0642328 7 3202538059472 1 0
9.38793 19.541578 0.12600228 38 3202538059472 1 0
11.466313 18.882893 -0.1283968 99 3202538061776 1 0
8.691669 16.02974 -1.9641598 8 3202538061776 1 0
11.721594 17.329004 -1.9529408 4 3202538064080 1 0
10.453805 19.273563 0.5102072 54 3202538064080 1 0
34.70572 51.293873 0.7210021 37 3202538066384 1 0
10.344243 19.06561 -1.5167848 86 3202538066384 1 0
11.464867 18.86381 -1.8020604 83 3202538068688 1 0
11.485033 18.891417 0.38590762 81 3202538070992 1 0
10.210713 21.225775 0.68548936 40 3202538068688 1 0
9.288159 19.301525 -1.3727846 74 3202538070992 1 0
17.238455 25.456306 -1.7904493 8 3202538073296 1 0
22.942877 42.24673 2.7997427 15 3202538073296 1 0
11.604752 19.077087 0.9097263 33 3202538075600 1 0
10.360637 19.071995 -1.0110283 92 3202538075600 1 0
11.470143 18.850245 -1.1564153 75 3202538077904 1 0
28.03631 51.593506 7.20979 54 3202538077904 1 0
9.299208 19.298616 -0.8727641 78 3202538080208 1 0
0 0 0 8 3202538080208 1 0
24.511572 36.155846 -1.5253872 8 3202538082512 1 0
0 0 0 9 3202538082512 1 0
31.400995 51.55937 11.006791 58 3202538084816 1 0
10.379057 19.082077 -0.5054615 100 3202538084816 1 0
0 0 0 4 3202538105552 1 0
9.342009 19.316269 -0.37452865 74 3202538105552 1 0
11.523535 18.865622 -0.6433663 81 3202538107856 1 0
3.2009263 5.8666496 -1.8708531 2 3202538107856 1 0
5.032814 8.236989 -1.9305786 1 3202538110160 1 0
25.655153 37.704388 -0.5309265 66 3202538112464 1 0
6.210345 11.375221 -2.0162892 7 3202538112464 1 0
8.454815 13.829491 -2.063223 9 3202538114768 1 0
10.428502 19.107386 0 91 3202538110160 1 0
9.464966 19.54439 0.12621152 38 3202538114768 1 0
11.54436 18.87749 -0.12860602 94 3202538117072 1 0
8.738172 15.995375 -1.9633031 8 3202538117072 1 0
11.769252 17.282219 -1.9518254 4 3202538119376 1 0
10.535397 19.279228 0.51123077 50 3202538119376 1 0
34.934246 51.283756 0.72239906 37 3202538121680 1 0
10.421314 19.064531 -1.519296 88 3202538121680 1 0
11.551129 18.871902 -1.8062913 87 3202538123984 1 0
10.261644 21.161215 0.6844421 8 3202538123984 1 0
11.56312 18.88594 0.38653588 92 3202538126288 1 0
9.36443 19.304573 -1.3750871 76 3202538126288 1 0
17.320593 25.405325 -1.7906818 8 3202538128592 1 0
23.138737 42.290047 2.8074172 15 3202538128592 1 0
0 0 0 14 3202538130896 1 0
10.439686 19.074404 -1.0128895 92 3202538130896 1 0
11.543916 18.83796 -1.1578807 71 3202538133200 1 0
28.24211 51.58527 7.221002 54 3202538133200 1 0
31.963121 52.143753 4.9928493 28 3202538135504 1 0
9.37376 19.298067 -0.8740667 72 3202538135504 1 0
0 0 0 9 3202538137808 1 0
31.636885 51.581226 11.03262 58 3202538140112 1 0
10.448563 19.06691 -0.5059268 100 3202538140112 1 0
24.613771 36.062153 -1.5246892 8 3202538137808 1 0
0 0 0 4 3202538161296 1 0
9.426639 19.301817 -0.3749475 72 3202538161296 1 0
11.614764 18.851871 -0.64441353 68 3202538163600 1 0
3.2197132 5.8475676 -1.8686965 2 3202538163600 1 0
5.0664625 8.2209425 -1.9313631 2 3202538165904 1 0
10.5210905 19.10224 0 95 3202538165904 1 0
25.860832 37.694653 -0.53218377 55 3202538168208 1 0
6.234904 11.316673 -2.0101402 6 3202538168208 1 0
8.509936 13.8003025 -2.0637279 9 3202538170512 1 0
9.550485 19.529463 0.126351 36 3202538170512 1 0
11.625159 18.84664 -0.12869902 31 3202538172816 1 0
8.7976055 15.958222 -1.9628747 8 3202538172816 1 0
11.831015 17.230335 -1.9510819 4 3202538175120 1 0
10.624795 19.266647 0.51197517 52 3202538175120 1 0
35.216953 51.27453 0.7241685 25 3202538177424 1 0
10.517568 19.066303 -1.5226443 94 3202538177424 1 0
11.642356 18.857943 -1.8092204 49 3202538179728 1 0
10.534486 21.513063 0.69712555 6 3202538179728 1 0
0 0 0 6 3202538182032 1 0
9.450778 19.293568 -1.3768779 76 3202538182032 1 0
17.420277 25.341923 -1.7909144 8 3202538184336 1 0
0 0 0 9 3202538184336 1 0
32.14986 52.029667 2.491774 29 3202538186640 1 0
10.528303 19.062159 -1.0143785 95 3202538186640 1 0
11.641366 18.834269 -1.1603929 68 3202538188944 1 0
32.121174 51.95282 4.9863405 28 3202538191248 1 0
28.491812 51.570274 7.234164 54 3202538188944 1 0
9.45835 19.283463 -0.8750437 76 3202538191248 1 0
24.697668 35.888344 -1.5213388 8 3202538193552 1 0
0 0 0 9 3202538193552 1 0
31.878185 51.529644 11.047687 58 3202538195856 1 0
10.541049 19.061646 -0.5068573 100 3202538195856 1 0
0 0 0 4 3202538216592 1 0
9.503128 19.304401 -0.37557578 76 3202538216592 1 0
0 0 0 18 3202538218896 1 0
3.2381952 5.8373528 -1.8686965 2 3202538218896 1 0
5.0822797 8.188101 -1.9274408 2 3202538221200 1 0
10.5954685 19.093113 0 87 3202538221200 1 0
26.063425 37.729992 -0.5338601 49 3202538223504 1 0
6.2654095 11.286252 -2.0082953 7 3202538223504 1 0
8.550264 13.766011 -2.0627177 7 3202538225808 1 0
9.67717 19.627676 0.12718792 62 3202538225808 1 0
0 0 0 9 3202538228112 1 0
8.855227 15.939969 -1.9641598 6 3202538228112 1 0
11.885073 17.18825 -1.95071 4 3202538230416 1 0
11.491994 20.678877 0.55049896 52 3202538230416 1 0
35.438007 51.23389 0.72523946 25 3202538232720 1 0
10.593893 19.055964 -1.5245975 86 3202538232720 1 0
0 0 0 19 3202538235024 1 0
10.580984 21.427822 0.6954965 4 3202538235024 1 0
0 0 0 43 3202538237328 1 0
9.531037 19.294127 -1.3791804 74 3202538237328 1 0
17.493956 25.266836 -1.7897516 8 3202538239632 1 0
11.270781 20.251675 1.3497555 30 3202538239632 1 0
32.169304 51.669582 2.4797246 29 3202538241936 1 0
10.612139 19.061357 -1.0162398 92 3202538241936 1 0
28.713522 51.55625 7.245864 55 3202538244240 1 0
32.102875 51.5278 4.956073 28 3202538246544 1 0
9.538523 19.27961 -0.87634635 82 3202538246544 1 0
0 0 0 8 3202538244240 1 0
24.807562 35.783287 -1.5205013 8 3202538248848 1 0
0 0 0 9 3202538248848 1 0
32.13377 51.54231 11.074234 58 3202538251152 1 0
10.624634 19.0564 -0.5076948 100 3202538251152 1 0
0 0 0 4 3202538271888 1 0
9.591614 19.305258 -0.37627387 63 3202538271888 1 0
0 0 0 9 3202538274192 1 0
3.259526 5.825469 -1.8686965 2 3202538274192 1 0
5.110057 8.166167 -1.9266562 1 3202538276496 1 0
11.60677 20.736696 0 86 3202538276496 1 0
26.294413 37.76937 -0.5357692 11 3202538278800 1 0
6.296833 11.246107 -2.005221 6 3202538278800 1 0
8.598156 13.731468 -2.0622127 7 3202538281104 1 0
9.768074 19.631752 0.12744364 70 3202538281104 1 0
0 0 0 9 3202538283408 1 0
8.9130125 15.90773 -1.9641598 8 3202538283408 1 0
11.954074 17.154898 -1.9518254 4 3202538285712 1 0
11.58636 20.672005 0.55142945 68 3202538285712 1 0
35.634384 51.12188 0.72547233 38 3202538288016 1 0
10.680261 19.048876 -1.5271087 46 3202538288016 1 0
12.651503 20.178654 -1.9442854 5 3202538290320 1 0
10.255201 20.580744 0.66919863 7 3202538290320 1 0
32.23162 51.391567 1.0588725 44 3202538292624 1 0
9.614676 19.28827 -1.381227 68 3202538292624 1 0
17.582327 25.200552 -1.7895191 8 3202538294928 1 0
11.292645 20.120516 1.3437091 23 3202538294928 1 0
32.781372 52.234352 2.5124533 87 3202538297232 1 0
0 0 0 16 3202538297232 1 0
18.473354 29.426228 -1.8208725 7 3202538299536 1 0
28.944462 51.536266 7.257563 55 3202538299536 1 0
32.261215 51.372334 4.9521675 28 3202538301840 1 0
9.623368 19.277613 -0.8778118 74 3202538301840 1 0
24.960096 35.73071 -1.5220368 8 3202538304144 1 0
0 0 0 9 3202538304144 1 0
32.404793 51.567654 11.104367 58 3202538306448 1 0
0 0 0 13 3202538306448 1 0
0 0 0 4 3202538327184 1 0
10.35962 20.669659 -0.40356946 52 3202538327184 1 0
0 0 0 9 3202538329488 1 0
3.2817757 5.8173866 -1.8697747 2 3202538329488 1 0
5.132373 8.138252 -1.9243028 2 3202538331792 1 0
11.697078 20.727238 0 100 3202538331792 1 0
35.87363 51.144936 -0.7272883 29 3202538334096 1 0
6.324638 11.203269 -2.0015314 1 3202538334096 1 0
8.640081 13.691052 -2.0606973 7 3202538336400 1 0
0 0 0 9 3202538338704 1 0
9.829934 19.58295 0.12735066 72 3202538336400 1 0
8.980801 15.896971 -1.9667302 6 3202538338704 1 0
12.014629 17.112541 -1.9518254 4 3202538341008 1 0
11.679024 20.665741 0.55236 75 3202538341008 1 0
35.870384 51.073914 0.72658986 38 3202538343312 1 0
0 0 0 1 3202538343312 1 0
12.720904 20.130259 -1.94396 8 3202538345616 1 0
10.247359 20.383469 0.66396236 31 3202538345616 1 0
32.937737 52.104866 1.0759758 15 3202538347920 1 0
0 0 0 36 3202538347920 1 0
17.697277 25.173674 -1.7920772 8 3202538350224 1 0
11.378038 20.104475 1.3453369 20 3202538350224 1 0
32.9869 52.14737 2.5139189 87 3202538352528 1 0
0 0 0 2 3202538352528 1 0
18.559298 29.329563 -1.8189884 6 3202538354832 1 0
29.183453 51.529102 7.2712126 55 3202538354832 1 0
0 0 0 8 3202538357136 1 0
25.058384 35.598312 -1.5202221 8 3202538359440 1 0
0 0 0 9 3202538359440 1 0
0 0 0 12 3202538357136 1 0
32.623905 51.50386 11.115848 58 3202538361744 1 0
0 0 0 1 3202538361744 1 0
0 0 0 4 3202538382480 1 0
10.449749 20.6601 -0.40412793 77 3202538382480 1 0
3.301044 5.8020434 -1.8686965 2 3202538384784 1 0
0 0 0 9 3202538384784 1 0
5.1554995 8.109682 -1.9219495 2 3202538387088 1 0
0 0 0 19 3202538387088 1 0
36.11984 51.103657 -0.72854555 59 3202538389392 1 0
6.3551483 11.163255 -1.9984568 1 3202538389392 1 0
8.676233 13.639963 -2.057667 7 3202538391696 1 0
9.890902 19.529812 0.12723441 82 3202538391696 1 0
9.035307 15.861478 -1.9663018 8 3202538394000 1 0
12.079635 17.076473 -1.952569 4 3202538396304 1 0
11.767827 20.65213 0.5531044 42 3202538396304 1 0
36.13273 51.065147 0.7282662 39 3202538398608 1 0
11.318232 19.857063 -1.5982603 4 3202538398608 1 0
12.780387 20.068918 -1.9423327 8 3202538400912 1 0
10.287706 20.286951 0.6619842 30 3202538400912 1 0
33.165554 52.064503 1.0775115 15 3202538403216 1 0
0 0 0 9 3202538394000 1 0
9.968448 19.65101 -1.4121825 14 3202538403216 1 0
17.774715 25.099485 -1.791147 8 3202538405520 1 0
11.23752 19.697477 1.320686 26 3202538405520 1 0
33.19325 52.07789 2.5160356 58 3202538407824 1 0
11.318244 19.83294 -1.0637015 11 3202538407824 1 0
29.409832 51.519127 7.283887 56 3202538410128 1 0
33.16711 52.006836 5.0354843 28 3202538412432 1 0
18.656862 29.262861 -1.8187791 6 3202538410128 1 0
9.97101 19.630577 -0.89702564 6 3202538412432 1 0
25.17322 35.5074 -1.5199429 8 3202538414736 1 0
32.86761 51.507465 11.140242 29 3202538417040 1 0
11.127551 19.475094 -0.5219318 2 3202538417040 1 0
0 0 0 9 3202538414736 1 0
0 0 0 4 3202538437776 1 0
10.532766 20.662802 -0.40482602 85 3202538437776 1 0
24.856483 38.839615 -1.3420045 9 3202538440080 1 0
3.3174243 5.788254 -1.8676181 2 3202538440080 1 0
5.176957 8.086688 -1.9203805 2 3202538442384 1 0
0 0 0 3 3202538442384 1 0
36.12706 50.770004 -0.7254257 9 3202538444688 1 0
6.404438 11.166956 -2.0027611 1 3202538444688 1 0
8.713412 13.602108 -2.0561519 9 3202538446992 1 0
9.951523 19.494501 0.12721117 80 3202538446992 1 0
24.97767 38.979008 -0.26906836 8 3202538449296 1 0
9.090203 15.839252 -1.9671586 6 3202538449296 1 0
12.134709 17.037382 -1.952569 4 3202538451600 1 0
0 0 0 1 3202538451600 1 0
36.37011 51.048668 0.7297097 39 3202538453904 1 0
12.8521595 20.037241 -1.9433091 8 3202538456208 1 0
11.382577 19.82025 -1.5982603 6 3202538453904 1 0
10.370125 20.285368 0.66303146 31 3202538456208 1 0
33.23209 51.79412 1.0741607 31 3202538458512 1 0
10.032702 19.618282 -1.4121825 3 3202538458512 1 0
17.85944 25.044174 -1.7913796 8 3202538460816 1 0
11.218618 19.51503 1.3109187 32 3202538460816 1 0
33.24841 51.786404 2.507243 29 3202538463120 1 0
11.357768 19.750435 -1.0612819 8 3202538463120 1 0
18.762432 29.214275 -1.8196166 6 3202538465424 1 0
29.628025 51.503914 7.2955866 56 3202538465424 1 0
33.150517 51.60091 5.006844 28 3202538467728 1 0
10.036338 19.59726 -0.89702564 4 3202538467728 1 0
25.296503 35.4295 -1.5202221 8 3202538470032 1 0
0 0 0 9 3202538470032 1 0
33.085163 51.46626 11.155309 29 3202538472336 1 0
11.246799 19.531164 -0.5244442 4 3202538472336 1 0
0 0 0 4 3202538493072 1 0
10.61763 20.650806 -0.40531468 85 3202538493072 1 0
24.81044 38.469997 -1.3322301 9 3202538495376 1 0
3.3396199 5.7799253 -1.8686965 2 3202538495376 1 0
5.199009 8.058528 -1.9180272 2 3202538497680 1 0
22.841545 39.517574 0 23 3202538497680 1 0
35.143368 49.019924 -0.70219016 18 3202538499984 1 0
6.4260592 11.113457 -1.9972271 1 3202538499984 1 0
8.748716 13.551098 -2.0531213 9 3202538502288 1 0
10.013318 19.444838 0.12711817 80 3202538502288 1 0
0 0 0 9 3202538504592 1 0
9.142603 15.799875 -1.9663018 8 3202538504592 1 0
12.200234 17.000326 -1.9533125 4 3202538506896 1 0
30.219078 52.20412 1.4036049 12 3202538506896 1 0
36.634903 51.031403 0.7313394 39 3202538509200 1 0
11.447708 19.76887 -1.5974232 6 3202538509200 1 0
10.441394 20.244278 0.6629151 26 3202538511504 1 0
33.26741 51.43835 1.0692741 46 3202538513808 1 0
12.943831 20.020884 -1.9462382 8 3202538511504 1 0
10.131141 19.635033 -1.4160199 3 3202538513808 1 0
17.950384 24.97907 -1.7913796 8 3202538516112 1 0
11.2234125 19.360104 1.3032444 35 3202538516112 1 0
33.287403 51.433167 2.4960077 58 3202538518416 1 0
11.505966 19.840185 -1.0683546 8 3202538518416 1 0
18.871553 29.148664 -1.8198259 13 3202538520720 1 0
29.874374 51.494564 7.3097234 56 3202538520720 1 0
33.338 51.47523 5.006519 28 3202538523024 1 0
10.108383 19.560196 -0.89702564 4 3202538523024 1 0
25.427217 35.335804 -1.5202221 8 3202538525328 1 0
0 0 0 9 3202538525328 1 0
33.357143 51.468685 11.182572 58 3202538527632 1 0
18.21991 31.371025 -0.84417284 15 3202538527632 1 0
0 0 0 4 3202538548368 1 0
10.711584 20.638285 -0.40587315 50 3202538548368 1 0
24.902359 38.29138 -1.329321 9 3202538550672 1 0
3.3596811 5.763829 -1.8676181 2 3202538550672 1 0
5.223029 8.028947 -1.9156737 2 3202538552976 1 0
23.000893 39.448193 0 7 3202538552976 1 0
35.6035 49.27025 -0.70768476 9 3202538555280 1 0
6.4677167 11.089265 -1.9972271 1 3202538555280 1 0
8.792618 13.508452 -2.0516062 9 3202538557584 1 0
10.080115 19.39677 0.12704843 78 3202538557584 1 0
9.2069235 15.776298 -1.967587 6 3202538559888 1 0
24.932537 38.293896 -0.26558122 7 3202538559888 1 0
12.260127 16.952269 -1.9529408 4 3202538562192 1 0
30.506985 52.258778 1.4080714 12 3202538562192 1 0
36.885857 50.988594 0.7326432 13 3202538564496 1 0
0 0 0 86 3202538564496 1 0
12.983314 19.923964 -1.9413563 8 3202538566800 1 0
10.196905 19.596422 0.6429008 26 3202538566800 1 0
33.90768 52.019238 1.0838642 16 3202538569104 1 0
0 0 0 27 3202538569104 1 0
18.036577 24.911976 -1.791147 8 3202538571408 1 0
11.306152 19.344286 1.3048722 35 3202538571408 1 0
34.057728 52.219543 2.5399716 29 3202538573712 1 0
11.650344 19.927193 -1.0752412 2 3202538573712 1 0
18.995012 29.116068 -1.8219193 7 3202538576016 1 0
30.098036 51.465366 7.320448 57 3202538576016 1 0
33.762188 51.736797 5.0432954 28 3202538578320 1 0
10.266542 19.698753 -0.90500426 9 3202538578320 1 0
25.538973 35.23537 -1.5196637 8 3202538580624 1 0
0 0 0 9 3202538580624 1 0
18.328592 31.312284 -0.8442659 10 3202538582928 1 0
33.616024 51.48336 11.210554 58 3202538582928 1 0
0 0 0 4 3202538603664 1 0
0 0 0 7 3202538603664 1 0
24.891665 38.011898 -1.3223393 9 3202538605968 1 0
3.3739552 5.746554 -1.8654615 2 3202538605968 1 0
5.24846 8.012346 -1.9156737 1 3202538608272 1 0
0 0 0 38 3202538608272 1 0
6.5010033 11.0652 -1.9966121 1 3202538610576 1 0
35.82849 49.25039 -0.7090351 19 3202538610576 1 0
8.822744 13.460338 -2.0485756 10 3202538612880 1 0
10.138417 19.357332 0.12700194 80 3202538612880 1 0
9.247507 15.72948 -1.965445 8 3202538615184 1 0
12.3148 16.912596 -1.9529408 4 3202538617488 1 0
25.110327 38.297184 -0.2661624 7 3202538615184 1 0
0 0 0 35 3202538617488 1 0
37.166428 51.02711 0.73492485 40 3202538619792 1 0
11.595575 19.710283 -1.5990974 13 3202538619792 1 0
13.021906 19.841562 -1.9374509 8 3202538622096 1 0
10.191981 19.432087 0.6385954 29 3202538622096 1 0
34.163334 52.038387 1.0865868 16 3202538624400 1 0
10.348869 19.724236 -1.4275323 7 3202538624400 1 0
18.18188 24.939678 -1.797426 8 3202538626704 1 0
11.385887 19.334545 1.3067327 35 3202538626704 1 0
34.26067 52.15358 2.542251 29 3202538629008 1 0
11.235422 19.072695 -1.0311297 5 3202538629008 1 0
19.106815 29.076286 -1.8233848 7 3202538631312 1 0
30.33102 51.47131 7.3355594 57 3202538631312 1 0
34.289078 52.163754 5.0960197 28 3202538633616 1 0
10.350685 19.699831 -0.90663254 9 3202538633616 1 0
25.647272 35.136826 -1.5191053 8 3202538635920 1 0
0 0 0 9 3202538635920 1 0
33.827732 51.429306 11.223469 58 3202538638224 1 0
0 0 0 19 3202538638224 1 0
0 0 0 4 3202538658960 1 0
10.180241 19.300379 -0.3808813 2 3202538658960 1 0
25.081728 38.011364 -1.3253647 9 3202538661264 1 0
3.3940356 5.734717 -1.8654615 2 3202538661264 1 0
5.2765126 7.9939 -1.9156737 2 3202538663568 1 0
11.205961 18.927505 0 53 3202538663568 1 0
