# .PCD v.7 - Point Cloud Data file format
VERSION .7
FIELDS x y z rgb timestamp_ns device_id active
SIZE 4 4 4 4 8 1 1
TYPE F F F F F U U
COUNT 1 1 1 1 1 1 1
WIDTH 983
HEIGHT 1
VIEWPOINT 0 0 0 1 0 0 0
POINTS 983               
DATA ascii
-3.417745 -5.363064 -1.7802757 5 3206589203896 1 0
-5.292286 -7.469955 -1.830951 66 3206589206200 1 0
-30.05091 -47.140217 0 22 3206589206200 1 0
-52.323044 -66.67012 -0.98665166 14 3206589208504 1 0
-6.381693 -10.007612 -1.8465742 4 3206589208504 1 0
-8.878634 -12.524289 -1.9541271 13 3206589210808 1 0
-25.079481 -43.909634 0.29389685 22 3206589210808 1 0
-33.20021 -46.81811 -0.33358058 41 3206589213112 1 0
-7.9688034 -12.488465 -1.595746 15 3206589213112 1 0
-10.374638 -13.207513 -1.5677805 6 3206589215416 1 0
-31.845228 -49.89086 1.3772709 23 3206589215416 1 0
-52.54469 -66.8724 0.9900974 28 3206589217720 1 0
-16.406046 -25.694569 -2.1317577 4 3206589217720 1 0
-14.556032 -20.507584 -2.0529883 6 3206589220024 1 0
-24.934032 -43.59607 1.4616247 24 3206589220024 1 0
-51.016403 -71.85343 1.5381852 29 3206589222328 1 0
-16.671263 -29.139141 -2.1515317 4 3206589222328 1 0
-23.651049 -30.073118 -2.2281199 5 3206589224632 1 0
-57.081245 -80.34586 4.015366 29 3206589226936 1 0
-60.877346 -95.25229 6.5834303 28 3206589224632 1 0
-26.80854 -41.93278 -2.3183668 9 3206589226936 1 0
-27.573019 -38.799007 -2.494541 11 3206589229240 1 0
0 0 0 8 3206589231544 1 0
-25.08275 -43.782185 -2.0557177 29 3206589231544 1 0
-39.72445 -50.450565 -2.2423625 20 3206589233848 1 0
0 0 0 1 3206589229240 1 0
0 0 0 9 3206589233848 1 0
0 0 0 29 3206589236152 1 0
-30.144768 -47.09078 -1.3010609 22 3206589236152 1 0
-2.2083364 -3.0959735 -1.7733063 4 3206589256888 1 0
0 0 0 161 3206589256888 1 0
-33.366837 -46.764194 -1.6718912 55 3206589259192 1 0
-3.436445 -5.351101 -1.7802757 5 3206589259192 1 0
-30.282299 -47.13936 0 22 3206589261496 1 0
-5.3114924 -7.4418583 -1.8285977 67 3206589261496 1 0
-50.501743 -63.888966 -0.9480964 14 3206589263800 1 0
-6.4294076 -10.005226 -1.8502636 6 3206589263800 1 0
-8.92691 -12.499679 -1.9551371 12 3206589266104 1 0
-25.230604 -43.818356 0.2938736 33 3206589266104 1 0
-33.421562 -46.783302 -0.3341618 62 3206589268408 1 0
-8.033857 -12.494024 -1.60003 19 3206589268408 1 0
-10.423148 -13.174341 -1.5681523 6 3206589270712 1 0
-32.110043 -49.920654 1.3811792 23 3206589270712 1 0
-50.55876 -63.884666 0.94846886 28 3206589273016 1 0
-16.51507 -25.667345 -2.134269 4 3206589273016 1 0
0 0 0 47 3206589275320 1 0
0 0 0 16 3206589275320 1 0
-50.976067 -71.268295 1.5294591 29 3206589277624 1 0
-16.776865 -29.087685 -2.1520433 4 3206589277624 1 0
-23.775715 -30.015419 -2.2299802 5 3206589279928 1 0
-61.097034 -94.86463 6.571337 28 3206589279928 1 0
-57.540466 -80.39638 4.027904 29 3206589282232 1 0
-26.948257 -41.828873 -2.3178084 9 3206589282232 1 0
-27.68038 -38.663548 -2.492029 11 3206589284536 1 0
0 0 0 1 3206589284536 1 0
0 0 0 8 3206589286840 1 0
-26.234848 -45.42483 -2.1371322 10 3206589286840 1 0
-40.002155 -50.44001 -2.248086 20 3206589289144 1 0
0 0 0 9 3206589289144 1 0
0 0 0 29 3206589291448 1 0
-30.380497 -47.09616 -1.3041316 22 3206589291448 1 0
0 0 0 14 3206589312184 1 0
-2.2170143 -3.085302 -1.7716157 4 3206589312184 1 0
-3.4551027 -5.3390727 -1.7802757 6 3206589314488 1 0
-33.606884 -46.754574 -1.6757312 55 3206589314488 1 0
-5.339727 -7.426457 -1.8293821 64 3206589316792 1 0
-30.518393 -47.144176 0 22 3206589316792 1 0
-6.4492545 -9.959498 -1.8459592 5 3206589319096 1 0
-52.229168 -65.60229 -0.97622126 14 3206589319096 1 0
-8.972806 -12.4716625 -1.9556422 12 3206589321400 1 0
-33.65476 -46.763752 -0.33485922 31 3206589323704 1 0
-8.1076975 -12.51263 -1.6060274 16 3206589323704 1 0
-10.4641075 -13.131648 -1.5674088 12 3206589326008 1 0
0 0 0 5 3206589321400 1 0
-32.362404 -49.92907 1.384529 12 3206589326008 1 0
-16.59154 -25.58945 -2.1325948 4 3206589328312 1 0
-52.40943 -65.75017 0.9788754 28 3206589328312 1 0
-14.717487 -20.431343 -2.055592 21 3206589330616 1 0
-25.105173 -43.192787 1.4539449 23 3206589330616 1 0
-51.095936 -70.91146 1.5256195 29 3206589332920 1 0
-16.862246 -29.001339 -2.1499968 4 3206589332920 1 0
-23.900267 -29.957214 -2.2318408 5 3206589335224 1 0
-61.260414 -94.39286 6.5534306 28 3206589335224 1 0
-27.094105 -41.73455 -2.3178084 18 3206589337528 1 0
-57.47014 -79.70875 4.0034795 29 3206589337528 1 0
-27.787132 -38.52781 -2.4895167 23 3206589339832 1 0
0 0 0 1 3206589339832 1 0
0 0 0 8 3206589342136 1 0
-25.236975 -43.346962 -2.0435054 19 3206589342136 1 0
-40.31021 -50.465614 -2.2554846 20 3206589344440 1 0
0 0 0 9 3206589344440 1 0
0 0 0 29 3206589346744 1 0
-30.618809 -47.10382 -1.3072954 22 3206589346744 1 0
-2.232022 -3.0834177 -1.7749968 4 3206589367480 1 0
0 0 0 21 3206589367480 1 0
0 0 0 9 3206589369784 1 0
-3.4779265 -5.3334327 -1.7824323 6 3206589369784 1 0
-5.3679185 -7.410949 -1.8301666 63 3206589372088 1 0
-30.757072 -47.151268 0 22 3206589372088 1 0
-52.15258 -65.03889 -0.9705404 14 3206589374392 1 0
-6.4818206 -9.933616 -1.8453443 4 3206589374392 1 0
-9.020943 -12.4466915 -1.9566524 12 3206589376696 1 0
-25.35813 -43.33734 0.2918278 21 3206589376696 1 0
-51.273724 -70.72353 -0.5077055 28 3206589379000 1 0
-8.175242 -12.520884 -1.6107396 16 3206589379000 1 0
-10.529824 -13.119889 -1.570383 21 3206589381304 1 0
-32.650204 -49.9899 1.3893678 12 3206589381304 1 0
-52.383217 -65.248695 0.97412586 28 3206589383608 1 0
-16.685127 -25.538061 -2.133153 4 3206589383608 1 0
-14.800425 -20.395979 -2.0572193 21 3206589385912 1 0
-25.348768 -43.26358 1.4592975 24 3206589385912 1 0
-51.23743 -70.58702 1.5224781 29 3206589388216 1 0
-24.00469 -29.873604 -2.2318408 5 3206589390520 1 0
-16.973469 -28.95952 -2.1512759 4 3206589388216 1 0
-61.47151 -93.99798 6.5408726 28 3206589390520 1 0
-57.83258 -79.62407 4.0093412 29 3206589392824 1 0
-27.230871 -41.626343 -2.3170638 18 3206589392824 1 0
-27.909712 -38.41442 -2.48847 23 3206589395128 1 0
0 0 0 8 3206589397432 1 0
0 0 0 1 3206589395128 1 0
-25.382063 -43.248264 -2.043017 19 3206589397432 1 0
-40.58886 -50.4523 -2.2612083 21 3206589399736 1 0
0 0 0 9 3206589399736 1 0
0 0 0 29 3206589402040 1 0
-30.85097 -47.100357 -1.3101801 22 3206589402040 1 0
-2.2384996 -3.0697494 -1.7716157 4 3206589422776 1 0
-27.794657 -47.185966 -0.95590323 19 3206589422776 1 0
-51.446533 -70.52926 -2.5406508 28 3206589425080 1 0
-3.4944074 -5.318041 -1.781354 5 3206589425080 1 0
-5.4099383 -7.414346 -1.8356578 20 3206589427384 1 0
-30.993977 -47.153923 0 22 3206589427384 1 0
-52.100346 -64.51105 -0.9653717 14 3206589429688 1 0
-6.516456 -9.91093 -1.8453443 3 3206589429688 1 0
-9.066674 -12.418331 -1.9571575 11 3206589431992 1 0
-27.525118 -46.666275 0.3148895 37 3206589431992 1 0
-51.388172 -70.363235 -0.5064037 28 3206589434296 1 0
-8.24513 -12.53214 -1.6158803 16 3206589434296 1 0
-10.598091 -13.1109295 -1.5737289 13 3206589436600 1 0
-34.398567 -52.267357 1.4559934 14 3206589436600 1 0
-52.334026 -64.72332 0.96900374 28 3206589438904 1 0
-16.77417 -25.479664 -2.133153 4 3206589438904 1 0
-58.72581 -99.4319 3.3607712 44 3206589441208 1 0
-14.899762 -20.382814 -2.0611248 9 3206589441208 1 0
-51.46935 -70.38837 1.5220593 29 3206589443512 1 0
-17.074453 -28.900097 -2.1512759 4 3206589443512 1 0
-24.111336 -29.792734 -2.2320733 5 3206589445816 1 0
-61.678402 -93.59944 6.528082 28 3206589445816 1 0
-58.079487 -79.379776 4.0072246 29 3206589448120 1 0
-27.371609 -41.524364 -2.3166916 18 3206589448120 1 0
-27.956343 -38.1975 -2.4807243 23 3206589450424 1 0
0 0 0 1 3206589450424 1 0
-26.556465 -44.88963 -2.1249201 20 3206589452728 1 0
-40.900623 -50.478035 -2.2687464 21 3206589455032 1 0
0 0 0 9 3206589455032 1 0
0 0 0 8 3206589452728 1 0
0 0 0 29 3206589457336 1 0
-31.081276 -47.092506 -1.3129716 22 3206589457336 1 0
-2.2534938 -3.0677602 -1.7749968 4 3206589478072 1 0
-27.991867 -47.143677 -0.95702016 19 3206589478072 1 0
-51.574036 -70.18815 -2.5348327 28 3206589480376 1 0
-3.5129495 -5.305811 -1.781354 5 3206589480376 1 0
0 0 0 36 3206589482680 1 0
-31.233482 -47.158833 0 22 3206589482680 1 0
-52.087967 -64.03712 -0.9609947 14 3206589484984 1 0
-9.114669 -12.393001 -1.9581677 11 3206589487288 1 0
-6.551012 -9.888123 -1.8453443 4 3206589484984 1 0
-27.745083 -46.666176 0.3155404 37 3206589487288 1 0
-51.633472 -70.183426 -0.5064037 28 3206589489592 1 0
-8.326181 -12.559633 -1.6231629 15 3206589489592 1 0
-10.69911 -13.141804 -1.581908 1 3206589491896 1 0
-33.117744 -49.94071 1.3943926 12 3206589491896 1 0
-52.302013 -64.22391 0.9642542 28 3206589494200 1 0
-16.863008 -25.420956 -2.133153 4 3206589494200 1 0
-14.98264 -20.346731 -2.062752 6 3206589496504 1 0
-58.941635 -99.00643 3.353324 44 3206589496504 1 0
-51.69339 -70.1793 1.521431 29 3206589498808 1 0
-17.191568 -28.867756 -2.1533225 4 3206589498808 1 0
-24.29844 -29.810534 -2.2397478 5 3206589501112 1 0
-61.88989 -93.21059 6.515989 28 3206589501112 1 0
-58.39416 -79.228035 4.00983 29 3206589503416 1 0
-27.492073 -41.391956 -2.314644 9 3206589503416 1 0
-28.058691 -38.057884 -2.4780028 23 3206589505720 1 0
0 0 0 1 3206589505720 1 0
0 0 0 8 3206589508024 1 0
-26.680246 -44.741734 -2.1223147 10 3206589508024 1 0
-41.09427 -50.356636 -2.2697237 21 3206589510328 1 0
0 0 0 9 3206589510328 1 0
0 0 0 29 3206589512632 1 0
-31.318546 -47.09361 -1.3160424 22 3206589512632 1 0
-2.2641885 -3.0598752 -1.7749968 3 3206589533368 1 0
-51.708794 -69.86024 -2.5294802 28 3206589535672 1 0
-28.211714 -47.138336 -0.95890504 19 3206589533368 1 0
-3.5314102 -5.293542 -1.781354 4 3206589535672 1 0
-5.456793 -7.370172 -1.8340889 4 3206589537976 1 0
-31.506018 -47.213013 0 33 3206589537976 1 0
-52.033512 -63.518795 -0.9559192 14 3206589540280 1 0
-6.5830784 -9.862051 -1.8447294 6 3206589540280 1 0
-9.164599 -12.37094 -1.9596828 11 3206589542584 1 0
-27.961966 -46.662495 0.3161681 37 3206589542584 1 0
-50.83013 -68.59383 -0.49619794 28 3206589544888 1 0
-8.400441 -12.577097 -1.6291603 15 3206589544888 1 0
-10.822625 -13.200321 -1.5934331 1 3206589547192 1 0
-52.268982 -63.73435 0.95959777 28 3206589549496 1 0
-51.661785 -77.32462 2.1639373 28 3206589547192 1 0
-16.948133 -25.359484 -2.132874 4 3206589549496 1 0
-15.035767 -20.272768 -2.060474 3 3206589551800 1 0
-59.08159 -98.47096 3.342037 44 3206589551800 1 0
-17.269804 -28.774475 -2.1507642 4 3206589554104 1 0
-24.405256 -29.733482 -2.2402127 5 3206589556408 1 0
-62.103767 -92.84251 6.505059 28 3206589556408 1 0
-51.940613 -70.01146 1.5216404 29 3206589554104 1 0
-59.104748 -79.6221 4.039953 29 3206589558712 1 0
-27.58198 -41.22157 -2.3103633 9 3206589558712 1 0
-28.080894 -37.81785 -2.4685824 22 3206589561016 1 0
0 0 0 1 3206589561016 1 0
-26.834099 -44.654293 -2.1224775 10 3206589563320 1 0
0 0 0 8 3206589563320 1 0
-41.381428 -50.359158 -2.2761452 21 3206589565624 1 0
0 0 0 9 3206589565624 1 0
0 0 0 29 3206589567928 1 0
-31.60893 -47.18345 -1.3215325 34 3206589567928 1 0
-2.272157 -3.0494432 -1.7733063 4 3206589588664 1 0
-50.50037 -67.754524 -2.4593136 28 3206589590968 1 0
-28.433962 -47.15412 -0.9611389 29 3206589588664 1 0
-3.55117 -5.2849474 -1.7824323 5 3206589590968 1 0
-5.483762 -7.355021 -1.8348733 4 3206589593272 1 0
-31.748573 -47.233505 0 34 3206589593272 1 0
-51.98449 -63.025803 -0.95112306 14 3206589595576 1 0
-6.6183805 -9.843158 -1.8453443 4 3206589595576 1 0
-9.208663 -12.343126 -1.9601879 11 3206589597880 1 0
-28.183355 -46.674026 0.31688878 37 3206589597880 1 0
-50.794353 -68.06214 -0.4935942 28 3206589600184 1 0
-8.469655 -12.588153 -1.634301 15 3206589600184 1 0
0 0 0 33 3206589602488 1 0
-51.533905 -76.567795 2.147653 28 3206589602488 1 0
-52.234375 -63.250008 0.9549879 28 3206589604792 1 0
-17.045855 -25.317957 -2.134269 4 3206589604792 1 0
-15.083791 -20.192293 -2.0575447 3 3206589607096 1 0
-59.692326 -98.719215 3.3573966 44 3206589607096 1 0
-52.102634 -69.72628 1.5193367 29 3206589609400 1 0
-17.381283 -28.73527 -2.1522992 4 3206589609400 1 0
-24.602169 -29.762703 -2.2488174 5 3206589611704 1 0
-59.266285 -79.26253 4.0321374 29 3206589614008 1 0
-62.31096 -92.45809 6.4931984 28 3206589611704 1 0
-27.709469 -41.10225 -2.3090606 9 3206589614008 1 0
-28.210339 -37.7164 -2.468373 11 3206589616312 1 0
0 0 0 1 3206589616312 1 0
0 0 0 8 3206589618616 1 0
-26.949045 -44.49159 -2.119221 10 3206589618616 1 0
-41.68841 -50.370255 -2.2832646 21 3206589620920 1 0
0 0 0 9 3206589620920 1 0
0 0 0 29 3206589623224 1 0
-31.84709 -47.1775 -1.3245101 34 3206589623224 1 0
-2.2833185 -3.0410948 -1.7733063 4 3206589643960 1 0
-28.677242 -47.16578 -0.9635125 19 3206589643960 1 0
-50.608604 -67.38392 -2.4525647 28 3206589646264 1 0
-3.5704782 -5.271922 -1.7824323 4 3206589646264 1 0
-5.5129313 -7.338089 -1.8356578 5 3206589648568 1 0
-31.99483 -47.22657 0 22 3206589648568 1 0
-50.135548 -60.334972 -0.91326624 13 3206589650872 1 0
-6.6564164 -9.822251 -1.8459592 3 3206589650872 1 0
-9.251099 -12.306389 -1.9596828 11 3206589653176 1 0
-28.413202 -46.67032 0.31756297 37 3206589653176 1 0
-50.730892 -67.464966 -0.49059525 57 3206589655480 1 0
-8.544296 -12.600125 -1.63987 14 3206589655480 1 0
-10.986396 -13.209705 -1.6038429 22 3206589657784 1 0
-51.45393 -75.85446 2.1328578 28 3206589657784 1 0
-52.240086 -62.793297 0.9509368 28 3206589660088 1 0
-17.130527 -25.246279 -2.133432 4 3206589660088 1 0
-15.202078 -20.198277 -2.0637286 3 3206589662392 1 0
-59.236362 -97.171814 3.3120155 44 3206589662392 1 0
-50.806557 -67.48382 1.4744492 29 3206589664696 1 0
-17.482533 -28.669107 -2.1520433 4 3206589664696 1 0
-24.6195 -29.566725 -2.2406778 5 3206589667000 1 0
-62.54399 -92.088295 6.482966 28 3206589667000 1 0
-50.900005 -67.56703 3.4464412 29 3206589669304 1 0
-27.858894 -41.005947 -2.3092465 9 3206589669304 1 0
-28.453283 -37.75878 -2.4777935 11 3206589671608 1 0
0 0 0 8 3206589673912 1 0
0 0 0 1 3206589671608 1 0
-27.166056 -44.49059 -2.1237803 10 3206589673912 1 0
-41.993065 -50.37184 -2.2901049 22 3206589676216 1 0
0 0 0 9 3206589676216 1 0
0 0 0 29 3206589678520 1 0
-2.2961068 -3.0359974 -1.7749968 4 3206589699256 1 0
-32.093376 -47.179676 -1.327767 23 3206589678520 1 0
-28.89186 -47.14723 -0.9651879 19 3206589699256 1 0
-50.857986 -67.22598 -2.4532628 28 3206589701560 1 0
-3.59103 -5.2626085 -1.7835106 5 3206589701560 1 0
-5.5408797 -7.321928 -1.8364424 4 3206589703864 1 0
-32.24067 -47.233532 0 22 3206589703864 1 0
-51.878326 -61.9908 -0.9410652 14 3206589706168 1 0
-6.690662 -9.798956 -1.8459592 2 3206589706168 1 0
-9.294 -12.274022 -1.9596828 12 3206589708472 1 0
-28.640789 -46.676544 0.31828365 37 3206589708472 1 0
-50.751133 -67.00369 -0.48852623 28 3206589710776 1 0
-8.624124 -12.622764 -1.6467242 16 3206589710776 1 0
-11.052898 -13.195701 -1.606817 13 3206589713080 1 0
-51.43184 -75.255104 2.12104 28 3206589713080 1 0
-50.4913 -60.26213 0.91526854 27 3206589715384 1 0
-15.2700815 -20.14191 -2.0634031 3 3206589717688 1 0
-17.214045 -25.179739 -2.132874 4 3206589715384 1 0
-52.467625 -69.18621 1.5156368 29 3206589719992 1 0
-59.522865 -96.87928 3.3091063 44 3206589717688 1 0
-17.59713 -28.631712 -2.153834 4 3206589719992 1 0
-24.568602 -29.297022 -2.2267244 5 3206589722296 1 0
-62.822212 -91.8068 6.4785476 28 3206589722296 1 0
-27.988321 -40.888668 -2.3081298 9 3206589724600 1 0
-59.72418 -78.707466 4.0252986 29 3206589724600 1 0
0 0 0 1 3206589726904 1 0
-28.596987 -37.67514 -2.47884 11 3206589726904 1 0
0 0 0 8 3206589729208 1 0
-27.367273 -44.470375 -2.1273625 10 3206589729208 1 0
0 0 0 9 3206589731512 1 0
0 0 0 29 3206589733816 1 0
-42.27917 -50.356598 -2.2961078 22 3206589731512 1 0
-32.33021 -47.172916 -1.3307446 23 3206589733816 1 0
-2.3044937 -3.0250802 -1.7733063 4 3206589754552 1 0
-29.157133 -47.209423 -0.96853876 29 3206589754552 1 0
-52.064117 -68.3233 -2.4999242 28 3206589756856 1 0
-3.6050136 -5.2436934 -1.781354 4 3206589756856 1 0
-5.5640264 -7.2994227 -1.8356578 4 3206589759160 1 0
-32.47788 -47.22617 0 34 3206589759160 1 0
-51.880455 -61.55549 -0.9372003 28 3206589761464 1 0
-6.731546 -9.785311 -1.847804 3 3206589761464 1 0
-9.331975 -12.235195 -1.9586726 24 3206589763768 1 0
-28.872972 -46.68855 0.31905082 37 3206589763768 1 0
-52.48412 -68.79142 -0.50289327 28 3206589766072 1 0
-8.704212 -12.644998 -1.6535784 16 3206589766072 1 0
0 0 0 28 3206589768376 1 0
-51.32455 -74.538246 2.1058724 28 3206589768376 1 0
-52.03749 -61.66897 0.9393889 28 3206589770680 1 0
-17.29957 -25.11621 -2.1325948 4 3206589770680 1 0
-15.347555 -20.097992 -2.0643795 3 3206589772984 1 0
-52.517017 -68.751564 1.5101218 58 3206589775288 1 0
-59.749115 -96.49075 3.3029392 44 3206589772984 1 0
-17.74111 -28.641376 -2.1592066 4 3206589775288 1 0
-24.794394 -29.357521 -2.2378871 5 3206589777592 1 0
-62.9927 -91.369965 6.4631987 28 3206589777592 1 0
-52.60097 -68.81996 3.5289955 29 3206589779896 1 0
-28.112732 -40.76441 -2.3066409 18 3206589779896 1 0
-28.716194 -37.559223 -2.4777935 11 3206589782200 1 0
0 0 0 1 3206589782200 1 0
-52.671673 -68.870926 7.0780582 28 3206589784504 1 0
-42.59149 -50.370495 -2.3035064 22 3206589786808 1 0
-27.507591 -44.3508 -2.1262226 10 3206589784504 1 0
0 0 0 9 3206589786808 1 0
0 0 0 29 3206589789112 1 0
-32.57875 -47.18153 -1.3341876 23 3206589789112 1 0
-2.312832 -3.0141416 -1.7716157 5 3206589810296 1 0
-29.359789 -47.168472 -0.96979535 29 3206589810296 1 0
-52.046673 -67.80812 -2.4877062 28 3206589812600 1 0
-3.6254888 -5.234244 -1.7824323 5 3206589812600 1 0
-5.5870833 -7.276845 -1.8348733 4 3206589814904 1 0
-51.854294 -61.090427 -0.93286985 28 3206589817208 1 0
-6.756656 -9.748759 -1.8453443 6 3206589817208 1 0
-32.72454 -47.23088 0 34 3206589814904 1 0
-9.369792 -12.196253 -1.9576626 27 3206589819512 1 0
-29.097124 -46.68592 0.319725 37 3206589819512 1 0
-52.463135 -68.26843 -0.5004058 28 3206589821816 1 0
-8.780028 -12.66029 -1.6595758 16 3206589821816 1 0
-11.242739 -13.233554 -1.6209445 3 3206589824120 1 0
-51.38612 -74.072784 2.097777 28 3206589824120 1 0
-52.006382 -61.197403 0.93496525 28 3206589826424 1 0
-17.391687 -25.06223 -2.133153 4 3206589826424 1 0
-15.412756 -20.037975 -2.0637286 3 3206589828728 1 0
-52.485977 -68.21598 1.502373 58 3206589831032 1 0
-59.99031 -96.12896 3.297703 44 3206589828728 1 0
-17.862118 -28.613136 -2.1617649 4 3206589831032 1 0
-24.883783 -29.255585 -2.2367244 5 3206589833336 1 0
-63.20419 -90.99538 6.4522686 28 3206589833336 1 0
-28.193296 -40.57743 -2.3016155 9 3206589835640 1 0
-28.8325 -37.439766 -2.4765375 11 3206589837944 1 0
-52.514175 -68.21156 3.5071764 29 3206589835640 1 0
0 0 0 1 3206589837944 1 0
-52.66116 -68.36134 7.044536 28 3206589840248 1 0
-27.664356 -44.2579 -2.1263855 10 3206589840248 1 0
-42.90183 -50.37978 -2.3107655 23 3206589842552 1 0
0 0 0 9 3206589842552 1 0
0 0 0 29 3206589844856 1 0
-32.818607 -47.17585 -1.3372583 34 3206589844856 1 0
-2.3299901 -3.0146549 -1.7766871 4 3206589865592 1 0
-29.607145 -47.197834 -0.9725179 30 3206589865592 1 0
-39.556126 -51.16503 -1.8821576 22 3206589867896 1 0
-3.6414955 -5.2184243 -1.781354 5 3206589867896 1 0
-5.6171436 -7.2635856 -1.8364424 3 3206589870200 1 0
-32.975525 -47.241478 0 23 3206589870200 1 0
-51.800808 -60.60007 -0.92812026 28 3206589872504 1 0
-6.794958 -9.731745 -1.8465742 5 3206589872504 1 0
-9.414382 -12.166883 -1.9581677 20 3206589874808 1 0
-29.32238 -46.68654 0.3204224 37 3206589874808 1 0
-52.40485 -67.70723 -0.49761605 28 3206589877112 1 0
-8.86015 -12.682048 -1.6664301 16 3206589877112 1 0
0 0 0 20 3206589879416 1 0
-51.26776 -73.36093 2.0826094 28 3206589879416 1 0
-51.961723 -60.72034 0.9304019 28 3206589881720 1 0
-17.468647 -24.989176 -2.132037 4 3206589881720 1 0
-15.493652 -20.000713 -2.0653558 3 3206589884024 1 0
-52.44741 -67.6849 1.4946241 58 3206589886328 1 0
-60.268833 -95.84125 3.2949102 44 3206589884024 1 0
-18.017405 -28.643017 -2.1686723 4 3206589886328 1 0
-25.004412 -29.194626 -2.2385848 5 3206589888632 1 0
-63.43471 -90.66431 6.444129 28 3206589888632 1 0
-52.49183 -67.70357 3.4902422 29 3206589890936 1 0
-28.324656 -40.471214 -2.301057 9 3206589890936 1 0
-28.969547 -37.354046 -2.4773748 11 3206589893240 1 0
0 0 0 1 3206589893240 1 0
-52.563126 -67.75685 7.0005994 28 3206589895544 1 0
-27.874138 -44.258385 -2.1309447 10 3206589895544 1 0
-43.098335 -50.26445 -2.3121614 23 3206589897848 1 0
0 0 0 9 3206589897848 1 0
0 0 0 29 3206589900152 1 0
-33.06515 -47.189053 -1.3407943 23 3206589900152 1 0
-2.3377478 -3.004051 -1.7749968 4 3206589920888 1 0
-29.799816 -47.156868 -0.97370464 30 3206589920888 1 0
0 0 0 16 3206589923192 1 0
-3.6655004 -5.2157216 -1.7845889 5 3206589923192 1 0
-5.6414104 -7.2447543 -1.8364424 3 3206589925496 1 0
-33.204685 -47.232346 0 34 3206589925496 1 0
-51.74843 -60.128597 -0.923557 27 3206589927800 1 0
-6.832163 -9.715326 -1.847804 3 3206589927800 1 0
-9.472455 -12.156958 -1.9617032 8 3206589930104 1 0
-29.543913 -46.688732 0.32111984 38 3206589930104 1 0
-52.334003 -67.144356 -0.49477983 28 3206589932408 1 0
-8.937408 -12.700736 -1.6728559 16 3206589932408 1 0
-11.4501 -13.292013 -1.6376745 22 3206589934712 1 0
-51.183376 -72.71187 2.0691168 28 3206589934712 1 0
-51.913086 -60.24544 0.92583865 28 3206589937016 1 0
-17.560848 -24.939112 -2.132874 4 3206589937016 1 0
-15.554856 -19.937983 -2.0643795 3 3206589939320 1 0
0 0 0 3 3206589939320 1 0
-52.36546 -67.100136 1.4856884 29 3206589941624 1 0
-18.041233 -28.462736 -2.1597183 4 3206589941624 1 0
-25.084457 -29.083704 -2.2367244 5 3206589943928 1 0
-63.642345 -90.29404 6.4334316 28 3206589943928 1 0
-52.456276 -67.174194 3.472331 29 3206589946232 1 0
-28.472075 -40.38231 -2.3016155 9 3206589946232 1 0
-29.099762 -37.252697 -2.4773748 11 3206589948536 1 0
0 0 0 1 3206589948536 1 0
-28.029102 -44.160408 -2.1309447 10 3206589950840 1 0
-52.47874 -67.16067 6.9579644 28 3206589950840 1 0
0 0 0 9 3206589953144 1 0
-43.366432 -50.218338 -2.3170474 23 3206589953144 1 0
0 0 0 29 3206589955448 1 0
-33.273235 -47.1307 -1.3424693 34 3206589955448 1 0
-2.3487425 -2.9954624 -1.7749968 4 3206589976184 1 0
0 0 0 9 3206589978488 1 0
-3.6822903 -5.199162 -1.7835106 5 3206589978488 1 0
-30.05626 -47.17888 -0.97642726 30 3206589976184 1 0
-5.672558 -7.2303653 -1.8380113 3 3206589980792 1 0
-33.24903 -46.93178 0 34 3206589980792 1 0
-6.876444 -9.703419 -1.8502636 4 3206589983096 1 0
-51.732666 -59.67182 -0.91941273 27 3206589983096 1 0
-9.506443 -12.110227 -1.9596828 5 3206589985400 1 0
-29.78311 -46.69315 0.32188702 38 3206589985400 1 0
-52.320442 -66.63188 -0.49238533 28 3206589987704 1 0
-9.012882 -12.710721 -1.678425 16 3206589987704 1 0
0 0 0 56 3206589990008 1 0
-51.107746 -72.05532 2.055624 28 3206589990008 1 0
-51.873127 -59.76707 0.92132187 27 3206589992312 1 0
-17.654222 -24.882885 -2.133432 4 3206589992312 1 0
-15.627978 -19.88579 -2.064705 3 3206589994616 1 0
0 0 0 3 3206589994616 1 0
-52.342754 -66.5845 1.4783584 58 3206589996920 1 0
-25.207619 -29.019352 -2.2385848 5 3206589999224 1 0
-18.15246 -28.415615 -2.1609974 4 3206589996920 1 0
-63.834915 -89.893654 6.4208736 28 3206589999224 1 0
-52.424557 -66.65064 3.4547455 29 3206590001528 1 0
-28.599564 -40.262714 -2.3004987 9 3206590001528 1 0
-29.24691 -37.172867 -2.47884 11 3206590003832 1 0
0 0 0 1 3206590003832 1 0
-52.5097 -66.72094 6.931277 28 3206590006136 1 0
-28.19536 -44.08291 -2.1319218 10 3206590006136 1 0
-43.56099 -50.092056 -2.318164 23 3206590008440 1 0
0 0 0 9 3206590008440 1 0
0 0 0 29 3206590010744 1 0
-33.28254 -46.80064 -1.3363278 46 3206590010744 1 0
-2.3564167 -2.9848118 -1.7733063 4 3206590031480 1 0
-30.301107 -47.21695 -0.9792894 30 3206590031480 1 0
-39.90532 -50.53192 -1.8738959 22 3206590033784 1 0
-3.697312 -5.183759 -1.7824323 4 3206590033784 1 0
-5.694177 -7.208354 -1.8372267 3 3206590036088 1 0
-33.379604 -46.78496 0 92 3206590036088 1 0
-51.818462 -59.369236 -0.9174105 13 3206590038392 1 0
-6.9110913 -9.683629 -1.8508785 4 3206590038392 1 0
-30.010498 -46.704308 0.3226542 38 3206590040696 1 0
-50.46213 -63.823586 -0.47288054 28 3206590043000 1 0
-9.0831785 -12.719272 -1.6835656 16 3206590043000 1 0
-11.641608 -13.326234 -1.651802 1 3206590045304 1 0
-9.54444 -12.075245 -1.9591777 5 3206590040696 1 0
-51.154293 -71.60987 2.0478077 28 3206590045304 1 0
-51.881943 -59.372208 0.9179227 27 3206590047608 1 0
-17.742542 -24.829796 -2.13399 4 3206590047608 1 0
-15.702412 -19.842323 -2.0656812 3 3206590049912 1 0
-52.26974 -66.03082 1.4699813 29 3206590052216 1 0
-51.61376 -80.22206 2.7761679 32 3206590049912 1 0
-18.248446 -28.354069 -2.1609974 4 3206590052216 1 0
-25.290041 -28.915726 -2.2371895 5 3206590054520 1 0
-64.04162 -89.5404 6.411106 28 3206590054520 1 0
-50.618237 -63.906315 3.3213885 29 3206590056824 1 0
-29.231857 -36.894653 -2.4669077 11 3206590059128 1 0
0 0 0 1 3206590059128 1 0
-52.474476 -66.210266 6.896778 28 3206590061432 1 0
-28.393175 -44.0604 -2.135504 10 3206590061432 1 0
-28.808208 -40.266094 -2.3062687 9 3206590056824 1 0
0 0 0 86 3206590063736 1 0
0 0 0 9 3206590063736 1 0
0 0 0 29 3206590066040 1 0
-33.44032 -46.683117 -1.3362348 93 3206590066040 1 0
-2.37359 -2.9850807 -1.7783777 4 3206590086776 1 0
-30.50266 -47.167984 -0.9804762 30 3206590086776 1 0
-40.19098 -50.530003 -1.8790158 45 3206590089080 1 0
-3.7153842 -5.1708217 -1.7824323 4 3206590089080 1 0
-5.719304 -7.1884336 -1.8372267 3 3206590091384 1 0
-33.59407 -46.73962 0 69 3206590091384 1 0
0 0 0 91 3206590093688 1 0
-9.5890045 -12.044959 -1.9596828 4 3206590095992 1 0
-6.933315 -9.6434 -1.847804 2 3206590093688 1 0
-30.245087 -46.710064 0.32342136 38 3206590095992 1 0
-52.264378 -65.63084 -0.48761955 28 3206590098296 1 0
0 0 0 2 3206590098296 1 0
0 0 0 15 3206590100600 1 0
-51.11197 -71.02515 2.0361762 28 3206590100600 1 0
-33.740314 -38.34052 0.59457994 17 3206590102904 1 0
-17.812788 -24.74504 -2.132037 4 3206590102904 1 0
-15.7690935 -19.784273 -2.0653558 3 3206590105208 1 0
-51.458454 -79.37042 2.7528954 33 3206590105208 1 0
-52.268044 -65.557144 1.4634889 58 3206590107512 1 0
-18.323416 -28.253357 -2.158183 4 3206590107512 1 0
-25.39874 -28.83626 -2.2378871 5 3206590109816 1 0
-64.21838 -89.128395 6.397618 28 3206590109816 1 0
-52.326504 -65.59131 3.4184346 29 3206590112120 1 0
-28.962605 -40.18474 -2.3073854 9 3206590112120 1 0
-29.255821 -36.661255 -2.458115 11 3206590114424 1 0
0 0 0 1 3206590114424 1 0
-52.35956 -65.5936 6.8515396 28 3206590116728 1 0
-28.688284 -44.178898 -2.146088 10 3206590116728 1 0
-33.774265 -38.300396 -1.7832247 74 3206590119032 1 0
0 0 0 9 3206590119032 1 0
0 0 0 29 3206590121336 1 0
-33.68029 -46.673115 -1.3393055 69 3206590121336 1 0
-2.3839953 -2.9767773 -1.7783777 4 3206590142072 1 0
-30.756645 -47.198605 -0.9833384 30 3206590142072 1 0
-40.46961 -50.51734 -1.8837867 45 3206590144376 1 0
-3.7334113 -5.157821 -1.7824323 4 3206590144376 1 0
-5.7468143 -7.171487 -1.8380113 2 3206590146680 1 0
0 0 0 56 3206590148984 1 0
0 0 0 3 3206590146680 1 0
-6.969253 -9.62234 -1.8484188 2 3206590148984 1 0
-9.630991 -12.011414 -1.9596828 4 3206590151288 1 0
-30.477894 -46.711403 0.32416528 38 3206590151288 1 0
-52.117756 -64.97996 -0.4841324 28 3206590153592 1 0
-9.267439 -12.78758 -1.7011296 2 3206590153592 1 0
-51.34315 -70.82363 2.0355248 28 3206590155896 1 0
-11.863771 -13.390705 -1.670019 22 3206590155896 1 0
-34.078213 -38.453 0.5981654 17 3206590158200 1 0
-17.903742 -24.689173 -2.1325948 4 3206590158200 1 0
-15.835562 -19.725998 -2.0650303 3 3206590160504 1 0
-51.516518 -78.85559 2.741259 33 3206590160504 1 0
-52.221107 -65.031265 1.45581 58 3206590162808 1 0
-18.413193 -28.175858 -2.1571598 4 3206590162808 1 0
-25.485994 -28.73249 -2.2367244 5 3206590165112 1 0
-64.41183 -88.7421 6.38599 28 3206590165112 1 0
-52.282276 -65.068665 3.4006863 29 3206590167416 1 0
-29.13087 -40.122196 -2.309619 9 3206590167416 1 0
-29.40113 -36.580704 -2.4595807 11 3206590169720 1 0
0 0 0 1 3206590169720 1 0
-28.870771 -44.121964 -2.1482046 10 3206590172024 1 0
-52.3384 -65.099724 6.8189936 28 3206590172024 1 0
0 0 0 10 3206590174328 1 0
0 0 0 9 3206590174328 1 0
0 0 0 29 3206590176632 1 0
0 0 0 1 3206590176632 1 0
-2.3898196 -2.962794 -1.7749968 4 3206590197368 1 0
-31.011213 -47.228024 -0.9862006 30 3206590197368 1 0
-40.994686 -50.808296 -1.899961 46 3206590199672 1 0
-3.7559316 -5.1509824 -1.7845889 4 3206590199672 1 0
-5.779203 -7.1605396 -1.8403647 3 3206590201976 1 0
-51.47805 -70.576775 0 28 3206590201976 1 0
0 0 0 28 3206590204280 1 0
-7.0144467 -9.613919 -1.8514934 2 3206590204280 1 0
-9.675353 -11.980809 -1.9601879 4 3206590206584 1 0
-30.711079 -46.71168 0.3249092 38 3206590206584 1 0
-52.11553 -64.51449 -0.48201686 28 3206590208888 1 0
-9.35892 -12.819394 -1.7096972 18 3206590208888 1 0
-11.952865 -13.39676 -1.6759675 4 3206590211192 1 0
-51.38016 -70.35656 2.0272431 28 3206590211192 1 0
-34.278812 -38.408413 0.59932953 17 3206590213496 1 0
-17.940384 -24.558863 -2.1267354 4 3206590213496 1 0
-15.911841 -19.679903 -2.0660067 3 3206590215800 1 0
-51.51665 -78.25783 2.726714 33 3206590215800 1 0
-52.198807 -64.54073 1.4488988 58 3206590218104 1 0
-18.520214 -28.124748 -2.158183 4 3206590218104 1 0
-64.71885 -88.513504 6.3857574 28 3206590220408 1 0
-52.25264 -64.56887 3.3840775 29 3206590222712 1 0
-29.256592 -40.000916 -2.3085022 9 3206590222712 1 0
-25.594114 -28.652287 -2.237422 5 3206590220408 1 0
-30.325356 -37.462063 -2.5259426 11 3206590225016 1 0
0 0 0 1 3206590225016 1 0
-52.266773 -64.54793 6.7802644 28 3206590227320 1 0
-29.14341 -44.2011 -2.1569974 10 3206590227320 1 0
-44.8015 -50.09602 -2.3469214 24 3206590229624 1 0
0 0 0 9 3206590229624 1 0
-51.62106 -70.49251 -2.0331054 29 3206590231928 1 0
-2.3978615 -2.95162 -1.7733063 5 3206590252664 1 0
-31.213398 -47.176186 -0.98738736 30 3206590252664 1 0
0 0 0 29 3206590231928 1 0
-3.7738888 -5.1378403 -1.7845889 4 3206590254968 1 0
-5.7992144 -7.1342354 -1.8387957 3 3206590257272 1 0
-41.08858 -50.562492 -1.896121 23 3206590254968 1 0
-51.738304 -70.41599 0 28 3206590257272 1 0
-51.546844 -57.419647 -0.8983191 13 3206590259576 1 0
-7.0479627 -9.5893755 -1.8514934 2 3206590259576 1 0
-9.719619 -11.950041 -1.960693 4 3206590261880 1 0
-30.949055 -46.71757 0.32569966 39 3206590261880 1 0
-52.09302 -64.028114 -0.4797386 28 3206590264184 1 0
-9.429529 -12.82189 -1.7144096 26 3206590264184 1 0
-12.079411 -13.44383 -1.6871207 1 3206590266488 1 0
-51.599373 -70.14135 2.0262196 28 3206590266488 1 0
-51.68986 -57.511616 0.90022826 26 3206590268792 1 0
-18.082762 -24.573223 -2.133432 4 3206590268792 1 0
-15.977923 -19.62115 -2.0656812 3 3206590271096 1 0
-51.457993 -77.57773 2.7092595 34 3206590271096 1 0
-52.1131 -63.976723 1.4403121 58 3206590273400 1 0
-18.616068 -28.056602 -2.1579273 4 3206590273400 1 0
-64.814285 -87.99768 6.3648276 28 3206590275704 1 0
-25.629879 -28.49152 -2.2318408 5 3206590275704 1 0
-52.20753 -64.054596 3.3666549 29 3206590278008 1 0
-29.415005 -39.924282 -2.3099911 9 3206590278008 1 0
-30.329733 -37.20118 -2.5154755 11 3206590280312 1 0
0 0 0 1 3206590280312 1 0
-52.227203 -64.04068 6.7460914 28 3206590282616 1 0
-29.385988 -44.23226 -2.1635106 10 3206590282616 1 0
-45.243618 -50.236374 -2.360881 25 3206590284920 1 0
0 0 0 9 3206590284920 1 0
0 0 0 29 3206590287224 1 0
-51.733875 -70.131676 -2.0278945 29 3206590287224 1 0
-2.40815 -2.943232 -1.7733063 5 3206590307960 1 0
-31.499899 -47.24997 -0.99122685 30 3206590307960 1 0
-41.37372 -50.551807 -1.9011246 46 3206590310264 1 0
-3.7940915 -5.1277323 -1.7856672 4 3206590310264 1 0
-5.826567 -7.116984 -1.8395802 3 3206590312568 1 0
-51.855286 -70.06135 0 28 3206590312568 1 0
-51.553837 -57.02574 -0.8949665 13 3206590314872 1 0
-7.0884485 -9.574245 -1.8533381 2 3206590314872 1 0
-9.763787 -11.91911 -1.9611981 4 3206590317176 1 0
-31.187445 -46.72237 0.32649007 39 3206590317176 1 0
-52.055077 -63.52721 -0.4773441 28 3206590319480 1 0
-9.500269 -12.824048 -1.7191218 22 3206590319480 1 0
0 0 0 10 3206590321784 1 0
-51.8439 -69.96081 2.0262196 28 3206590321784 1 0
-51.656788 -57.07284 0.8961772 25 3206590324088 1 0
-18.151794 -24.487513 -2.1314788 4 3206590324088 1 0
0 0 0 55 3206590326392 1 0
-51.384106 -76.882385 2.6912234 34 3206590326392 1 0
-52.07229 -63.472855 1.433052 58 3206590328696 1 0
-18.724983 -28.008041 -2.1592066 4 3206590328696 1 0
-25.782797 -28.461071 -2.236492 5 3206590331000 1 0
-65.09489 -87.73563 6.3622694 28 3206590331000 1 0
-52.17215 -63.55687 3.3500464 29 3206590333304 1 0
-29.556568 -39.82457 -2.3101773 9 3206590333304 1 0
-30.64952 -37.32662 -2.531176 11 3206590335608 1 0
0 0 0 1 3206590335608 1 0
-52.18474 -63.534508 6.7119184 28 3206590337912 1 0
-29.557995 -44.155983 -2.1648133 10 3206590337912 1 0
-45.55298 -50.226192 -2.367861 25 3206590340216 1 0
0 0 0 9 3206590340216 1 0
-51.918736 -69.870415 -2.0255682 29 3206590342520 1 0
-2.4253254 -2.9432013 -1.7783777 4 3206590363256 1 0
0 0 0 29 3206590342520 1 0
-31.760532 -47.282482 -0.99422866 30 3206590363256 1 0
-41.661823 -50.542828 -1.9062445 23 3206590365560 1 0
-3.8096657 -5.1113687 -1.7845889 5 3206590365560 1 0
-5.8563647 -7.102655 -1.8411491 3 3206590367864 1 0
-52.087574 -69.86388 0 28 3206590367864 1 0
-51.483315 -56.549675 -0.89031005 13 3206590370168 1 0
-7.1171 -9.543107 -1.8521084 2 3206590370168 1 0
-9.812909 -11.894138 -1.9627132 4 3206590372472 1 0
-31.428476 -46.729385 0.32730374 39 3206590372472 1 0
-51.95572 -62.9564 -0.47441489 28 3206590374776 1 0
0 0 0 8 3206590374776 1 0
-12.288317 -13.485758 -1.7031071 24 3206590377080 1 0
-52.044735 -69.72173 2.0245445 28 3206590377080 1 0
-51.60512 -56.617264 0.89184666 25 3206590379384 1 0
-18.251486 -24.443186 -2.133153 4 3206590379384 1 0
-11.089994 -13.426163 -1.4216001 57 3206590381688 1 0
-51.3864 -76.3079 2.6773765 35 3206590381688 1 0
-52.028603 -62.97006 1.4257917 58 3206590383992 1 0
-18.829327 -27.952442 -2.159974 4 3206590383992 1 0
-21.088827 -23.11681 -1.8223095 4 3206590386296 1 0
-65.25492 -87.31275 6.3480835 28 3206590386296 1 0
-52.136482 -63.063255 3.3336005 29 3206590388600 1 0
-29.731289 -39.769157 -2.3129692 9 3206590388600 1 0
-29.891191 -36.14509 -2.458115 11 3206590390904 1 0
0 0 0 1 3206590390904 1 0
-52.15208 -63.04477 6.6793723 28 3206590393208 1 0
-29.803576 -44.18839 -2.1714892 10 3206590393208 1 0
-45.728024 -50.066875 -2.367861 25 3206590395512 1 0
0 0 0 9 3206590395512 1 0
0 0 0 29 3206590397816 1 0
-50.95219 -68.07204 -1.9785765 29 3206590397816 1 0
-2.4355843 -2.9347174 -1.7783777 4 3206590418552 1 0
-41.960583 -50.544758 -1.91183 23 3206590420856 1 0
-32.01505 -47.303814 -0.9970211 30 3206590418552 1 0
-3.829797 -5.10112 -1.7856672 4 3206590420856 1 0
-5.881122 -7.082169 -1.8411491 2 3206590423160 1 0
-50.79862 -67.641014 0 28 3206590423160 1 0
-51.47227 -56.14261 -0.8867246 13 3206590425464 1 0
-7.152742 -9.521365 -1.8527232 2 3206590425464 1 0
-9.84676 -11.8506565 -1.9611981 4 3206590427768 1 0
-31.663204 -46.725357 0.32804766 39 3206590427768 1 0
-50.132336 -60.31683 -0.45584002 54 3206590430072 1 0
-9.670814 -12.865499 -1.733687 2 3206590430072 1 0
-52.239727 -69.47571 2.0226836 28 3206590432376 1 0
-12.3784 -13.489733 -1.7090555 6 3206590432376 1 0
-51.599586 -56.215786 0.88835436 25 3206590434680 1 0
-18.339096 -24.382517 -2.133432 4 3206590434680 1 0
0 0 0 28 3206590436984 1 0
-51.31572 -75.63177 2.6599221 35 3206590436984 1 0
-50.198997 -60.325603 1.3698742 55 3206590439288 1 0
-18.935751 -27.899755 -2.1609974 4 3206590439288 1 0
-21.020805 -22.881319 -1.8095189 4 3206590441592 1 0
-65.45363 -86.94406 6.337851 28 3206590441592 1 0
-50.24394 -60.3439 3.1991038 29 3206590443896 1 0
-29.91079 -39.719395 -2.3161333 9 3206590443896 1 0
0 0 0 1 3206590446200 1 0
-52.119194 -62.5591 6.647152 28 3206590448504 1 0
-30.049742 -44.21962 -2.1781652 10 3206590448504 1 0
-29.97372 -35.988346 -2.4545565 11 3206590446200 1 0
-45.764496 -49.756893 -2.3607416 25 3206590450808 1 0
0 0 0 9 3206590450808 1 0
0 0 0 29 3206590453112 1 0
-50.840416 -67.43077 -1.965084 87 3206590453112 1 0
-2.4411635 -2.9206347 -1.7749968 4 3206590474296 1 0
-32.285877 -47.347073 -1.0003021 31 3206590474296 1 0
-42.259865 -50.54522 -1.9174153 23 3206590476600 1 0
-3.84758 -5.0877204 -1.7856672 4 3206590476600 1 0
-5.915873 -7.073632 -1.844287 2 3206590478904 1 0
-52.477516 -69.37093 0 28 3206590478904 1 0
-51.45901 -55.736313 -0.88313913 13 3206590481208 1 0
-7.193089 -9.5057955 -1.854568 2 3206590481208 1 0
-9.903345 -11.834471 -1.9642285 2 3206590483512 1 0
-31.905052 -46.730167 0.32886133 39 3206590483512 1 0
-51.83683 -61.92657 -0.46937016 28 3206590485816 1 0
-9.749273 -12.876052 -1.7396845 2 3206590485816 1 0
-12.520015 -13.548819 -1.7220677 2 3206590488120 1 0
-51.009136 -67.34839 1.9659214 28 3206590488120 1 0
-51.55116 -55.770985 0.88416356 24 3206590490424 1 0
-18.421684 -24.315172 -2.133153 4 3206590490424 1 0
-11.186016 -13.35147 -1.4219255 1 3206590492728 1 0
-52.03794 -62.093395 1.4141335 58 3206590495032 1 0
-19.028517 -27.826899 -2.1604857 4 3206590495032 1 0
-51.240948 -74.95706 2.6424677 36 3206590492728 1 0
-21.013771 -22.714005 -1.802077 4 3206590497336 1 0
-65.73742 -86.689606 6.3359904 28 3206590497336 1 0
-52.164585 -62.207745 3.307548 29 3206590499640 1 0
-30.073402 -39.64658 -2.3179944 9 3206590499640 1 0
-30.268589 -36.085487 -2.468373 11 3206590501944 1 0
0 0 0 1 3206590501944 1 0
-52.163 -62.169113 6.625021 28 3206590504248 1 0
-30.242298 -44.170517 -2.1809332 10 3206590504248 1 0
0 0 0 10 3206590506552 1 0
0 0 0 9 3206590506552 1 0
0 0 0 29 3206590508856 1 0
-51.1819 -67.39302 -1.9691783 29 3206590508856 1 0
-2.4583476 -2.9204159 -1.7800682 4 3206590529592 1 0
-32.48266 -47.280235 -1.0012795 31 3206590529592 1 0
-51.560383 -61.23354 -2.3296864 28 3206590531896 1 0
-3.865316 -5.074259 -1.7856672 4 3206590531896 1 0
-5.9380016 -7.0499387 -1.8435025 2 3206590534200 1 0
-52.6151 -69.05052 0 28 3206590534200 1 0
-51.416313 -55.301502 -0.87908804 13 3206590536504 1 0
-7.221435 -9.474341 -1.8533381 2 3206590536504 1 0
-9.952266 -11.808932 -1.9657437 2 3206590538808 1 0
-32.14732 -46.733856 0.329675 39 3206590538808 1 0
-51.854164 -61.509766 -0.46758008 28 3206590541112 1 0
0 0 0 55 3206590541112 1 0
0 0 0 10 3206590543416 1 0
-51.557484 -55.388687 0.8809506 24 3206590545720 1 0
-52.607056 -68.95671 2.018217 28 3206590543416 1 0
-18.506449 -24.250721 -2.133153 4 3206590545720 1 0
-16.325638 -19.348448 -2.0666575 3 3206590548024 1 0
-51.241474 -74.39906 2.629086 36 3206590548024 1 0
-52.006733 -61.617966 1.4074318 58 3206590550328 1 0
-19.1278 -27.763594 -2.1607416 4 3206590550328 1 0
-21.08204 -22.628828 -1.8011469 4 3206590552632 1 0
-52.676567 -68.96459 5.053909 28 3206590552632 1 0
-52.497456 -62.162685 3.3148754 29 3206590554936 1 0
-30.228592 -39.563587 -2.3192973 9 3206590554936 1 0
-30.394367 -35.97961 -2.468373 11 3206590557240 1 0
0 0 0 1 3206590557240 1 0
-52.50063 -62.129772 6.6403174 28 3206590559544 1 0
-30.609621 -44.37393 -2.1962392 10 3206590559544 1 0
0 0 0 12 3206590561848 1 0
0 0 0 9 3206590561848 1 0
0 0 0 29 3206590564152 1 0
-52.28909 -68.354195 -2.0025842 29 3206590564152 1 0
-2.463838 -2.9062862 -1.7766871 4 3206590584888 1 0
-32.722614 -47.27508 -1.0035832 31 3206590584888 1 0
-43.41077 -51.191242 -1.9533712 23 3206590587192 1 0
-3.8853498 -5.0637913 -1.7867455 4 3206590587192 1 0
-5.967649 -7.0351505 -1.8450714 2 3206590589496 1 0
-52.609833 -68.54595 0 28 3206590589496 1 0
-48.27122 -51.55669 -0.82223296 11 3206590591800 1 0
-7.2592764 -9.455347 -1.854568 2 3206590591800 1 0
-9.998562 -11.78017 -1.9667538 2 3206590594104 1 0
-32.396835 -46.746284 0.3305584 39 3206590594104 1 0
-9.9261465 -12.921213 -1.7551064 26 3206590596408 1 0
-51.79932 -61.011272 -0.46516234 28 3206590596408 1 0
-12.725952 -13.580234 -1.7373105 23 3206590598712 1 0
-52.620834 -68.47777 2.0095632 28 3206590598712 1 0
-51.50433 -54.945747 0.8767598 24 3206590601016 1 0
-18.615305 -24.21761 -2.1359432 4 3206590601016 1 0
-16.375008 -19.270077 -2.0643795 6 3206590603320 1 0
-51.07917 -73.61203 2.6075592 36 3206590603320 1 0
-51.96766 -61.13742 1.4005905 58 3206590605624 1 0
-19.229149 -27.703215 -2.1612532 4 3206590605624 1 0
-21.201885 -22.598782 -1.8046352 4 3206590607928 1 0
-52.680786 -68.4733 5.031351 28 3206590607928 1 0
-52.799572 -62.07952 3.3202486 29 3206590610232 1 0
-30.400627 -39.50216 -2.321903 9 3206590610232 1 0
-30.519773 -35.873295 -2.468373 11 3206590612536 1 0
0 0 0 1 3206590612536 1 0
-30.798542 -44.316044 -2.1986816 10 3206590614840 1 0
-52.841206 -62.091866 6.6559396 28 3206590614840 1 0
-34.977062 -37.238106 -1.7840623 32 3206590617144 1 0
0 0 0 29 3206590619448 1 0
0 0 0 9 3206590617144 1 0
-52.254005 -67.816475 -1.9921622 29 3206590619448 1 0
-2.4716141 -2.8949113 -1.7749968 4 3206590640184 1 0
-32.976654 -47.28851 -1.0063058 31 3206590640184 1 0
-43.71903 -51.191418 -1.9591893 47 3206590642488 1 0
-3.898291 -5.0441027 -1.7845889 4 3206590642488 1 0
-5.99217 -7.0142765 -1.8450714 2 3206590644792 1 0
-52.591904 -68.02961 0 28 3206590644792 1 0
-48.343884 -51.274384 -0.820417 23 3206590647096 1 0
-7.2874017 -9.4236965 -1.8533381 2 3206590647096 1 0
-10.042199 -11.748214 -1.9672589 2 3206590649400 1 0
-51.75203 -60.526073 -0.46283755 28 3206590651704 1 0
-32.639957 -46.7477 0.33137208 40 3206590649400 1 0
-10.002829 -12.927376 -1.7606754 22 3206590651704 1 0
-12.836147 -13.60235 -1.7458614 15 3206590654008 1 0
-51.451458 -54.506767 0.8726156 24 3206590656312 1 0
-18.68507 -24.13355 -2.134269 4 3206590656312 1 0
0 0 0 66 3206590658616 1 0
-51.0632 -73.04333 2.593712 37 3206590658616 1 0
-52.59765 -67.9553 1.9996065 28 3206590654008 1 0
-51.92587 -60.6579 1.3937492 57 3206590660920 1 0
-19.325733 -27.635923 -2.1612532 4 3206590660920 1 0
-21.277897 -22.521734 -1.8044027 8 3206590663224 1 0
-52.660202 -67.95441 5.0067 28 3206590663224 1 0
-53.135548 -62.03447 3.3277388 29 3206590665528 1 0
-30.597082 -39.471592 -2.32637 9 3206590665528 1 0
-30.803349 -35.95158 -2.481143 11 3206590667832 1 0
0 0 0 1 3206590667832 1 0
-53.18475 -62.055367 6.671887 28 3206590670136 1 0
-35.046402 -37.051895 -1.7809911 33 3206590672440 1 0
-31.017231 -44.29994 -2.2032409 10 3206590670136 1 0
0 0 0 9 3206590672440 1 0
0 0 0 29 3206590674744 1 0
-52.21336 -67.27668 -1.9816474 29 3206590674744 1 0
-2.4864311 -2.8917637 -1.7783777 4 3206590695480 1 0
-33.157616 -47.196022 -1.0067945 31 3206590695480 1 0
-44.13955 -51.320732 -1.970011 71 3206590697784 1 0
-3.9253023 -5.0426507 -1.788902 5 3206590697784 1 0
-6.016516 -6.993405 -1.8450714 2 3206590700088 1 0
-52.496307 -67.42031 0 28 3206590700088 1 0
-48.29839 -50.871426 -0.81664526 23 3206590702392 1 0
-7.3249044 -9.404597 -1.854568 2 3206590702392 1 0
-10.087984 -11.719396 -1.9682691 2 3206590704696 1 0
-32.87752 -46.7424 0.33213925 40 3206590704696 1 0
-51.705025 -60.049892 -0.46055928 27 3206590707000 1 0
0 0 0 6 3206590707000 1 0
-12.978977 -13.659073 -1.7588736 1 3206590709304 1 0
-52.566055 -67.432976 1.9895568 28 3206590709304 1 0
-51.451267 -54.132324 0.8694492 23 3206590711608 1 0
-18.772879 -24.07543 -2.1348271 4 3206590711608 1 0
-16.541857 -19.19551 -2.0686104 25 3206590713912 1 0
-50.975212 -72.38707 2.5766068 37 3206590713912 1 0
-51.887875 -60.19494 1.3871871 57 3206590716216 1 0
-19.427176 -27.579357 -2.1620207 4 3206590716216 1 0
-21.407043 -22.503847 -1.8088212 8 3206590718520 1 0
-52.626827 -67.43404 4.981584 28 3206590718520 1 0
-53.466892 -61.9921 3.335229 29 3206590720824 1 0
-30.768408 -39.41425 -2.329162 9 3206590720824 1 0
-30.87334 -35.786045 -2.4769561 11 3206590723128 1 0
-52.83761 -67.66556 10.541211 28 3206590723128 1 0
-53.40561 -61.88646 6.6731887 28 3206590725432 1 0
-31.268848 -44.338055 -2.2104053 10 3206590725432 1 0
-35.155224 -36.915546 -1.7801535 18 3206590727736 1 0
0 0 0 9 3206590727736 1 0
-16.235447 -18.80314 4.5294223 3 3206590730040 1 0
-39.933723 -51.09675 -1.5090333 32 3206590730040 1 0
-2.496007 -2.8835025 -1.7783777 4 3206590750776 1 0
-33.154552 -46.86053 -1.0019776 31 3206590750776 1 0
-44.432873 -51.315823 -1.97548 23 3206590753080 1 0
-6.042343 -6.9762917 -1.845856 2 3206590755384 1 0
-3.939663 -5.026546 -1.7878238 4 3206590753080 1 0
-52.456497 -66.908264 0 28 3206590755384 1 0
-48.3104 -50.545113 -0.8139911 23 3206590757688 1 0
-7.3562555 -9.380095 -1.854568 2 3206590757688 1 0
-10.127131 -11.685584 -1.9682691 2 3206590759992 1 0
-33.1285 -46.76598 0.3330924 40 3206590759992 1 0
-33.492256 -38.634983 -0.29717478 9 3206590762296 1 0
-10.169154 -12.959108 -1.7743839 2 3206590762296 1 0
0 0 0 7 3206590764600 1 0
-52.528122 -66.9194 1.9796002 28 3206590764600 1 0
-51.351185 -53.664017 0.86469966 23 3206590766904 1 0
-18.853836 -24.012085 -2.1348271 4 3206590766904 1 0
-16.624823 -19.160664 -2.0708885 12 3206590769208 1 0
-50.911537 -71.7809 2.5611305 38 3206590769208 1 0
-33.261147 -38.323322 0.8857445 9 3206590771512 1 0
-19.541115 -27.542807 -2.164323 4 3206590771512 1 0
-21.389273 -22.33312 -1.8009143 13 3206590773816 1 0
-52.53428 -66.847145 4.9513516 28 3206590773816 1 0
-33.39915 -38.459724 2.075257 12 3206590776120 1 0
-30.966291 -39.391205 -2.334001 9 3206590776120 1 0
-30.994955 -35.680763 -2.4769561 11 3206590778424 1 0
-52.71175 -67.03282 10.470527 28 3206590778424 1 0
-31.46618 -44.296314 -2.213662 10 3206590780728 1 0
-53.747116 -61.85442 6.6894617 28 3206590780728 1 0
0 0 0 10 3206590783032 1 0
0 0 0 9 3206590783032 1 0
-16.217134 -18.652391 4.5064635 3 3206590785336 1 0
-2.5084393 -2.8775048 -1.7800682 4 3206590806072 1 0
-39.722683 -50.46946 -1.4945172 15 3206590785336 1 0
-33.350426 -46.790108 -1.0029548 51 3206590806072 1 0
0 0 0 15 3206590808376 1 0
-3.957185 -5.0127635 -1.7878238 4 3206590808376 1 0
-50.570244 -64.040695 0 28 3206590810680 1 0
-6.066658 -6.9551578 -1.845856 2 3206590810680 1 0
-48.467125 -50.356 -0.81366515 34 3206590812984 1 0
-7.393853 -9.360562 -1.8557978 2 3206590812984 1 0
-10.170469 -11.653152 -1.9687742 2 3206590815288 1 0
-33.368217 -46.7575 0.33385956 40 3206590815288 1 0
-10.290775 -13.020256 -1.7876639 3 3206590817592 1 0
-13.1882925 -13.69031 -1.7744882 24 3206590819896 1 0
-33.516426 -38.391285 -0.29619837 9 3206590817592 1 0
-52.515865 -66.42508 1.9703879 28 3206590819896 1 0
-51.310616 -53.24827 0.8608814 23 3206590822200 1 0
-18.942488 -23.952387 -2.1353853 4 3206590822200 1 0
-16.633894 -19.036469 -2.0637286 21 3206590824504 1 0
-50.88285 -71.212364 2.547167 38 3206590824504 1 0
-19.63946 -27.477674 -2.164579 4 3206590826808 1 0
-21.472645 -22.26407 -1.8013794 13 3206590829112 1 0
-33.521053 -38.35153 0.88909537 30 3206590826808 1 0
-52.516983 -66.34712 4.9278636 28 3206590829112 1 0
-33.47005 -38.270702 2.0713491 37 3206590831416 1 0
-31.125927 -39.311066 -2.3356762 9 3206590831416 1 0
-31.274492 -35.749737 -2.4893074 11 3206590833720 1 0
-52.70878 -66.54964 10.423729 28 3206590833720 1 0
-54.091347 -61.81344 6.705409 28 3206590836024 1 0
-31.715973 -44.319466 -2.2203379 10 3206590836024 1 0
0 0 0 10 3206590838328 1 0
0 0 0 9 3206590838328 1 0
0 0 0 29 3206590840632 1 0
-40.030273 -50.496582 -1.499449 32 3206590840632 1 0
-2.52086 -2.8714557 -1.7817585 4 3206590861368 1 0
-33.58586 -46.774117 -1.005119 31 3206590861368 1 0
-33.71163 -38.389473 -1.4868754 47 3206590863672 1 0
-3.9746222 -4.9989486 -1.7878238 4 3206590863672 1 0
-6.0907984 -6.934027 -1.845856 2 3206590865976 1 0
-52.331264 -65.79924 0 28 3206590865976 1 0
-48.797394 -50.34841 -0.81627274 23 3206590868280 1 0
-7.4287395 -9.337952 -1.8564126 2 3206590868280 1 0
-10.215985 -11.623837 -1.9697843 2 3206590870584 1 0
-33.613926 -46.758633 0.33469647 40 3206590870584 1 0
-33.553764 -38.167133 -0.29536146 19 3206590872888 1 0
-10.355504 -13.009523 -1.7910911 20 3206590872888 1 0
-13.296411 -13.707661 -1.7826673 6 3206590875192 1 0
-52.40576 -65.81821 1.9577328 28 3206590875192 1 0
-51.30129 -52.873386 0.85766846 22 3206590877496 1 0
-16.743908 -19.030144 -2.0692613 25 3206590879800 1 0
-19.01731 -23.877724 -2.1345482 4 3206590877496 1 0
-50.912106 -70.73873 2.5364618 38 3206590879800 1 0
-33.773766 -38.374588 0.8923066 20 3206590882104 1 0
-19.719467 -27.390806 -2.163044 4 3206590882104 1 0
-21.342756 -21.978556 -1.7841703 4 3206590884408 1 0
-52.45969 -65.81126 4.901352 28 3206590884408 1 0
-31.3769 -39.35151 -2.3444242 9 3206590886712 1 0
-33.624157 -38.18332 2.0728147 12 3206590886712 1 0
-31.160994 -35.376312 -2.4706757 11 3206590889016 1 0
-52.600765 -65.950836 10.35792 28 3206590889016 1 0
