# .PCD v.7 - Point Cloud Data file format
VERSION .7
FIELDS x y z rgb timestamp_ns device_id active
SIZE 4 4 4 4 8 1 1
TYPE F F F F F U U
COUNT 1 1 1 1 1 1 1
WIDTH 988
HEIGHT 1
VIEWPOINT 0 0 0 1 0 0 0
POINTS 988               
DATA ascii
-3.8058546 -20.614862 -1.0986364 2 3199382334944 1 1
0 0 0 1 3199382334944 1 0
0 0 0 8 3199382337248 1 0
-2.7015972 -31.718748 -1.296934 14 3199382337248 1 0
0 0 0 10 3199382339552 1 0
0 0 0 9 3199382339552 1 0
0 0 0 29 3199382341856 1 0
-2.9422617 -21.804426 -0.51197517 2 3199382341856 1 1
-0.68430966 -3.6707475 -1.7411872 3 3199382362592 1 0
0 0 0 9 3199382364896 1 0
-5.49181 -63.280468 -1.1087165 14 3199382362592 1 0
-0.84606576 -6.2019215 -1.7522398 5 3199382364896 1 0
-1.6457971 -8.81409 -1.7932965 5 3199382367200 1 0
-11.044172 -80.86935 0 85 3199382367200 1 0
-5.0952835 -21.412626 -0.25624353 3 3199382369504 1 1
-1.5065713 -11.019693 -1.7303562 21 3199382369504 1 0
-2.1037693 -11.248631 -1.4566302 15 3199382371808 1 0
-6.083285 -69.62557 0.40620628 28 3199382371808 1 0
-12.835696 -68.575905 -0.4054856 38 3199382374112 1 0
-2.2987013 -16.777298 -1.8240769 3 3199382374112 1 0
-11.599019 -84.56513 1.9862069 28 3199382376416 1 0
-4.8251743 -20.238293 -1.9421593 3 3199382376416 1 0
-8.445453 -35.40005 0.42368886 4 3199382378720 1 0
-2.8084724 -20.453672 -1.4436799 1 3199382378720 1 1
-4.348646 -23.17712 -1.9250834 2 3199382381024 1 0
-6.1188498 -69.56585 2.032381 79 3199382381024 1 0
-12.869417 -68.53555 1.2172006 21 3199382383328 1 0
-1.7874261 -20.28763 -1.3052455 4 3199382383328 1 1
-5.1022735 -21.345478 -1.2781283 10 3199382385632 1 1
-9.793046 -71.091064 4.1792655 28 3199382385632 1 0
-12.856992 -68.35974 2.833878 87 3199382387936 1 0
-2.8536716 -20.693512 -0.9730589 2 3199382387936 1 1
0 0 0 1 3199382390240 1 0
0 0 0 8 3199382390240 1 0
0 0 0 8 3199382392544 1 0
-1.8865184 -21.27079 -0.869996 2 3199382392544 1 1
0 0 0 9 3199382394848 1 0
0 0 0 29 3199382397152 1 0
0 0 0 10 3199382394848 1 0
-2.9360666 -21.199858 -0.4980173 2 3199382397152 1 1
-0.69847244 -3.6754594 -1.7445682 4 3199382417888 1 0
-5.728493 -63.436172 -1.1117882 14 3199382417888 1 0
0 0 0 9 3199382420192 1 0
-0.8693113 -6.2103744 -1.7554748 4 3199382420192 1 0
-1.6772875 -8.812144 -1.794081 6 3199382422496 1 0
-11.3313875 -80.86595 0 85 3199382422496 1 0
-5.1869073 -21.464691 -0.2570817 7 3199382424800 1 1
-1.5477732 -11.033938 -1.7334307 18 3199382424800 1 0
-2.1452508 -11.252912 -1.4581455 15 3199382427104 1 0
-6.311442 -69.44059 0.4052531 28 3199382427104 1 0
-13.074992 -68.53068 -0.4054856 19 3199382429408 1 0
-2.3583581 -16.777048 -1.8249336 3 3199382429408 1 0
-4.8939157 -20.213585 -1.9414157 3 3199382431712 1 0
-10.724504 -76.212296 1.7908896 26 3199382431712 1 0
-8.546369 -35.27706 0.42257133 4 3199382434016 1 0
-2.8715029 -20.384476 -1.4394946 1 3199382434016 1 1
-4.446747 -23.251863 -1.9325689 5 3199382436320 1 0
-6.358729 -69.512215 2.0314503 52 3199382436320 1 0
-13.1266165 -68.58449 1.2188761 21 3199382438624 1 0
-1.8571396 -20.26934 -1.3044779 1 3199382438624 1 1
-5.184287 -21.358583 -1.2799886 10 3199382440928 1 1
-10.047845 -71.1039 4.182056 28 3199382440928 1 0
-13.094781 -68.310524 2.8337152 58 3199382443232 1 0
-2.897905 -20.485611 -0.9637526 2 3199382443232 1 1
-3.9308643 -20.489716 -1.0934027 2 3199382445536 1 1
0 0 0 1 3199382445536 1 0
0 0 0 8 3199382447840 1 0
-1.9589208 -21.244177 -0.8691819 2 3199382447840 1 1
0 0 0 10 3199382450144 1 0
0 0 0 9 3199382450144 1 0
0 0 0 29 3199382452448 1 0
-3.0381708 -21.387438 -0.50266993 2 3199382452448 1 1
-0.71198714 -3.676558 -1.7462586 2 3199382473184 1 0
0 0 0 50 3199382473184 1 0
0 0 0 9 3199382475488 1 0
-0.88934237 -6.1958637 -1.7522398 4 3199382475488 1 0
-1.7072904 -8.802385 -1.7932965 5 3199382477792 1 0
-11.6153 -80.83778 0 85 3199382477792 1 0
-8.21531 -33.484592 -0.40138456 14 3199382480096 1 0
-1.5879676 -11.040205 -1.7352755 18 3199382480096 1 0
-2.188301 -11.264831 -1.4606708 15 3199382482400 1 0
-6.5421414 -69.294685 0.40453243 56 3199382482400 1 0
-2.4174738 -16.77265 -1.8253621 3 3199382484704 1 0
-13.281306 -68.31579 -0.40448594 57 3199382484704 1 0
-4.963494 -20.192513 -1.941044 3 3199382487008 1 0
-11.007601 -76.29314 1.7936811 26 3199382487008 1 0
-8.640797 -35.130493 0.42117438 4 3199382489312 1 0
-2.9688783 -20.555994 -1.4523298 1 3199382489312 1 1
-4.527884 -23.236198 -1.9325689 2 3199382491616 1 0
-6.6017113 -69.493576 2.0315666 79 3199382491616 1 0
-13.317713 -68.29095 1.214478 64 3199382493920 1 0
-1.9414928 -20.405794 -1.3136878 1 3199382493920 1 1
-5.2645435 -21.363619 -1.281384 10 3199382496224 1 1
-10.29312 -71.04863 4.1808934 28 3199382496224 1 0
-13.316294 -68.1781 2.830133 58 3199382498528 1 0
-2.9693956 -20.47537 -0.9637526 2 3199382498528 1 1
-4.0406775 -20.671886 -1.10387 2 3199382500832 1 1
0 0 0 1 3199382500832 1 0
0 0 0 8 3199382503136 1 0
-2.0128791 -21.02635 -0.8605519 2 3199382503136 1 1
0 0 0 10 3199382505440 1 0
0 0 0 9 3199382505440 1 0
0 0 0 29 3199382507744 1 0
0 0 0 1 3199382507744 1 0
-0.7248164 -3.6740503 -1.7462586 2 3199382528480 1 0
0 0 0 7 3199382528480 1 0
0 0 0 9 3199382530784 1 0
-0.91152513 -6.1965322 -1.7533182 6 3199382530784 1 0
-1.7380061 -8.796371 -1.7932965 4 3199382533088 1 0
-11.900902 -80.82049 0 57 3199382533088 1 0
-8.3466425 -33.51393 -0.402083 7 3199382535392 1 0
-1.6293772 -11.054146 -1.73835 21 3199382535392 1 0
-2.232231 -11.2804785 -1.4637012 15 3199382537696 1 0
-6.7820363 -69.251526 0.4044162 28 3199382537696 1 0
-7.2474375 -36.596645 -0.21683088 10 3199382540000 1 0
-2.4777498 -16.775913 -1.8266473 3 3199382540000 1 0
-11.276186 -76.270065 1.7940533 26 3199382542304 1 0
-5.037805 -20.19052 -1.942531 4 3199382542304 1 0
-8.749808 -35.04579 0.42052248 4 3199382544608 1 0
-3.0225048 -20.423141 -1.4436799 1 3199382544608 1 1
-4.470805 -22.524193 -1.8746375 2 3199382546912 1 0
-6.8418965 -69.446236 2.0308683 79 3199382546912 1 0
-13.565362 -68.291115 1.2153158 42 3199382549216 1 0
-2.0236852 -20.510122 -1.3208511 1 3199382549216 1 1
-5.3390846 -21.345112 -1.281384 2 3199382551520 1 1
-10.563344 -71.16236 4.1897306 28 3199382551520 1 0
-13.580713 -68.26448 2.835669 29 3199382553824 1 0
-4.112811 -20.657656 -1.10387 2 3199382556128 1 1
0 0 0 2 3199382553824 1 0
0 0 0 1 3199382556128 1 0
0 0 0 8 3199382558432 1 0
-2.0894206 -21.051012 -0.86185455 2 3199382558432 1 1
0 0 0 10 3199382560736 1 0
0 0 0 9 3199382560736 1 0
-7.3017354 -36.59147 6.803102 7 3199382563040 1 0
0 0 0 1 3199382563040 1 0
-0.73835087 -3.6750522 -1.7479491 3 3199382583776 1 0
-4.1952834 -41.590576 -0.7296502 7 3199382583776 1 0
0 0 0 9 3199382586080 1 0
-0.9331495 -6.1933126 -1.7533182 5 3199382586080 1 0
-1.7679269 -8.7864065 -1.792512 4 3199382588384 1 0
-12.185928 -80.79823 0 85 3199382588384 1 0
-15.156027 -59.96204 -0.7200243 19 3199382590688 1 0
-1.6697235 -11.060115 -1.7401947 21 3199382590688 1 0
-2.2715936 -11.272617 -1.4637012 14 3199382592992 1 0
0 0 0 16 3199382595296 1 0
-7.023728 -69.227425 0.4044162 28 3199382592992 1 0
-2.5362937 -16.767162 -1.8266473 3 3199382595296 1 0
-12.801352 -84.54519 1.9897429 28 3199382597600 1 0
-5.1111856 -20.184395 -1.9436463 4 3199382597600 1 0
-8.866194 -34.99177 0.4202431 14 3199382599904 1 0
-3.1236737 -20.609726 -1.4576312 1 3199382599904 1 1
-4.5430837 -22.477188 -1.8720338 5 3199382602208 1 0
-7.082238 -69.40204 2.0302866 52 3199382602208 1 0
-7.3732114 -36.452114 0.6491597 95 3199382604512 1 0
-2.0924258 -20.475136 -1.3190603 3 3199382604512 1 1
-5.3192406 -20.954779 -1.2590586 2 3199382606816 1 1
0 0 0 10 3199382609120 1 0
-10.844689 -71.34219 4.202521 28 3199382606816 1 0
-3.1122673 -20.454142 -0.9637526 2 3199382609120 1 1
0 0 0 1 3199382611424 1 0
0 0 0 25 3199382613728 1 0
-2.1428666 -20.84878 -0.85387594 2 3199382613728 1 1
0 0 0 10 3199382616032 1 0
0 0 0 8 3199382611424 1 0
0 0 0 9 3199382616032 1 0
-7.4074802 -36.457783 6.783013 21 3199382618336 1 0
-3.1713922 -20.76149 -0.48871204 1 3199382618336 1 1
-0.74972177 -3.665349 -1.7445682 3 3199382639072 1 0
-4.332961 -41.504078 -0.7283936 7 3199382639072 1 0
-0.9547625 -6.1900177 -1.7533182 6 3199382641376 1 0
-1.7993735 -8.784024 -1.7932965 4 3199382643680 1 0
0 0 0 9 3199382641376 1 0
-12.472775 -80.78683 0 85 3199382643680 1 0
-16.073734 -62.67117 -0.7532247 20 3199382645984 1 0
-1.7095276 -11.062032 -1.7414246 23 3199382645984 1 0
-2.3149154 -11.284055 -1.4662266 15 3199382648288 1 0
-7.264916 -69.19851 0.40439296 28 3199382648288 1 0
-7.4665527 -36.36884 -0.21578473 97 3199382650592 1 0
-2.595415 -16.762136 -1.8270756 3 3199382650592 1 0
-5.164762 -20.100855 -1.9373262 9 3199382652896 1 0
-13.097004 -84.503944 1.989836 28 3199382652896 1 0
0 0 0 86 3199382655200 1 0
-4.625533 -22.480717 -1.873661 7 3199382657504 1 0
-3.1650105 -20.401543 -1.4436799 1 3199382655200 1 1
-7.3244534 -69.37689 2.0302866 79 3199382657504 1 0
-7.4875026 -36.36348 0.64804274 100 3199382659808 1 0
-2.1563303 -20.396254 -1.3144554 2 3199382659808 1 1
0 0 0 12 3199382662112 1 0
-11.097951 -71.33152 4.204149 28 3199382662112 1 0
-3.1836464 -20.443153 -0.9637526 2 3199382664416 1 1
-7.500271 -36.371925 1.5130082 67 3199382664416 1 0
-4.2569275 -20.628439 -1.10387 2 3199382666720 1 1
0 0 0 1 3199382666720 1 0
-7.510703 -36.369026 3.0316403 24 3199382669024 1 0
-2.2076015 -20.765661 -0.85078216 1 3199382669024 1 1
0 0 0 10 3199382671328 1 0
0 0 0 9 3199382671328 1 0
-7.5195537 -36.358486 6.769381 35 3199382673632 1 0
-3.2599025 -20.853018 -0.49113142 4 3199382673632 1 1
-0.7625117 -3.6627097 -1.7445682 3 3199382694368 1 0
-4.4687986 -41.4052 -0.72692764 21 3199382694368 1 0
0 0 0 9 3199382696672 1 0
-0.9769644 -6.190452 -1.7543964 4 3199382696672 1 0
-1.8308251 -8.781529 -1.794081 4 3199382698976 1 0
-12.761563 -80.786255 0 85 3199382698976 1 0
-15.606499 -59.978638 -0.72151434 19 3199382701280 1 0
-1.7524519 -11.083324 -1.745729 22 3199382701280 1 0
-2.3575342 -11.291442 -1.4682469 15 3199382703584 1 0
-7.522386 -69.31986 0.4052531 85 3199382703584 1 0
-7.599185 -36.36996 -0.21594746 87 3199382705888 1 0
-2.6545322 -16.756903 -1.827504 3 3199382705888 1 0
-5.2469506 -20.12895 -1.9417875 16 3199382708192 1 0
-13.396908 -84.4893 1.9905803 28 3199382708192 1 0
-9.11834 -34.959984 0.4206156 23 3199382710496 1 0
-3.2362058 -20.39037 -1.4436799 1 3199382710496 1 1
-4.729307 -22.5854 -1.8837503 7 3199382712800 1 0
-7.56311 -69.31911 2.0293558 78 3199382712800 1 0
-2.2275136 -20.388601 -1.3144554 2 3199382715104 1 1
-5.5158763 -21.11031 -1.2706864 2 3199382717408 1 1
-11.3424835 -71.26474 4.202521 28 3199382717408 1 0
-7.620131 -36.364525 0.64853144 89 3199382715104 1 0
-7.628008 -36.349434 1.5131711 60 3199382719712 1 0
-3.254987 -20.431915 -0.9637526 2 3199382719712 1 1
-4.3289084 -20.613455 -1.10387 2 3199382722016 1 1
0 0 0 1 3199382722016 1 0
-7.639249 -36.35039 3.0322912 24 3199382724320 1 0
-2.258255 -20.559189 -0.8426407 1 3199382724320 1 1
0 0 0 10 3199382726624 1 0
0 0 0 9 3199382726624 1 0
-7.6512856 -36.355118 6.773686 28 3199382728928 1 0
-3.5454643 -22.172241 -0.52249014 4 3199382728928 1 1
-0.7760435 -3.663572 -1.7462586 3 3199382749664 1 0
-7.304285 -65.53214 -1.1509513 16 3199382749664 1 0
0 0 0 9 3199382751968 1 0
-0.99979466 -6.1946096 -1.756553 4 3199382751968 1 0
-1.8606533 -8.771248 -1.7932965 3 3199382754272 1 0
-13.046034 -80.75701 0 85 3199382754272 1 0
0 0 0 42 3199382756576 1 0
-1.7955455 -11.104452 -1.7500333 17 3199382756576 1 0
-2.4010568 -11.302551 -1.4707723 15 3199382758880 1 0
0 0 0 7 3199382758880 1 0
0 0 0 28 3199382761184 1 0
-2.7161884 -16.767164 -1.829646 3 3199382761184 1 0
-13.694309 -84.45782 1.9909526 28 3199382763488 1 0
-5.3181996 -20.114363 -1.9421593 19 3199382763488 1 0
-9.156435 -34.61087 0.41679734 32 3199382765792 1 0
-3.339323 -20.575886 -1.4576312 1 3199382765792 1 1
-4.8023014 -22.541458 -1.8814721 5 3199382768096 1 0
-7.80548 -69.29626 2.029472 52 3199382768096 1 0
-7.7094946 -36.161686 0.64539 31 3199382770400 1 0
-5.5895314 -21.090927 -1.2706864 2 3199382772704 1 1
-2.3031433 -20.420368 -1.3170136 3 3199382770400 1 1
-7.731479 -36.213146 1.5086118 22 3199382775008 1 0
-11.613625 -71.36266 4.2106605 28 3199382772704 1 0
-3.3584073 -20.617615 -0.9730589 2 3199382775008 1 1
0 0 0 1 3199382777312 1 0
-7.743583 -36.21824 3.0235038 16 3199382779616 1 0
0 0 0 8 3199382777312 1 0
-2.3345087 -20.590893 -0.844269 1 3199382779616 1 1
0 0 0 10 3199382781920 1 0
0 0 0 9 3199382781920 1 0
-7.7468348 -36.18197 6.746422 14 3199382784224 1 0
-3.6286452 -22.19525 -0.5233276 2 3199382784224 1 1
-0.78653616 -3.6502092 -1.7411872 3 3199382804960 1 0
-4.7271376 -41.10679 -0.7222504 7 3199382804960 1 0
0 0 0 9 3199382807264 1 0
-1.0207847 -6.1872816 -1.7554748 4 3199382807264 1 0
-1.890432 -8.760866 -1.792512 3 3199382809568 1 0
-13.331759 -80.734665 0 85 3199382809568 1 0
-9.232255 -34.49136 -0.4156798 67 3199382811872 1 0
-1.8355854 -11.105916 -1.7512631 21 3199382811872 1 0
-2.443848 -11.309615 -1.4727925 15 3199382814176 1 0
0 0 0 9 3199382816480 1 0
-8.005224 -69.25771 0.40520662 100 3199382814176 1 0
-2.7753499 -16.761503 -1.8300743 3 3199382816480 1 0
-5.398694 -20.134144 -1.945877 32 3199382818784 1 0
-14.008654 -84.527855 1.9937441 28 3199382818784 1 0
-9.251283 -34.48212 0.41563323 64 3199382821088 1 0
-3.411126 -20.564104 -1.4576312 1 3199382821088 1 1
-5.034621 -23.233686 -1.9407054 2 3199382823392 1 0
-8.044554 -69.24476 2.0287738 78 3199382823392 1 0
-7.8077064 -36.005573 0.64308625 25 3199382825696 1 0
-2.375332 -20.420135 -1.3175253 3 3199382825696 1 1
-5.7149405 -21.264107 -1.2823143 2 3199382828000 1 1
-11.867897 -71.3532 4.212521 28 3199382828000 1 0
-7.82137 -36.017994 1.5016102 22 3199382830304 1 0
-3.4139519 -20.507229 -0.9684057 2 3199382830304 1 1
-4.4727106 -20.582731 -1.10387 2 3199382832608 1 1
0 0 0 1 3199382832608 1 0
-7.832687 -36.01958 3.0091836 16 3199382834912 1 0
-2.40637 -20.582619 -0.844269 1 3199382834912 1 1
0 0 0 10 3199382837216 1 0
0 0 0 9 3199382837216 1 0
-7.841269 -36.0086 6.7191577 14 3199382839520 1 0
-3.4609587 -20.715187 -0.48871204 1 3199382839520 1 1
-0.8023769 -3.6616063 -1.7479491 3 3199382860256 1 0
-4.860712 -41.006634 -0.72078437 7 3199382860256 1 0
0 0 0 9 3199382862560 1 0
-1.0423762 -6.1836805 -1.7554748 4 3199382862560 1 0
-1.9235237 -8.765707 -1.7948655 3 3199382864864 1 0
-13.617488 -80.7113 0 57 3199382864864 1 0
-9.352595 -34.458923 -0.4156798 71 3199382867168 1 0
-1.8763155 -11.111133 -1.7531078 22 3199382867168 1 0
-2.4867175 -11.316517 -1.4748129 16 3199382869472 1 0
-9.637506 -80.90261 0.47353148 42 3199382869472 1 0
-12.448355 -56.610516 -0.33688176 20 3199382871776 1 0
-2.8358316 -16.763477 -1.8313595 2 3199382871776 1 0
-5.471032 -20.122864 -1.9466206 29 3199382874080 1 0
-9.367392 -34.43418 0.41544697 64 3199382876384 1 0
-14.290941 -84.40353 1.9919761 28 3199382874080 1 0
-3.4662197 -20.453716 -1.4506556 1 3199382876384 1 1
-5.1174064 -23.223757 -1.9413563 2 3199382878688 1 0
-10.138789 -84.69116 2.4823534 40 3199382878688 1 0
-7.9152565 -35.896084 0.6416203 37 3199382880992 1 0
-2.4475474 -20.419647 -1.3180369 3 3199382880992 1 1
-5.7366366 -21.051392 -1.2706864 2 3199382883296 1 1
-12.155023 -71.53574 4.2257767 28 3199382883296 1 0
-7.9272285 -35.90071 1.4978651 21 3199382885600 1 0
-3.5022624 -20.593666 -0.9730589 2 3199382885600 1 1
0 0 0 1 3199382887904 1 0
-7.9402957 -35.91027 3.0023491 16 3199382890208 1 0
-2.4614737 -20.435213 -0.83857 1 3199382890208 1 1
-4.6307154 -20.957035 -1.1248044 3 3199382887904 1 1
0 0 0 20 3199382892512 1 0
0 0 0 9 3199382892512 1 0
-7.9499006 -35.904163 6.704808 14 3199382894816 1 0
-3.61734 -21.19572 -0.5003436 2 3199382894816 1 1
-0.81357676 -3.6517062 -1.7445682 4 3199382915552 1 0
-4.987345 -40.85444 -0.71841085 6 3199382915552 1 0
-4.7156544 -21.151531 -0.63068277 3 3199382917856 1 1
-1.0646085 -6.1838 -1.756553 4 3199382917856 1 0
-1.95411 -8.758939 -1.7948655 3 3199382920160 1 0
-13.903894 -80.690865 0 28 3199382920160 1 0
-9.486618 -34.4762 -0.41628513 52 3199382922464 1 0
-1.9184477 -11.12399 -1.7561824 19 3199382922464 1 0
-2.5287995 -11.319386 -1.476328 16 3199382924768 1 0
-9.904753 -80.74541 0.4728108 85 3199382924768 1 0
-12.704356 -56.828255 -0.33843935 21 3199382927072 1 0
-2.8936527 -16.749557 -1.8309312 2 3199382927072 1 0
-5.5465326 -20.12284 -1.9484794 27 3199382929376 1 0
-13.955917 -80.71216 1.9059956 28 3199382929376 1 0
-9.50242 -34.455254 0.41609886 55 3199382931680 1 0
-3.5546062 -20.53979 -1.4576312 1 3199382931680 1 1
-4.7173786 -21.058296 -1.7617036 2 3199382933984 1 0
-10.4358225 -84.66716 2.4827025 40 3199382933984 1 0
-8.025637 -35.80189 0.6404335 18 3199382936288 1 0
-9.368017 -33.91018 -2.048819 4 3199382938592 1 0
0 0 0 22 3199382936288 1 0
-12.399877 -71.46533 4.2241488 28 3199382938592 1 0
-8.034989 -35.794827 1.4946085 21 3199382940896 1 0
-3.5871158 -20.656113 -0.9765952 2 3199382940896 1 1
-4.6819544 -20.84331 -1.1195707 3 3199382943200 1 1
0 0 0 1 3199382943200 1 0
-8.060351 -35.858997 3.0003963 16 3199382945504 1 0
-2.537709 -20.46616 -0.8401983 1 3199382945504 1 1
-9.571799 -34.569454 -1.2526127 31 3199382947808 1 0
0 0 0 9 3199382947808 1 0
-8.050985 -35.7687 6.6847186 14 3199382950112 1 0
-3.6864994 -21.155388 -0.49969226 2 3199382950112 1 1
-0.8271193 -3.6523798 -1.7462586 3 3199382971296 1 0
-8.661201 -68.94753 -1.2129422 19 3199382971296 1 0
-4.745275 -20.93997 -0.6248647 2 3199382973600 1 1
-1.0855206 -6.176253 -1.7554748 5 3199382973600 1 0
-1.9846724 -8.752065 -1.7948655 3 3199382975904 1 0
0 0 0 101 3199382975904 1 0
0 0 0 28 3199382978208 1 0
-1.961378 -11.140581 -1.7598718 18 3199382978208 1 0
-2.571811 -11.325968 -1.4783484 15 3199382980512 1 0
-10.179534 -80.65478 0.47248533 85 3199382980512 1 0
-12.977095 -57.111206 -0.34039217 21 3199382982816 1 0
-5.6242423 -20.130207 -1.9510819 21 3199382985120 1 0
-2.9534833 -16.747189 -1.831788 2 3199382982816 1 0
-14.096467 -79.863525 1.887106 28 3199382985120 1 0
0 0 0 21 3199382987424 1 0
-3.6262817 -20.527256 -1.4576312 1 3199382987424 1 1
-4.778466 -20.98728 -1.7571472 4 3199382989728 1 0
-10.731806 -84.634186 2.4828188 40 3199382989728 1 0
-8.130126 -35.68397 0.63882786 18 3199382992032 1 0
-2.6247306 -20.675304 -1.3356893 3 3199382992032 1 1
0 0 0 10 3199382994336 1 0
-8.1394415 -35.67694 1.4908634 21 3199382996640 1 0
-12.659011 -71.47666 4.2274046 28 3199382994336 1 0
-3.6578023 -20.635597 -0.976223 2 3199382996640 1 1
-4.7769094 -20.924196 -1.1248044 3 3199382998944 1 1
0 0 0 1 3199382998944 1 0
-8.1579485 -35.71016 2.990307 16 3199383001248 1 0
-2.6167183 -20.516645 -0.8426407 1 3199383001248 1 1
-9.725897 -34.655148 -1.2569402 18 3199383003552 1 0
0 0 0 9 3199383003552 1 0
-8.158242 -35.66366 6.670369 14 3199383005856 1 0
-3.7477186 -21.071522 -0.4980173 2 3199383005856 1 1
-0.8398634 -3.6494703 -1.7462586 3 3199383026592 1 0
-8.898746 -68.89308 -1.2125233 19 3199383026592 1 0
0 0 0 9 3199383028896 1 0
-1.1070732 -6.1724257 -1.7554748 6 3199383028896 1 0
-2.0160916 -8.748906 -1.7956499 3 3199383031200 1 0
-12.331831 -68.697945 0 19 3199383031200 1 0
-10.152497 -35.91405 -0.43449178 7 3199383033504 1 0
-2.0023506 -11.145337 -1.7617166 20 3199383033504 1 0
-2.6148987 -11.332387 -1.4803686 16 3199383035808 1 0
-10.463068 -80.63462 0.47257832 85 3199383035808 1 0
-3.0126283 -16.74069 -1.8322163 2 3199383038112 1 0
-13.237564 -57.33058 -0.341973 21 3199383038112 1 0
-5.6955605 -20.114285 -1.9514537 13 3199383040416 1 0
-12.358523 -68.61707 1.6223714 20 3199383040416 1 0
-17.895832 -63.165382 0.76430696 15 3199383042720 1 0
-4.8624797 -21.017082 -1.7610526 6 3199383045024 1 0
-3.7333066 -20.710821 -1.4715825 1 3199383042720 1 1
-11.03337 -84.64378 2.4842153 100 3199383045024 1 0
-8.234792 -35.569656 0.6372921 18 3199383047328 1 0
-2.6726072 -20.479979 -1.3236653 1 3199383047328 1 1
-9.611066 -33.867 -2.0502145 34 3199383049632 1 0
-12.930448 -71.553856 4.234614 28 3199383049632 1 0
-8.244071 -35.562656 1.4872812 21 3199383051936 1 0
-3.7355008 -20.654158 -0.977712 2 3199383051936 1 1
-4.9401836 -21.296515 -1.1457387 3 3199383054240 1 1
0 0 0 1 3199383054240 1 0
-8.269931 -35.627094 2.9857507 15 3199383056544 1 0
-2.688319 -20.507387 -0.8426407 1 3199383056544 1 1
0 0 0 9 3199383058848 1 0
-9.8993 -34.80555 -1.263641 19 3199383058848 1 0
-8.263973 -35.554474 6.655302 14 3199383061152 1 0
-3.7855496 -20.861578 -0.4933647 2 3199383061152 1 1
-0.85259736 -3.6465166 -1.7462586 3 3199383081888 1 0
-5.3664823 -40.435226 -0.7119884 6 3199383081888 1 0
0 0 0 9 3199383084192 1 0
-1.127919 -6.164735 -1.7543964 5 3199383084192 1 0
-2.0466187 -8.741815 -1.7956499 2 3199383086496 1 0
0 0 0 3 3199383086496 1 0
-10.276697 -35.874546 -0.43444523 7 3199383088800 1 0
-2.0440927 -11.153831 -1.7641762 20 3199383088800 1 0
-2.6598742 -11.34637 -1.4833992 17 3199383091104 1 0
-10.773014 -80.81171 0.4738337 84 3199383091104 1 0
-13.502463 -57.560513 -0.34362358 10 3199383093408 1 0
-3.0732 -16.741808 -1.8335015 2 3199383093408 1 0
-5.7646394 -20.090452 -1.9510819 11 3199383095712 1 0
-12.600857 -68.58925 1.6227436 20 3199383095712 1 0
-17.991493 -62.668106 0.7590452 15 3199383098016 1 0
-3.7832093 -20.576004 -1.4629328 1 3199383098016 1 1
-4.943111 -21.031029 -1.7636564 4 3199383100320 1 0
-8.34059 -35.46283 0.6358959 12 3199383102624 1 0
-2.7509742 -20.521957 -1.3269911 1 3199383102624 1 1
-11.329295 -84.60872 2.4843316 80 3199383100320 1 0
-13.170729 -71.45723 4.2315903 28 3199383104928 1 0
-9.759022 -33.936863 -2.0564935 43 3199383104928 1 0
-3.8075745 -20.640993 -0.977712 2 3199383107232 1 1
-4.9778433 -21.12362 -1.137365 3 3199383109536 1 1
0 0 0 1 3199383109536 1 0
-8.385092 -35.559208 2.982496 15 3199383111840 1 0
-8.349834 -35.455856 1.4840246 21 3199383107232 1 0
-10.381621 -36.02302 -1.3091499 13 3199383114144 1 0
-2.7598865 -20.497877 -0.8426407 1 3199383111840 1 1
0 0 0 9 3199383114144 1 0
-8.369041 -35.444984 6.6402354 13 3199383116448 1 0
-3.894733 -21.044846 -0.4980173 2 3199383116448 1 1
-0.86615855 -3.6470454 -1.7479491 3 3199383137184 1 0
-5.2149076 -38.26843 -0.67415154 6 3199383137184 1 0
0 0 0 9 3199383139488 1 0
-1.1508888 -6.168325 -1.756553 4 3199383139488 1 0
-2.0763404 -8.730772 -1.7948655 2 3199383141792 1 0
-10.395952 -35.81518 -0.43416584 11 3199383144096 1 0
-12.8106575 -68.60213 0 20 3199383141792 1 0
-2.085436 -11.158237 -1.7660209 19 3199383144096 1 0
-11.059553 -80.78915 0.4739267 3 3199383146400 1 0
-2.7025516 -11.348517 -1.4849143 16 3199383146400 1 0
-14.310878 -60.05334 -0.35880432 12 3199383148704 1 0
-3.1336932 -16.738682 -1.8343582 2 3199383148704 1 0
-5.832273 -20.05848 -1.9499665 11 3199383151008 1 0
-12.843192 -68.54428 1.6227436 20 3199383151008 1 0
-18.119469 -62.281395 0.7551338 15 3199383153312 1 0
-3.8788562 -20.684055 -1.4715825 1 3199383153312 1 1
-5.023271 -21.03662 -1.765609 22 3199383155616 1 0
-11.630575 -84.575905 2.4845643 80 3199383155616 1 0
-8.4461975 -35.347366 0.6343601 6 3199383157920 1 0
-9.859779 -33.832867 -2.0523074 24 3199383160224 1 0
-2.821757 -20.496227 -1.3259677 1 3199383157920 1 1
-13.44003 -71.488335 4.236242 28 3199383160224 1 0
-8.456851 -35.344193 1.4806052 21 3199383162528 1 0
-3.86278 -20.529097 -0.9730589 2 3199383162528 1 1
-5.044089 -21.066826 -1.1352715 3 3199383164832 1 1
0 0 0 1 3199383164832 1 0
-8.479084 -35.389343 2.9707797 15 3199383167136 1 0
-2.8333576 -20.48785 -0.8426407 1 3199383167136 1 1
-9.919177 -33.959442 -1.2354422 24 3199383169440 1 0
0 0 0 9 3199383169440 1 0
-8.472711 -35.315136 6.621581 13 3199383171744 1 0
0 0 0 1 3199383171744 1 0
-0.87866926 -3.6403222 -1.7462586 4 3199383192480 1 0
-3.014446 -21.530691 -0.37948513 2 3199383192480 1 1
0 0 0 9 3199383194784 1 0
-1.1733996 -6.1640825 -1.756553 4 3199383194784 1 0
-2.1108367 -8.734602 -1.7972188 2 3199383197088 1 0
-13.055526 -68.53152 0 40 3199383197088 1 0
-9.981475 -33.927807 -0.41172183 14 3199383199392 1 0
-2.1287932 -11.166142 -1.7684805 17 3199383199392 1 0
-2.749067 -11.3618355 -1.4879447 17 3199383201696 1 0
-11.352002 -80.756645 0.47397318 3 3199383201696 1 0
-14.526525 -60.00154 -0.35880432 24 3199383204000 1 0
-3.1952977 -16.735128 -1.835215 2 3199383204000 1 0
-5.910757 -20.060406 -1.9521972 14 3199383206304 1 0
-18.229319 -61.83662 0.7505239 14 3199383208608 1 0
-3.9338007 -20.57212 -1.4646069 1 3199383208608 1 1
-5.119508 -21.107773 -1.7730947 6 3199383210912 1 0
-13.089107 -68.50182 1.6228367 20 3199383206304 1 0
-11.927295 -84.51034 2.4838662 40 3199383210912 1 0
-8.552208 -35.239563 0.6329639 6 3199383213216 1 0
-10.008201 -33.897526 -2.058354 14 3199383215520 1 0
-2.88692 -20.434742 -1.322642 1 3199383213216 1 1
-13.663006 -71.29156 4.2274046 28 3199383215520 1 0
-8.561814 -35.236656 1.4773486 21 3199383217824 1 0
-3.9535306 -20.613535 -0.977712 2 3199383217824 1 1
0 0 0 8 3199383220128 1 0
-8.591683 -35.317047 2.9671996 15 3199383222432 1 0
0 0 0 1 3199383220128 1 0
-2.9129775 -20.537235 -0.8450831 1 3199383222432 1 1
0 0 0 9 3199383224736 1 0
-8.580423 -35.22837 6.610819 13 3199383227040 1 0
0 0 0 1 3199383227040 1 0
-0.88987386 -3.633867 -1.7445682 4 3199383247776 1 0
-16.42952 -55.533337 -2.022356 13 3199383224736 1 0
-3.0580122 -21.32659 -0.37606445 2 3199383247776 1 1
0 0 0 9 3199383250080 1 0
-1.1946115 -6.16393 -1.7576314 4 3199383250080 1 0
-2.140851 -8.731333 -1.7980033 3 3199383252384 1 0
0 0 0 11 3199383252384 1 0
-10.610704 -35.626965 -0.4327689 11 3199383254688 1 0
-2.1690657 -11.174495 -1.7709402 15 3199383254688 1 0
-2.7917898 -11.371843 -1.4904702 16 3199383256992 1 0
-11.642038 -80.85679 0.47478685 3 3199383256992 1 0
-14.736185 -59.987465 -0.35901353 24 3199383259296 1 0
-3.2529018 -16.73213 -1.8360718 2 3199383259296 1 0
-5.9872293 -20.070967 -1.9551715 26 3199383261600 1 0
-13.322236 -68.47316 1.6232089 20 3199383261600 1 0
-10.696631 -35.83925 0.43542308 9 3199383263904 1 0
-4.022111 -20.656677 -1.4715825 1 3199383263904 1 1
-5.1840334 -21.063278 -1.7708164 20 3199383266208 1 0
-9.95482 -68.854645 2.024701 52 3199383266208 1 0
-8.645502 -35.10559 0.631079 6 3199383268512 1 0
-2.9560049 -20.424864 -1.322642 1 3199383268512 1 1
-10.289999 -34.422005 -2.092307 20 3199383270816 1 0
0 0 0 3 3199383270816 1 0
-8.658468 -35.114246 1.4734408 21 3199383273120 1 0
0 0 0 2 3199383273120 1 0
0 0 0 8 3199383275424 1 0
0 0 0 1 3199383275424 1 0
-8.681509 -35.16368 2.956785 23 3199383277728 1 0
-2.9743845 -20.467854 -0.8426407 1 3199383277728 1 1
-16.626116 -55.499836 -2.0231936 26 3199383280032 1 0
-7.1313114 -36.427116 9.945898 20 3199383280032 1 0
-8.683095 -35.126194 6.5971866 13 3199383282336 1 0
0 0 0 1 3199383282336 1 0
-0.902553 -3.6307387 -1.7445682 3 3199383303072 1 0
-3.1219707 -21.244562 -0.3748079 2 3199383303072 1 1
0 0 0 9 3199383305376 1 0
-2.1694212 -8.716194 -1.7964344 3 3199383307680 1 0
-1.2146282 -6.152165 -1.7554748 5 3199383305376 1 0
-13.490906 -68.279976 0 100 3199383307680 1 0
-10.739621 -35.605026 -0.43295518 38 3199383309984 1 0
-2.2134256 -11.193996 -1.7752446 16 3199383309984 1 0
-2.835306 -11.37743 -1.4924904 17 3199383312288 1 0
-11.92421 -80.81566 0.47478685 3 3199383312288 1 0
-14.958072 -59.986115 -0.35931575 12 3199383314592 1 0
-3.3120606 -16.724575 -1.8365002 2 3199383314592 1 0
-6.0584054 -20.053757 -1.9555432 19 3199383316896 1 0
-13.533962 -68.28895 1.6199521 60 3199383316896 1 0
-10.8436575 -35.874435 0.4363078 14 3199383319200 1 0
-4.0941916 -20.642511 -1.4715825 1 3199383319200 1 1
0 0 0 19 3199383321504 1 0
-10.193349 -68.80761 2.024352 52 3199383321504 1 0
-8.752473 -35.01312 0.6299621 18 3199383323808 1 0
-3.0419216 -20.513136 -1.3290377 1 3199383323808 1 1
-10.356866 -34.210068 -2.0816095 40 3199383326112 1 0
-8.76352 -35.014023 1.4705098 21 3199383328416 1 0
0 0 0 2 3199383328416 1 0
0 0 0 3 3199383326112 1 0
0 0 0 8 3199383330720 1 0
0 0 0 1 3199383330720 1 0
-8.789664 -35.075153 2.951903 15 3199383333024 1 0
0 0 0 1 3199383333024 1 0
0 0 0 102 3199383335328 1 0
-8.780757 -34.99643 6.578532 13 3199383337632 1 0
-7.2342453 -36.280746 9.912769 13 3199383335328 1 0
-4.4612937 -22.357054 -0.53049266 2 3199383337632 1 1
-0.91522115 -3.627566 -1.7445682 3 3199383358368 1 0
-3.1663444 -21.035793 -0.3713174 2 3199383358368 1 1
-5.353335 -21.20545 -0.6365009 3 3199383360672 1 1
-1.2376145 -6.15544 -1.7576314 6 3199383360672 1 0
-2.2017546 -8.716174 -1.7980033 3 3199383362976 1 0
-7.346681 -36.512215 0 61 3199383362976 1 0
-10.862672 -35.563496 -0.4329086 31 3199383365280 1 0
-2.2556074 -11.201701 -1.7777042 16 3199383365280 1 0
-2.8808408 -11.390545 -1.4955208 17 3199383367584 1 0
-12.209823 -80.79727 0.47492635 84 3199383367584 1 0
-15.166389 -59.929657 -0.3592925 12 3199383369888 1 0
-3.3712063 -16.71681 -1.8369286 3 3199383369888 1 0
-6.1306996 -20.040104 -1.9562868 16 3199383372192 1 0
-7.3706746 -36.521572 0.8669707 16 3199383372192 1 0
0 0 0 250 3199383374496 1 0
-4.2057204 -20.823658 -1.4855338 1 3199383374496 1 1
-5.8874674 -23.221592 -1.9556764 2 3199383376800 1 0
-8.853003 -34.89707 0.62842625 24 3199383379104 1 0
-10.434071 -68.775566 2.0244684 52 3199383376800 1 0
-3.098524 -20.403728 -1.322642 1 3199383379104 1 1
-10.505479 -34.269154 -2.0874233 40 3199383381408 1 0
0 0 0 9 3199383381408 1 0
-8.866995 -34.90962 1.467416 21 3199383383712 1 0
0 0 0 2 3199383383712 1 0
-5.354599 -21.068369 -1.1392491 3 3199383386016 1 1
-7.397472 -36.490112 4.571563 6 3199383386016 1 0
-8.905168 -35.017212 2.9496248 15 3199383388320 1 0
-10.959425 -35.675858 -1.3032868 42 3199383390624 1 0
-3.2352657 -21.220991 -0.87455523 6 3199383388320 1 1
-7.344701 -36.17576 9.891028 13 3199383390624 1 0
-8.882473 -34.885487 6.5634656 20 3199383392928 1 0
0 0 0 1 3199383392928 1 0
-0.9305755 -3.6348853 -1.7496396 4 3199383413664 1 0
-3.2397537 -21.024612 -0.3713174 2 3199383413664 1 1
-5.427323 -21.186634 -0.6365009 3 3199383415968 1 1
-1.2598659 -6.154856 -1.7587097 5 3199383415968 1 0
-2.2331402 -8.7122345 -1.7987878 4 3199383418272 1 0
-7.4556255 -36.396217 0 92 3199383418272 1 0
-10.508136 -33.97779 -0.41405004 48 3199383420576 1 0
-2.9235427 -11.39195 -1.4970361 18 3199383422880 1 0
-2.2986636 -11.213119 -1.7807788 16 3199383420576 1 0
-12.496063 -80.78183 0.47508907 84 3199383422880 1 0
-15.406331 -59.996452 -0.3600132 12 3199383425184 1 0
-3.4319377 -16.716629 -1.8382137 3 3199383425184 1 0
-6.210042 -20.049017 -1.959261 11 3199383427488 1 0
-7.4779944 -36.397694 0.8646444 71 3199383427488 1 0
-11.007412 -35.518963 0.4329086 222 3199383429792 1 0
-4.2382026 -20.613424 -1.4715825 1 3199383429792 1 1
-5.9704766 -23.208622 -1.9563274 2 3199383432096 1 0
-10.675919 -68.75057 2.0248175 78 3199383432096 1 0
-8.986726 -34.912434 0.62926394 42 3199383434400 1 0
-3.1819894 -20.471678 -1.3277586 1 3199383434400 1 1
-10.662915 -34.354313 -2.0948653 25 3199383436704 1 0
-7.498181 -36.388546 2.1637018 56 3199383436704 1 0
-4.259186 -20.65456 -0.9823651 2 3199383439008 1 1
-8.996778 -34.909416 1.4687186 21 3199383439008 1 0
0 0 0 8 3199383441312 1 0
0 0 0 12 3199383441312 1 0
-9.033322 -35.009075 2.9515777 23 3199383443616 1 0
-3.321644 -21.288548 -0.8778118 6 3199383443616 1 1
-10.555577 -33.93873 -1.2411658 67 3199383445920 1 0
-7.4552937 -36.074226 9.870323 13 3199383445920 1 0
-9.026831 -34.9419 6.5799675 20 3199383448224 1 0
0 0 0 1 3199383448224 1 0
0 0 0 7 3199383468960 1 0
-0.9441693 -3.6351235 -1.75133 4 3199383468960 1 0
-5.5163307 -21.225605 -0.6382463 3 3199383471264 1 1
-1.2821283 -6.154192 -1.7597879 4 3199383471264 1 0
-2.2625508 -8.70059 -1.7980033 3 3199383473568 1 0
-7.5777283 -36.346478 0 92 3199383473568 1 0
-10.625482 -33.937088 -0.4140035 67 3199383475872 1 0
-2.341827 -11.224372 -1.7838533 16 3199383475872 1 0
-2.968289 -11.400875 -1.4995614 19 3199383478176 1 0
-12.78172 -80.76142 0.47522855 84 3199383478176 1 0
-9.028972 -34.658623 -0.2081595 9 3199383480480 1 0
-3.488642 -16.69676 -1.8373569 3 3199383480480 1 0
-6.2799883 -20.027218 -1.959261 4 3199383482784 1 0
-7.5992713 -36.34397 0.86399305 71 3199383482784 1 0
-11.160064 -35.571915 0.43402615 222 3199383485088 1 0
-4.310131 -20.598505 -1.4715825 1 3199383485088 1 1
-6.0554805 -23.20307 -1.9576292 2 3199383487392 1 0
-10.915211 -68.70894 2.024701 26 3199383487392 1 0
-9.129758 -34.962112 0.63073 42 3199383489696 1 0
-3.2722356 -20.578714 -1.3354335 1 3199383489696 1 1
-10.785163 -34.3245 -2.0953302 15 3199383492000 1 0
-7.619418 -36.334793 2.1620739 56 3199383492000 1 0
-9.156994 -35.024734 1.4749062 21 3199383494304 1 0
0 0 0 2 3199383494304 1 0
-5.5834384 -21.343496 -1.1562059 3 3199383496608 1 1
-7.628376 -36.3249 4.557426 48 3199383496608 1 0
-9.170615 -35.035183 2.9564595 23 3199383498912 1 0
-3.3990843 -21.296556 -0.8786259 4 3199383498912 1 1
-10.6559725 -33.844482 -1.2390717 42 3199383501216 1 0
-7.5660625 -35.976143 9.850653 19 3199383501216 1 0
-9.157723 -34.944435 6.586425 20 3199383503520 1 0
0 0 0 1 3199383503520 1 0
-3.3387027 -20.705353 -0.36608168 2 3199383524256 1 1
-0.9550053 -3.6247945 -1.7479491 4 3199383524256 1 0
-9.023101 -34.227654 -1.030154 13 3199383526560 1 0
-1.3044014 -6.153447 -1.7608663 4 3199383526560 1 0
-2.2949085 -8.700225 -1.7995722 3 3199383528864 1 0
-7.7004046 -36.30024 0 51 3199383528864 1 0
-10.72817 -33.850224 -0.41339815 26 3199383531168 1 0
-2.3834553 -11.227728 -1.785698 16 3199383531168 1 0
-3.0141463 -11.413463 -1.5025918 17 3199383533472 1 0
-13.068665 -80.7479 0.47541454 84 3199383533472 1 0
0 0 0 18 3199383535776 1 0
-3.5493844 -16.696152 -1.8386421 3 3199383535776 1 0
-7.724425 -36.3094 0.8638069 60 3199383538080 1 0
-6.337809 -19.967215 -1.9555432 3 3199383538080 1 0
-11.2974825 -35.574677 0.43453836 214 3199383540384 1 0
-4.4443226 -20.876045 -1.4925095 1 3199383540384 1 1
-6.138478 -23.189499 -1.9582801 2 3199383542688 1 0
-13.718065 -84.44884 2.489917 39 3199383542688 1 0
-9.154464 -34.56275 0.62409806 88 3199383544992 1 0
-3.3600643 -20.665668 -1.3418292 1 3199383544992 1 1
-7.7487035 -36.31969 2.1627715 24 3199383547296 1 0
-10.898861 -34.26762 -2.0941675 15 3199383547296 1 0
-9.167536 -34.571472 1.4571579 61 3199383549600 1 0
0 0 0 8 3199383551904 1 0
-4.403277 -20.624321 -0.9823651 2 3199383549600 1 1
-7.7592745 -36.317467 4.5598636 41 3199383551904 1 0
-9.179303 -34.57525 2.9203336 22 3199383554208 1 0
-3.4547353 -21.17017 -0.8739039 4 3199383554208 1 1
-10.816532 -33.940388 -1.2439576 12 3199383556512 1 0
-7.666537 -35.83239 9.81856 19 3199383556512 1 0
-9.184627 -34.554768 6.518982 19 3199383558816 1 0
0 0 0 1 3199383558816 1 0
-0.9685882 -3.624941 -1.7496396 4 3199383579552 1 0
0 0 0 28 3199383581856 1 0
-1.3234372 -6.1375604 -1.7576314 4 3199383581856 1 0
0 0 0 7 3199383579552 1 0
-2.3242502 -8.688372 -1.7987878 3 3199383584160 1 0
-7.7798214 -36.05418 0 25 3199383584160 1 0
-10.920788 -34.04489 -0.41623858 11 3199383586464 1 0
-2.4259698 -11.234794 -1.7881577 16 3199383586464 1 0
-3.059101 -11.422037 -1.5051172 18 3199383588768 1 0
-13.354365 -80.72547 0.47555402 84 3199383588768 1 0
-9.241722 -34.486565 -0.20750856 92 3199383591072 1 0
-3.6093242 -16.691435 -1.8394989 3 3199383591072 1 0
-7.8096795 -36.090702 0.8592473 21 3199383593376 1 0
0 0 0 86 3199383595680 1 0
-4.4800086 -20.688808 -1.4802324 1 3199383595680 1 1
-6.246261 -23.268042 -1.966742 2 3199383597984 1 0
-13.995081 -84.29394 2.4867752 39 3199383597984 1 0
-9.2605295 -34.476513 0.6231207 94 3199383600288 1 0
-3.4321804 -20.653814 -1.3418292 1 3199383600288 1 1
-10.843437 -33.685802 -2.0609121 9 3199383602592 1 0
-6.4050326 -19.937386 -1.9547997 3 3199383593376 1 0
-7.840716 -36.132423 2.1532369 8 3199383602592 1 0
-9.272589 -34.481365 1.4547154 68 3199383604896 1 0
-4.5176377 -20.80406 -0.9916713 2 3199383604896 1 1
-5.680412 -21.111132 -1.1457387 3 3199383607200 1 1
-7.8514333 -36.131096 4.539877 13 3199383607200 1 0
-9.28439 -34.48525 2.9154518 30 3199383609504 1 0
-3.5056007 -21.020004 -0.8682049 4 3199383609504 1 1
-11.031883 -34.202984 -1.2549859 12 3199383611808 1 0
-7.778424 -35.745007 9.801995 19 3199383611808 1 0
-9.290851 -34.469303 6.5089374 39 3199383614112 1 0
0 0 0 1 3199383614112 1 0
-0.9812357 -3.6215382 -1.7496396 5 3199383634296 1 0
-9.345528 -34.472546 -1.0394629 82 3199383636600 1 0
0 0 0 7 3199383634296 1 0
-1.3473284 -6.144191 -1.7608663 5 3199383636600 1 0
-2.356618 -8.687777 -1.8003567 4 3199383638904 1 0
-7.8859076 -35.93694 0 30 3199383638904 1 0
-2.4685626 -11.241699 -1.7906173 16 3199383641208 1 0
-11.13342 -34.29569 -0.41977745 11 3199383641208 1 0
-3.1041524 -11.430435 -1.5076426 16 3199383643512 1 0
-13.643401 -80.72175 0.47580975 84 3199383643512 1 0
-9.36834 -34.477253 -0.20764805 82 3199383645816 1 0
-3.6684203 -16.68262 -1.8399273 3 3199383645816 1 0
-6.5004473 -19.994444 -1.9626069 3 3199383648120 1 0
-7.917565 -35.981205 0.85729325 21 3199383648120 1 0
0 0 0 43 3199383650424 1 0
-4.568503 -20.747086 -1.4855338 1 3199383650424 1 1
-6.3243027 -23.234556 -1.9657657 2 3199383652728 1 0
-13.802476 -81.374794 2.4020636 42 3199383652728 1 0
-9.385023 -34.45941 0.6234 94 3199383655032 1 0
-11.427249 -35.07916 -2.1485856 15 3199383657336 1 0
-3.527639 -20.77945 -1.3507832 1 3199383655032 1 1
-9.393946 -34.452644 1.4548782 68 3199383659640 1 0
-7.9349575 -35.960556 2.144632 7 3199383657336 1 0
-5.754069 -21.091175 -1.1457387 3 3199383661944 1 1
-4.6031528 -20.846687 -0.99446315 2 3199383659640 1 1
-7.950095 -35.979416 4.5242777 13 3199383661944 1 0
-9.40156 -34.441093 2.9144754 30 3199383664248 1 0
-11.242996 -34.445488 -1.2653161 12 3199383666552 1 0
-3.5574737 -20.881561 -0.8629944 2 3199383664248 1 1
-7.879778 -35.612007 9.773007 19 3199383666552 1 0
-9.416302 -34.45564 6.5125246 33 3199383668856 1 0
0 0 0 1 3199383668856 1 0
-0.9948315 -3.6215866 -1.75133 5 3199383689592 1 0
-3.5892408 -20.866331 -0.36957216 2 3199383689592 1 1
-9.485684 -34.513035 -1.0416739 35 3199383691896 1 0
-1.369561 -6.14322 -1.7619445 5 3199383691896 1 0
-2.3888834 -8.687097 -1.8019257 2 3199383694200 1 0
-11.342188 -34.530464 -0.4231301 11 3199383696504 1 0
-2.5109878 -11.248498 -1.793077 15 3199383696504 1 0
-7.9907494 -35.81952 0 46 3199383694200 1 0
-3.1489668 -11.43875 -1.510168 16 3199383698808 1 0
-13.924784 -80.68586 0.4758795 42 3199383698808 1 0
-9.511808 -34.533382 -0.20818275 34 3199383701112 1 0
-3.7381704 -16.724184 -1.8459247 3 3199383701112 1 0
-6.5693297 -19.971918 -1.9626069 3 3199383703416 1 0
-8.019725 -35.856136 0.85496694 21 3199383703416 1 0
-30.099176 -91.46422 1.1209898 28 3199383705720 1 0
-4.6834154 -20.925945 -1.4994851 1 3199383705720 1 1
-6.4124994 -23.243456 -1.9683694 2 3199383708024 1 0
-9.525346 -34.508026 0.62486595 29 3199383710328 1 0
-3.5776627 -20.645317 -1.3428525 1 3199383710328 1 1
-11.54833 -35.04369 -2.1488183 15 3199383712632 1 0
-8.067433 -35.976086 2.1471903 8 3199383712632 1 0
-9.529494 -34.485893 1.4576463 34 3199383714936 1 0
-13.843639 -79.95199 2.3614533 43 3199383708024 1 0
-4.6768517 -20.842564 -0.9950215 2 3199383714936 1 1
0 0 0 42 3199383717240 1 0
-8.053366 -35.86693 4.513553 13 3199383717240 1 0
-9.541856 -34.4935 2.9216354 22 3199383719544 1 0
-3.623577 -20.841797 -0.86185455 2 3199383719544 1 1
-11.437365 -34.64254 -1.2739712 13 3199383721848 1 0
-7.986008 -35.521015 9.755407 19 3199383721848 1 0
-4.7518673 -21.122223 -0.50378656 2 3199383724152 1 1
-9.557967 -34.514618 6.529744 20 3199383724152 1 0
-1.0078075 -3.6217601 -1.7530205 4 3199383744888 1 0
-3.6826031 -20.992186 -0.3720155 2 3199383744888 1 1
-9.650737 -34.662354 -1.0471429 21 3199383747192 1 0
-1.389119 -6.1348777 -1.7608663 5 3199383747192 1 0
-2.4188564 -8.68287 -1.8027102 3 3199383749496 1 0
-8.094097 -35.722485 0 46 3199383749496 1 0
-24.4051 -73.47145 -0.90129924 26 3199383751800 1 0
-2.5511425 -11.251617 -1.7949218 13 3199383751800 1 0
-3.192544 -11.447263 -1.5126933 20 3199383754104 1 0
-12.099055 -68.73406 0.40562508 28 3199383754104 1 0
0 0 0 9 3199383756408 1 0
-3.784531 -16.668898 -1.8412125 3 3199383756408 1 0
-6.633879 -19.942177 -1.9618634 3 3199383758712 1 0
-8.122428 -35.751 0.8531059 26 3199383758712 1 0
-30.468859 -91.54831 1.1232713 28 3199383761016 1 0
-4.7715387 -20.987877 -1.5050657 3 3199383761016 1 1
-6.4887466 -23.214006 -1.9677184 2 3199383763320 1 0
-12.120895 -68.624275 2.0280757 26 3199383763320 1 0
0 0 0 21 3199383765624 1 0
-3.6495404 -20.644894 -1.34362 1 3199383765624 1 1
-11.641768 -34.928585 -2.1441672 35 3199383767928 1 0
-8.154713 -35.79669 2.1381207 7 3199383767928 1 0
-9.80604 -35.022934 1.481745 14 3199383770232 1 0
-4.783131 -20.98239 -1.0024666 2 3199383770232 1 1
-9.484702 -33.85629 -1.8426443 35 3199383772536 1 0
-8.155963 -35.754154 4.5028286 13 3199383772536 1 0
0 0 0 8 3199383774840 1 0
-3.6918483 -20.813576 -0.86120325 2 3199383774840 1 1
-12.291389 -36.806236 -1.3550776 7 3199383777144 1 0
-8.079838 -35.37298 9.722279 19 3199383777144 1 0
0 0 0 29 3199383779448 1 0
0 0 0 1 3199383779448 1 0
-1.0174916 -3.6077528 -1.7479491 4 3199383800184 1 0
-3.76361 -21.022509 -0.3727834 2 3199383800184 1 1
-10.202759 -36.156124 -1.0933386 15 3199383802488 1 0
-1.4087977 -6.1224837 -1.7587097 5 3199383802488 1 0
-8.199894 -35.612156 0 35 3199383804792 1 0
-2.4502163 -8.678148 -1.8034946 3 3199383804792 1 0
-24.685621 -73.457855 -0.90218395 40 3199383807096 1 0
-3.2389586 -11.45896 -1.5157237 20 3199383809400 1 0
-12.334665 -68.66779 0.4054856 28 3199383809400 1 0
-17.782434 -62.876698 -0.37977368 15 3199383811704 1 0
-3.8435874 -16.65946 -1.8416408 3 3199383811704 1 0
-2.5939522 -11.25805 -1.7973814 12 3199383807096 1 0
-6.70472 -19.922672 -1.9622352 3 3199383814008 1 0
-8.227383 -35.636707 0.8510587 26 3199383814008 1 0
-30.247084 -89.83417 1.1035281 28 3199383816312 1 0
-4.8465676 -20.978868 -1.5056237 3 3199383816312 1 1
-6.577346 -23.218065 -1.9699966 2 3199383818616 1 0
-12.370294 -68.636635 2.0297048 26 3199383818616 1 0
-33.55227 -118.37403 2.1476233 29 3199383820920 1 0
-3.727251 -20.663456 -1.3456666 1 3199383820920 1 1
-11.647515 -34.5434 -2.1230044 10 3199383823224 1 0
-8.265208 -35.705765 2.1343997 23 3199383823224 1 0
-9.980601 -35.173046 1.4895608 21 3199383825528 1 0
-4.8491306 -20.934423 -1.0009775 2 3199383825528 1 1
-9.621371 -33.8883 -1.8462032 35 3199383827832 1 0
-8.261892 -35.644245 4.4925914 20 3199383827832 1 0
-3.7473965 -20.706175 -0.85729533 2 3199383830136 1 1
0 0 0 8 3199383830136 1 0
-17.069378 -50.526077 -1.8623767 11 3199383832440 1 0
-8.185793 -35.269287 9.701573 19 3199383832440 1 0
0 0 0 29 3199383834744 1 0
-5.2027016 -22.401552 -0.5351453 2 3199383834744 1 1
-1.031075 -3.6076648 -1.7496396 3 3199383855480 1 0
-3.8326578 -20.985638 -0.37236455 2 3199383855480 1 1
-10.309118 -36.051094 -1.0912441 15 3199383857784 1 0
-1.4310375 -6.1212792 -1.7597879 5 3199383857784 1 0
-2.4804938 -8.669543 -1.8034946 2 3199383860088 1 0
-8.302287 -35.48984 0 41 3199383860088 1 0
-24.99338 -73.52271 -0.90404654 40 3199383862392 1 0
-2.635036 -11.256624 -1.7986112 13 3199383862392 1 0
-12.568519 -68.59284 0.4052996 28 3199383864696 1 0
-25.376202 -88.54594 -0.535347 28 3199383867000 1 0
-3.902624 -16.649815 -1.8420693 3 3199383867000 1 0
-6.775506 -19.902918 -1.9626069 3 3199383869304 1 0
-8.331638 -35.52212 0.84901154 26 3199383869304 1 0
-3.2865865 -11.474285 -1.5192592 20 3199383864696 1 0
-30.521793 -89.614456 1.1021312 28 3199383871608 1 0
-4.9288855 -21.00067 -1.508414 6 3199383871608 1 1
-6.658352 -23.194965 -1.9699966 2 3199383873912 1 0
-12.605467 -68.56944 2.0290065 26 3199383873912 1 0
-33.673794 -117.24139 2.1291935 29 3199383876216 1 0
-3.8138037 -20.728838 -1.3507832 1 3199383876216 1 1
-11.813142 -34.63481 -2.131144 41 3199383878520 1 0
-8.354143 -35.525097 2.12533 15 3199383878520 1 0
-10.158539 -35.330048 1.4977022 14 3199383880824 1 0
-4.922176 -20.91737 -1.0009775 2 3199383880824 1 1
-9.759484 -33.923607 -1.8499714 36 3199383883128 1 0
-8.364425 -35.52244 4.480892 13 3199383883128 1 0
0 0 0 8 3199383885432 1 0
-3.8254554 -20.72441 -0.85859793 2 3199383885432 1 1
-12.422653 -36.3526 -1.3415366 7 3199383887736 1 0
-8.288463 -35.154003 9.677762 19 3199383887736 1 0
0 0 0 29 3199383890040 1 0
-5.3267784 -22.577858 -0.5397979 2 3199383890040 1 1
-1.0446701 -3.6075258 -1.75133 4 3199383910776 1 0
-3.9132106 -21.011448 -0.37306264 2 3199383910776 1 1
-9.836265 -33.948776 -1.0286413 13 3199383913080 1 0
-1.454176 -6.123742 -1.7619445 4 3199383913080 1 0
-2.5118332 -8.664598 -1.8042791 2 3199383915384 1 0
-8.413173 -35.40616 0 5 3199383915384 1 0
-25.269379 -73.49176 -0.904745 27 3199383917688 1 0
-2.6779702 -11.262738 -1.8010708 13 3199383917688 1 0
-3.3332548 -11.485608 -1.5222898 20 3199383919992 1 0
-12.8122835 -68.57214 0.4054391 28 3199383919992 1 0
-25.412975 -87.51955 -0.5296746 28 3199383922296 1 0
-3.9634821 -16.647696 -1.8433543 3 3199383922296 1 0
-6.8501253 -19.894209 -1.964094 3 3199383924600 1 0
-8.446315 -35.45392 0.84808105 10 3199383924600 1 0
-30.723688 -89.18593 1.0981733 28 3199383926904 1 0
0 0 0 19 3199383926904 1 0
-6.739277 -23.171581 -1.9699966 2 3199383929208 1 0
-12.847689 -68.54075 2.029472 26 3199383929208 1 0
-33.72078 -115.87893 2.1065753 29 3199383931512 1 0
-3.8787775 -20.676165 -1.3482249 1 3199383931512 1 1
-8.4614 -35.425804 2.121144 7 3199383933816 1 0
-10.518782 -36.107853 1.532222 15 3199383936120 1 0
-11.924851 -34.56694 -2.1295161 15 3199383933816 1 0
-4.995161 -20.90006 -1.0009775 2 3199383936120 1 1
-9.897961 -33.958363 -1.8537396 43 3199383938424 1 0
-8.467131 -35.404217 4.46968 19 3199383938424 1 0
-33.06852 -113.391556 9.642341 28 3199383940728 1 0
-3.913297 -20.793413 -0.8620174 2 3199383940728 1 1
-12.605625 -36.47148 -1.3475394 7 3199383943032 1 0
-8.392227 -35.04595 9.656021 19 3199383943032 1 0
0 0 0 29 3199383945336 1 0
0 0 0 1 3199383945336 1 0
-1.060318 -3.6142933 -1.7564015 4 3199383966072 1 0
-4.00518 -21.095892 -0.3748079 2 3199383966072 1 1
-9.9749775 -33.98329 -1.0307359 6 3199383968376 1 0
-2.5453787 -8.6670685 -1.8066325 3 3199383970680 1 0
-1.4746399 -6.1148844 -1.7608663 3 3199383968376 1 0
-8.542342 -35.399906 0 5 3199383970680 1 0
-25.574366 -73.542885 -0.90646785 27 3199383972984 1 0
-2.7219067 -11.272532 -1.8041453 13 3199383972984 1 0
-3.3778036 -11.48913 -1.52431 20 3199383975288 1 0
-13.051566 -68.527 0.4054391 28 3199383975288 1 0
-25.415806 -86.40189 -0.5234442 28 3199383977592 1 0
-4.0281115 -16.66082 -1.8463532 3 3199383977592 1 0
-6.915598 -19.858892 -1.9629787 3 3199383979896 1 0
-8.538051 -35.29207 0.84491724 5 3199383979896 1 0
-5.0997863 -21.066584 -1.5156686 8 3199383982200 1 1
-6.822373 -23.155565 -1.9706476 2 3199383984504 1 0
-13.086863 -68.49548 2.029472 26 3199383984504 1 0
-31.08614 -89.22545 1.0999892 28 3199383982200 1 0
-33.68403 -114.26441 2.0793495 29 3199383986808 1 0
-3.9621725 -20.721312 -1.3520623 1 3199383986808 1 1
-8.58689 -35.403816 2.1216092 15 3199383989112 1 0
-10.643627 -36.06708 1.5320592 22 3199383991416 1 0
-12.253279 -35.120823 -2.16626 10 3199383989112 1 0
-5.0680857 -20.882498 -1.0009775 2 3199383991416 1 1
-10.102405 -34.214764 -1.8696496 14 3199383993720 1 0
-8.092219 -33.321964 4.210342 24 3199383993720 1 0
-33.068798 -111.93725 9.528431 28 3199383996024 1 0
-3.982844 -20.763926 -0.86136603 2 3199383996024 1 1
-17.489376 -50.03512 -1.8509297 10 3199383998328 1 0
-8.4926 -34.92634 9.631174 19 3199383998328 1 0
0 0 0 29 3199384000632 1 0
0 0 0 1 3199384000632 1 0
-1.0708624 -3.60362 -1.7530205 4 3199384021368 1 0
-4.0552435 -20.960058 -0.37264377 2 3199384021368 1 1
-17.839746 -60.001583 -1.8217657 22 3199384023672 1 0
-1.4959759 -6.1096997 -1.7608663 4 3199384023672 1 0
-2.5756168 -8.658131 -1.8066325 2 3199384025976 1 0
-8.629687 -35.22224 0 5 3199384025976 1 0
-25.946363 -73.78143 -0.91051894 13 3199384028280 1 0
-2.7678263 -11.289834 -1.8084497 12 3199384028280 1 0
0 0 0 5 3199384030584 1 0
-3.4224176 -11.492481 -1.5263302 21 3199384030584 1 0
-10.672499 -35.819214 -0.21722609 15 3199384032888 1 0
-4.087192 -16.650518 -1.8467815 3 3199384032888 1 0
-6.994137 -19.860928 -1.9655812 3 3199384035192 1 0
-8.638298 -35.16885 0.842684 5 3199384035192 1 0
-30.45507 -86.44173 1.0669751 28 3199384037496 1 0
-5.1761484 -21.060278 -1.5165057 28 3199384037496 1 1
-13.29073 -68.26885 2.0241194 78 3199384039800 1 0
0 0 0 65 3199384042104 1 0
-6.9065795 -23.14307 -1.9716239 2 3199384039800 1 0
-4.034479 -20.707354 -1.3520623 1 3199384042104 1 1
