# .PCD v.7 - Point Cloud Data file format
VERSION .7
FIELDS x y z rgb timestamp_ns device_id active
SIZE 4 4 4 4 8 1 1
TYPE F F F F F U U
COUNT 1 1 1 1 1 1 1
WIDTH 1022
HEIGHT 1
VIEWPOINT 0 0 0 1 0 0 0
POINTS 1022               
DATA ascii
0 0 0 8 3200375398320 1 0
6.5802364 -18.41121 -0.79656005 1 3200375398320 1 1
5.776578 -29.016556 -1.0331647 16 3200375400624 1 0
0 0 0 9 3200375400624 1 0
7.4158807 -29.630537 5.5690446 29 3200375402928 1 0
6.0013757 -19.813448 -0.4817331 1 3200375402928 1 1
0 0 0 4 3200375423664 1 0
6.6303983 -18.64091 -0.3453482 5 3200375423664 1 1
0 0 0 9 3200375425968 1 0
1.7550207 -5.823468 -1.702638 6 3200375425968 1 0
2.084929 -8.385571 -1.7281855 4 3200375428272 1 0
8.452579 -28.062658 0 28 3200375428272 1 0
10.84597 -55.009163 -0.6527388 8 3200375430576 1 0
3.045429 -10.116453 -1.6436539 32 3200375430576 1 0
2.5952518 -10.451717 -1.3707678 8 3200375432880 1 0
17.00675 -47.90597 0.29545444 11 3200375432880 1 0
4.9670444 -20.01658 -0.11986491 16 3200375435184 1 1
4.5317183 -15.070356 -1.6951321 3 3200375435184 1 0
3.7140207 -18.882545 -1.796423 2 3200375437488 1 0
12.468451 -41.487152 1.0080384 75 3200375437488 1 0
10.802338 -54.96476 0.65213346 29 3200375439792 1 0
5.5730195 -18.55378 -1.3546708 1 3200375439792 1 1
4.6712494 -18.861526 -1.5862818 7 3200375442096 1 0
16.942541 -47.817738 1.4764028 16 3200375442096 1 0
13.47689 -54.452488 0.9791498 12 3200375444400 1 0
6.5789266 -18.577028 -1.2630335 1 3200375444400 1 1
5.7098 -29.123272 -1.7283568 12 3200375446704 1 0
0 0 0 6 3200375446704 1 0
13.429091 -54.330513 2.2800963 64 3200375449008 1 0
5.577256 -18.609138 -0.90493727 2 3200375449008 1 1
4.6477466 -18.815876 -1.0157362 2 3200375451312 1 1
11.168863 -37.28686 4.779228 7 3200375451312 1 0
6.526316 -18.464306 -0.7978627 1 3200375453616 1 1
0 0 0 8 3200375453616 1 0
5.654477 -28.934702 -1.0295352 33 3200375455920 1 0
0 0 0 9 3200375455920 1 0
7.3111115 -29.656563 5.5690446 29 3200375458224 1 0
0 0 0 4 3200375478960 1 0
0 0 0 1 3200375458224 1 0
0 0 0 9 3200375481264 1 0
6.559378 -18.65754 -0.3452086 3 3200375478960 1 1
1.7337496 -5.8298364 -1.702638 6 3200375481264 1 0
2.055357 -8.396906 -1.72897 4 3200375483568 1 0
8.349344 -28.089373 0 28 3200375483568 1 0
5.64309 -29.17729 -0.34597299 23 3200375485872 1 0
3.0087717 -10.127417 -1.6436539 35 3200375485872 1 0
2.553766 -10.445593 -1.3687476 3 3200375488176 1 0
17.17028 -48.925663 0.30135936 11 3200375488176 1 0
4.893205 -20.026524 -0.11981841 16 3200375490480 1 1
4.4775496 -15.086539 -1.6951321 3 3200375490480 1 0
3.65021 -18.915266 -1.7982818 2 3200375492784 1 0
12.314246 -41.51233 1.0075731 68 3200375492784 1 0
10.608681 -55.014683 0.6522732 29 3200375495088 1 0
5.528421 -18.646208 -1.3599722 1 3200375495088 1 1
4.604284 -18.877985 -1.5862818 3 3200375497392 1 0
18.558676 -52.9755 1.633608 18 3200375497392 1 0
13.281513 -54.488125 0.97894037 12 3200375499696 1 0
6.448585 -18.415556 -1.2504978 1 3200375499696 1 1
5.608767 -29.151031 -1.7288219 12 3200375502000 1 0
12.284034 -41.49458 2.5202103 83 3200375502000 1 0
13.234788 -54.36172 2.279445 64 3200375504304 1 0
5.5153947 -18.640066 -0.90549564 2 3200375504304 1 1
4.587705 -18.855272 -1.0169923 2 3200375506608 1 1
11.075795 -37.45126 4.795315 7 3200375506608 1 0
0 0 0 8 3200375508912 1 0
6.462093 -18.486881 -0.7978627 1 3200375508912 1 1
5.541481 -28.88736 -1.027162 37 3200375511216 1 0
0 0 0 9 3200375511216 1 0
7.2079124 -29.677763 5.568327 29 3200375513520 1 0
0 0 0 1 3200375513520 1 0
0 0 0 4 3200375534256 1 0
6.489588 -18.656525 -0.34478974 1 3200375534256 1 1
0 0 0 9 3200375536560 1 0
1.715451 -5.839262 -1.7037163 6 3200375536560 1 0
8.253489 -28.10935 0 36 3200375538864 1 0
2.030138 -8.415144 -1.7313235 4 3200375538864 1 0
5.546413 -29.199892 -0.34601957 5 3200375541168 1 0
2.9716115 -10.126025 -1.6418092 10 3200375541168 1 0
2.5215974 -10.46565 -1.3702627 2 3200375543472 1 0
18.411592 -53.029778 0.3262576 13 3200375543472 1 0
4.826039 -20.042816 -0.11981841 16 3200375545776 1 1
4.4303036 -15.112914 -1.6964172 3 3200375545776 1 0
3.5851557 -18.919596 -1.7975383 2 3200375548080 1 0
10.424873 -55.057953 0.6523663 19 3200375550384 1 0
12.169084 -41.53428 1.0071079 68 3200375548080 1 0
5.4801855 -18.714499 -1.3635995 1 3200375550384 1 1
4.5358996 -18.874031 -1.5846545 5 3200375552688 1 0
18.379814 -53.03782 1.633608 27 3200375552688 1 0
13.098116 -54.536613 0.97901016 12 3200375554992 1 0
5.511429 -29.17772 -1.729287 12 3200375557296 1 0
6.3901944 -18.448572 -1.2512653 1 3200375554992 1 1
12.141104 -41.528305 2.519745 59 3200375557296 1 0
13.049161 -54.402466 2.279282 64 3200375559600 1 0
5.4419727 -18.624172 -0.9038206 2 3200375559600 1 1
4.515126 -18.835817 -1.0151082 2 3200375561904 1 1
10.948271 -37.48874 4.795315 7 3200375561904 1 0
0 0 0 8 3200375564208 1 0
6.383332 -18.463486 -0.79590875 1 3200375564208 1 1
5.430878 -28.843275 -1.0249285 37 3200375566512 1 0
0 0 0 9 3200375566512 1 0
7.106218 -29.702278 5.568327 29 3200375568816 1 0
0 0 0 1 3200375568816 1 0
0 0 0 4 3200375589552 1 0
6.8302603 -19.859034 -0.36657035 2 3200375589552 1 1
0 0 0 9 3200375591856 1 0
1.6961305 -5.8489137 -1.7047946 6 3200375591856 1 0
2.0007513 -8.422179 -1.7313235 5 3200375594160 1 0
8.153091 -28.130304 0 36 3200375594160 1 0
0 0 0 38 3200375596464 1 0
2.9406457 -10.151522 -1.6442688 8 3200375596464 1 0
2.488714 -10.489832 -1.3722831 2 3200375598768 1 0
18.22897 -53.101288 0.32630408 13 3200375598768 1 0
4.778194 -20.152948 -0.120376356 16 3200375601072 1 1
4.3797336 -15.135927 -1.697274 3 3200375601072 1 0
3.51982 -18.935911 -1.7979101 2 3200375603376 1 0
10.232621 -55.094006 0.6523663 19 3200375605680 1 0
12.021806 -41.56882 1.0069218 68 3200375603376 1 0
5.4115024 -18.722013 -1.3627625 1 3200375605680 1 1
4.4690714 -18.88587 -1.584329 3 3200375607984 1 0
12.904906 -54.570324 0.9788008 12 3200375610288 1 0
18.181606 -53.063828 1.6324444 27 3200375607984 1 0
6.3800783 -18.62938 -1.2620102 1 3200375610288 1 1
5.412456 -29.212484 -1.7302172 12 3200375612592 1 0
11.992747 -41.55892 2.5190475 71 3200375612592 1 0
5.380251 -18.654573 -0.9043789 4 3200375614896 1 1
12.856425 -54.436016 2.2787936 64 3200375614896 1 0
4.4557724 -18.878677 -1.0165737 5 3200375617200 1 1
10.792051 -37.438984 4.784103 7 3200375617200 1 0
0 0 0 8 3200375619504 1 0
6.3020377 -18.436491 -0.79379195 1 3200375619504 1 1
5.3163695 -28.787365 -1.022276 33 3200375621808 1 0
0 0 0 9 3200375621808 1 0
7.00069 -29.719242 5.566892 29 3200375624112 1 0
0 0 0 1 3200375624112 1 0
0 0 0 4 3200375644296 1 0
0 0 0 7 3200375644296 1 0
0 0 0 9 3200375646600 1 0
1.6778234 -5.862205 -1.7069511 7 3200375646600 1 0
1.9722333 -8.432931 -1.7321079 5 3200375648904 1 0
8.054849 -28.158592 0 40 3200375648904 1 0
0 0 0 102 3200375651208 1 0
2.904106 -10.157925 -1.6436539 8 3200375651208 1 0
0 0 0 5 3200375653512 1 0
4.7059994 -20.161715 -0.120329864 8 3200375655816 1 1
4.3312407 -15.16642 -1.6989876 3 3200375655816 1 0
2.4647176 -10.55255 -1.3793541 8 3200375653512 1 0
3.4565566 -18.963755 -1.7993971 2 3200375658120 1 0
10.039529 -55.125454 0.6523197 19 3200375660424 1 0
11.877728 -41.614376 1.0070149 34 3200375658120 1 0
5.3143735 -18.62951 -1.3546708 1 3200375660424 1 1
4.877984 -20.939812 -1.7551944 4 3200375662728 1 0
17.824373 -52.61952 1.6168519 53 3200375662728 1 0
12.714342 -54.61504 0.9788008 25 3200375665032 1 0
5.3104525 -29.2312 -1.7302172 12 3200375667336 1 0
6.31117 -18.640194 -1.2612426 1 3200375665032 1 1
11.850888 -41.612053 2.519745 35 3200375667336 1 0
12.665425 -54.47667 2.2786307 64 3200375669640 1 0
5.3151016 -18.67324 -0.9043789 4 3200375669640 1 1
4.3916545 -18.901897 -1.0169923 7 3200375671944 1 1
10.684113 -37.556618 4.79434 7 3200375671944 1 0
0 0 0 8 3200375674248 1 0
0 0 0 10 3200375674248 1 0
5.2008934 -28.723143 -1.0193444 28 3200375676552 1 0
0 0 0 9 3200375676552 1 0
6.8977966 -29.747332 5.5676093 29 3200375678856 1 0
0 0 0 1 3200375678856 1 0
0 0 0 4 3200375699592 1 0
11.1452 -33.15557 -0.610555 5 3200375699592 1 0
0 0 0 9 3200375701896 1 0
1.6583546 -5.871745 -1.7080295 6 3200375701896 1 0
1.943542 -8.443614 -1.7328924 4 3200375704200 1 0
0 0 0 11 3200375706504 1 0
7.953924 -28.178955 0 40 3200375704200 1 0
2.8662624 -10.160455 -1.6424241 12 3200375706504 1 0
2.4160044 -10.510888 -1.3727881 10 3200375708808 1 0
11.1328125 -33.185825 0.20344023 100 3200375708808 1 0
12.555133 -54.659653 -0.32595536 20 3200375711112 1 0
4.2820363 -15.196914 -1.7007011 3 3200375711112 1 0
3.3916125 -18.987614 -1.8005124 2 3200375713416 1 0
13.734813 -48.773277 1.179069 52 3200375713416 1 0
0 0 0 100 3200375715720 1 0
5.2494435 -18.652058 -1.3549497 1 3200375715720 1 1
4.811658 -20.991966 -1.7581235 2 3200375718024 1 0
12.51558 -54.640415 0.9784517 25 3200375720328 1 0
11.104215 -33.16776 1.017936 59 3200375718024 1 0
6.2549777 -18.692802 -1.2632893 1 3200375720328 1 1
5.213255 -29.289251 -1.7325429 12 3200375722632 1 0
11.706854 -41.669395 2.5206754 11 3200375722632 1 0
12.469936 -54.51765 2.278468 64 3200375724936 1 0
5.246232 -18.684406 -0.90400666 4 3200375724936 1 1
4.323107 -18.913595 -1.016783 5 3200375727240 1 1
10.526071 -37.51051 4.7836156 7 3200375727240 1 0
0 0 0 8 3200375729544 1 0
0 0 0 3 3200375729544 1 0
5.080918 -28.647175 -1.0159942 32 3200375731848 1 0
0 0 0 9 3200375731848 1 0
6.793295 -29.783478 5.5697618 29 3200375734152 1 0
0 0 0 4 3200375754888 1 0
0 0 0 1 3200375734152 1 0
11.047552 -33.268314 -0.6118814 5 3200375754888 1 0
4.3720307 -19.302683 -0.5759926 2 3200375757192 1 1
1.9136933 -8.454451 -1.7336768 4 3200375759496 1 0
1.6348411 -5.8703384 -1.7058729 6 3200375757192 1 0
7.8535557 -28.215397 0 36 3200375759496 1 0
9.662921 -55.10338 -0.6512953 40 3200375761800 1 0
2.3789508 -10.523404 -1.3732932 9 3200375764104 1 0
2.8283877 -10.166961 -1.6418092 11 3200375761800 1 0
11.005487 -33.202988 0.20330074 71 3200375764104 1 0
4.2263494 -15.208366 -1.7002728 3 3200375766408 1 0
12.3534 -54.680992 -0.3258159 20 3200375766408 1 0
3.3222823 -18.991781 -1.7997689 2 3200375768712 1 0
13.558078 -48.8144 1.1788828 70 3200375768712 1 0
9.629021 -55.089012 0.6510625 39 3200375771016 1 0
5.1829457 -18.670645 -1.3549497 1 3200375771016 1 1
4.7406387 -21.024466 -1.7594254 4 3200375773320 1 0
10.980159 -33.187977 1.0173541 72 3200375773320 1 0
12.325904 -54.699913 0.978731 25 3200375775624 1 0
6.1913795 -18.722372 -1.263801 1 3200375775624 1 1
5.109446 -29.303486 -1.7323103 12 3200375777928 1 0
13.522531 -48.79098 2.9485786 71 3200375777928 1 0
12.276133 -54.549328 2.2779794 6 3200375780232 1 0
4.25706 -18.92857 -1.016783 2 3200375782536 1 1
5.181774 -18.70653 -0.9041928 4 3200375780232 1 1
10.389774 -37.527893 4.781178 7 3200375782536 1 0
0 0 0 8 3200375784840 1 0
6.123435 -18.551302 -0.79590875 1 3200375784840 1 1
4.9700875 -28.597635 -1.013621 32 3200375787144 1 0
0 0 0 9 3200375787144 1 0
6.6905904 -29.806719 5.5697618 24 3200375789448 1 0
0 0 0 1 3200375789448 1 0
0 0 0 4 3200375810184 1 0
6.2266374 -18.96073 -0.34835002 1 3200375810184 1 1
4.281748 -19.200033 -0.5725017 2 3200375812488 1 1
1.6153227 -5.8757396 -1.7058729 6 3200375812488 1 0
1.8889364 -8.476091 -1.7368147 4 3200375814792 1 0
7.760596 -28.245255 0 28 3200375814792 1 0
9.507399 -55.300888 -0.65325105 16 3200375817096 1 0
2.7944353 -10.176345 -1.6418092 13 3200375817096 1 0
2.3454585 -10.53905 -1.3743033 10 3200375819400 1 0
10.888126 -33.22061 0.2031845 66 3200375819400 1 0
12.169146 -54.718197 -0.32579264 30 3200375821704 1 0
4.179548 -15.237791 -1.7019863 3 3200375821704 1 0
3.259802 -19.010687 -1.8005124 2 3200375824008 1 0
13.389768 -48.84425 1.1785107 69 3200375824008 1 0
9.455638 -55.19208 0.65190065 19 3200375826312 1 0
5.120052 -18.68799 -1.3549497 1 3200375826312 1 1
4.673124 -21.05591 -1.7607272 4 3200375828616 1 0
10.864381 -33.21344 1.0170051 72 3200375828616 1 0
12.13913 -54.733475 0.9785913 37 3200375830920 1 0
6.064768 -18.5497 -1.2507536 1 3200375830920 1 1
5.0302896 -29.438719 -1.7392869 12 3200375833224 1 0
13.357108 -48.836525 2.9485786 53 3200375833224 1 0
12.093398 -54.60241 2.278468 64 3200375835528 1 0
5.112947 -18.704748 -0.9032622 4 3200375835528 1 1
4.1917505 -18.939049 -1.0165737 5 3200375837832 1 1
10.264085 -37.570694 4.782153 7 3200375837832 1 0
0 0 0 8 3200375840136 1 0
6.0216937 -18.454292 -0.79086107 1 3200375840136 1 1
4.858893 -28.535639 -1.010829 24 3200375842440 1 0
0 0 0 9 3200375842440 1 0
6.5927005 -29.848673 5.5733495 24 3200375844744 1 0
0 0 0 4 3200375865480 1 0
6.157945 -18.974741 -0.34821042 1 3200375865480 1 1
9.179191 -33.657307 -0.8117905 5 3200375844744 1 0
0 0 0 9 3200375867784 1 0
1.5948026 -5.8813424 -1.7058729 6 3200375867784 1 0
1.8576583 -8.474971 -1.7352458 4 3200375870088 1 0
7.6609077 -28.268312 0 20 3200375870088 1 0
2.7671626 -10.2165575 -1.6467284 35 3200375872392 1 0
9.378706 -55.716328 -0.6577678 8 3200375872392 1 0
10.767168 -33.243195 0.20309152 66 3200375874696 1 0
2.310353 -10.554925 -1.3753135 8 3200375874696 1 0
11.978069 -54.76034 -0.32579264 20 3200375877000 1 0
4.1294484 -15.263804 -1.7032715 2 3200375877000 1 0
3.1967194 -19.04159 -1.8023714 2 3200375879304 1 0
14.66166 -54.225628 1.3071094 10 3200375879304 1 0
9.31784 -55.552155 0.6557655 19 3200375881608 1 0
5.047501 -18.678783 -1.3529966 1 3200375881608 1 1
4.6046977 -21.095465 -1.7626799 4 3200375883912 1 0
11.9531145 -54.798958 0.97901016 37 3200375886216 1 0
5.997526 -18.56316 -1.250242 1 3200375886216 1 1
10.744689 -33.239746 1.016656 72 3200375883912 1 0
4.9288163 -29.463974 -1.739752 12 3200375888520 1 0
11.901876 -54.640385 2.278305 64 3200375890824 1 0
13.191755 -48.90213 2.9497414 35 3200375888520 1 0
5.049704 -18.730198 -0.9036344 6 3200375890824 1 1
4.1239166 -18.945759 -1.0161549 7 3200375893128 1 1
10.128744 -37.59096 4.7802033 7 3200375893128 1 0
0 0 0 8 3200375895432 1 0
5.9560127 -18.471395 -0.79069823 1 3200375895432 1 1
4.74611 -28.473562 -1.0080371 24 3200375897736 1 0
0 0 0 9 3200375897736 1 0
6.494316 -29.898422 5.5783715 24 3200375900040 1 0
0 0 0 1 3200375900040 1 0
0 0 0 4 3200375920776 1 0
6.0379376 -18.828552 -0.3451388 1 3200375920776 1 1
0 0 0 9 3200375923080 1 0
1.8288902 -8.485238 -1.7360302 4 3200375925384 1 0
7.5621862 -28.29488 0 12 3200375925384 1 0
1.5762534 -5.8943157 -1.7080295 7 3200375923080 1 0
9.272585 -56.285454 -0.6641005 8 3200375927688 1 0
2.7233236 -10.195605 -1.6418092 34 3200375927688 1 0
10.649843 -33.276768 0.20306827 76 3200375929992 1 0
2.2751653 -10.5706835 -1.3763236 4 3200375929992 1 0
11.789371 -54.81355 -0.32586238 30 3200375932296 1 0
3.1425002 -19.127302 -1.8094351 2 3200375934600 1 0
4.0812683 -15.297339 -1.7054135 2 3200375932296 1 0
14.135746 -86.117645 1.0159872 28 3200375936904 1 0
14.4630165 -54.2417 1.3062718 21 3200375934600 1 0
0 0 0 8 3200375936904 1 0
4.528523 -21.099716 -1.7617036 4 3200375939208 1 0
10.622512 -33.258007 1.0160742 63 3200375939208 1 0
11.749177 -54.781693 0.97796303 37 3200375941512 1 0
5.933906 -18.587784 -1.2504978 1 3200375941512 1 1
4.829808 -29.504644 -1.7411474 12 3200375943816 1 0
14.395548 -54.115116 3.261134 47 3200375943816 1 0
11.712748 -54.689415 2.2786307 100 3200375946120 1 0
4.9842925 -18.747711 -0.9036344 4 3200375946120 1 1
4.061938 -18.97957 -1.0172017 5 3200375948424 1 1
9.997465 -37.626087 4.7802033 7 3200375948424 1 0
0 0 0 8 3200375950728 1 0
5.9024186 -18.526346 -0.79216367 1 3200375950728 1 1
4.6331763 -28.407103 -1.0051055 28 3200375953032 1 0
0 0 0 9 3200375953032 1 0
6.397308 -29.955544 5.584829 20 3200375955336 1 0
0 0 0 1 3200375955336 1 0
0 0 0 4 3200375976072 1 0
5.9117785 -18.658884 -0.3416483 1 3200375976072 1 1
0 0 0 9 3200375978376 1 0
1.5576761 -5.90722 -1.7101861 8 3200375978376 1 0
1.7985704 -8.487707 -1.7352458 4 3200375980680 1 0
7.4637847 -28.320997 0 8 3200375980680 1 0
9.031458 -56.03297 -0.6607479 16 3200375982984 1 0
2.6839135 -10.189703 -1.6393496 33 3200375982984 1 0
2.241025 -10.590142 -1.3778389 2 3200375985288 1 0
10.530972 -33.30199 0.20299852 71 3200375985288 1 0
11.598303 -54.84612 -0.3258159 20 3200375987592 1 0
4.033462 -15.330577 -1.7075553 3 3200375987592 1 0
3.0784457 -19.149817 -1.8105505 2 3200375989896 1 0
14.275958 -54.291233 1.3062718 21 3200375989896 1 0
13.839439 -86.16576 1.0159872 28 3200375992200 1 0
4.9442987 -18.813656 -1.3602512 3 3200375992200 1 1
4.4774756 -21.216557 -1.7701654 4 3200375994504 1 0
10.505885 -33.286648 1.0158415 68 3200375994504 1 0
11.563946 -54.833355 0.9781725 12 3200375996808 1 0
5.846185 -18.531862 -1.2453812 1 3200375996808 1 1
14.209489 -54.16014 3.2609015 71 3200375999112 1 0
11.526153 -54.729042 2.2786307 86 3200376001416 1 0
4.73083 -29.532808 -1.741845 12 3200375999112 1 0
4.921335 -18.768467 -0.9038206 6 3200376001416 1 1
9.865326 -37.644535 4.778253 7 3200376003720 1 0
3.9948518 -18.981558 -1.0165737 2 3200376003720 1 1
0 0 0 8 3200376006024 1 0
5.8610725 -18.614904 -0.7950946 1 3200376006024 1 1
4.5249104 -28.347635 -1.0024531 32 3200376008328 1 0
0 0 0 9 3200376008328 1 0
6.3040633 -30.015516 5.592004 20 3200376010632 1 0
4.9756846 -19.018576 -0.4574464 1 3200376010632 1 1
0 0 0 4 3200376031368 1 0
4.028863 -19.315954 -0.5742471 2 3200376033672 1 1
6.2682314 -20.01419 -0.36608168 2 3200376031368 1 1
1.5351261 -5.9011803 -1.7069511 7 3200376033672 1 0
1.7710911 -8.49749 -1.7360302 4 3200376035976 1 0
7.368409 -28.341827 0 8 3200376035976 1 0
4.4764123 -28.375128 -0.33442503 2 3200376038280 1 0
2.6508799 -10.20243 -1.6399645 30 3200376038280 1 0
2.2072031 -10.60535 -1.378849 4 3200376040584 1 0
10.412351 -33.314125 0.20285903 66 3200376040584 1 0
11.414368 -54.884693 -0.3258159 20 3200376042888 1 0
3.981045 -15.340163 -1.707127 3 3200376042888 1 0
3.0159464 -19.171854 -1.8116658 2 3200376045192 1 0
14.091464 -54.331146 1.3060857 21 3200376045192 1 0
13.581531 -86.41733 1.0184085 28 3200376047496 1 0
4.881926 -18.834059 -1.3605303 10 3200376047496 1 1
4.4050493 -21.22764 -1.76984 4 3200376049800 1 0
10.391126 -33.314274 1.0156087 63 3200376049800 1 0
11.37927 -54.87606 0.9782423 19 3200376052104 1 0
0 0 0 61 3200376054408 1 0
14.022866 -54.196384 3.2602038 71 3200376054408 1 0
5.811999 -18.642988 -1.2515211 1 3200376052104 1 1
11.339409 -54.763958 2.278468 86 3200376056712 1 0
4.86657 -18.819887 -0.90549564 6 3200376056712 1 1
3.955317 -19.116304 -1.0230633 2 3200376059016 1 1
9.736156 -37.674046 4.7777658 7 3200376059016 1 0
0 0 0 8 3200376061320 1 0
5.8070474 -18.665318 -0.7963972 1 3200376061320 1 1
4.415045 -28.279991 -0.9995216 28 3200376063624 1 0
0 0 0 9 3200376063624 1 0
6.2139473 -30.098595 5.603483 20 3200376065928 1 0
0 0 0 1 3200376065928 1 0
0 0 0 4 3200376086664 1 0
6.22788 -20.131468 -0.3678269 2 3200376086664 1 1
11.266953 -54.981686 -1.6333753 51 3200376088968 1 0
1.514432 -5.906525 -1.7069511 7 3200376088968 1 0
1.7435315 -8.515199 -1.7383837 5 3200376091272 1 0
0 0 0 58 3200376091272 1 0
4.361475 -28.295898 -0.3333075 2 3200376093576 1 0
2.614805 -10.211735 -1.6399645 36 3200376093576 1 0
2.1719368 -10.624778 -1.3803642 5 3200376095880 1 0
10.303496 -33.381443 0.20304501 20 3200376095880 1 0
11.206713 -54.866234 -0.32546717 20 3200376098184 1 0
3.9283276 -15.361958 -1.7079837 3 3200376098184 1 0
2.946727 -19.178585 -1.811294 2 3200376100488 1 0
13.895001 -54.373466 1.3058996 21 3200376100488 1 0
13.183008 -85.89232 1.0116566 28 3200376102792 1 0
4.829044 -18.909468 -1.3647157 19 3200376102792 1 1
4.334024 -21.270737 -1.7721182 4 3200376105096 1 0
10.294429 -33.427963 1.017936 17 3200376105096 1 0
11.180458 -54.916912 0.9782423 19 3200376107400 1 0
5.750315 -18.68299 -1.2528002 1 3200376107400 1 1
4.3022194 -28.1206 -1.6567296 15 3200376109704 1 0
13.823738 -54.239277 3.2597387 47 3200376109704 1 0
11.138615 -54.801075 2.278305 100 3200376112008 1 0
4.7919154 -18.814297 -0.9043789 6 3200376112008 1 1
9.598988 -37.713326 4.778253 7 3200376114312 1 0
0 0 0 8 3200376116616 1 0
5.728939 -18.655994 -0.7950946 1 3200376116616 1 1
3.9186163 -19.295086 -1.0318557 2 3200376114312 1 1
4.302112 -28.240782 -0.99756724 40 3200376118920 1 0
0 0 0 9 3200376118920 1 0
6.1139946 -30.179287 5.6142454 15 3200376121224 1 0
0 0 0 1 3200376121224 1 0
0 0 0 4 3200376141960 1 0
0 0 0 7 3200376141960 1 0
11.0345125 -54.91054 -1.6300008 50 3200376144264 1 0
1.4937983 -5.9197226 -1.7091078 5 3200376144264 1 0
1.7113185 -8.521731 -1.7383837 4 3200376146568 1 0
0 0 0 3 3200376146568 1 0
0 0 0 15 3200376148872 1 0
2.5783997 -10.22914 -1.6411942 19 3200376148872 1 0
2.1354828 -10.648354 -1.3823845 7 3200376151176 1 0
12.62427 -41.447315 0.2518186 61 3200376151176 1 0
0 0 0 47 3200376153480 1 0
3.8734915 -15.384078 -1.7088405 3 3200376153480 1 0
13.696595 -54.42791 1.3059927 21 3200376155784 1 0
12.918 -86.256134 1.0153818 28 3200376158088 1 0
4.735924 -18.830158 -1.35774 96 3200376158088 1 1
2.8793662 -19.20895 -1.8131529 2 3200376155784 1 0
4.258836 -21.29405 -1.7727691 4 3200376160392 1 0
12.590468 -41.414124 1.2597365 54 3200376160392 1 0
10.983114 -54.95264 0.9781725 13 3200376162696 1 0
5.6741476 -18.67289 -1.2507536 1 3200376162696 1 1
4.214195 -28.21468 -1.6613806 15 3200376165000 1 0
13.628247 -54.276375 3.259041 47 3200376165000 1 0
10.94566 -54.83994 2.278305 64 3200376167304 1 0
4.721774 -18.815544 -0.9036344 4 3200376167304 1 1
0 0 0 68 3200376169608 1 0
9.463422 -37.7312 4.7763033 7 3200376169608 1 0
0 0 0 8 3200376171912 1 0
5.6643257 -18.675713 -0.7950946 1 3200376171912 1 1
4.211624 -28.298876 -0.9991028 28 3200376174216 1 0
0 0 0 9 3200376174216 1 0
0 0 0 1 3200376176520 1 0
0 0 0 4 3200376197256 1 0
0 0 0 7 3200376197256 1 0
6.025075 -30.26939 5.62716 15 3200376176520 1 0
10.861904 -54.9531 -1.6302335 33 3200376199560 1 0
1.47316 -5.9169536 -1.7069511 6 3200376199560 1 0
1.6840422 -8.5271635 -1.7383837 4 3200376201864 1 0
13.542002 -54.42865 0 22 3200376201864 1 0
0 0 0 28 3200376204168 1 0
2.102315 -10.66304 -1.3833947 8 3200376206472 1 0
2.539636 -10.214398 -1.6375048 8 3200376204168 1 0
12.485712 -41.476734 0.25174886 68 3200376206472 1 0
5.7464547 -29.17088 -0.17279981 7 3200376208776 1 0
3.8267362 -15.412167 -1.710554 2 3200376208776 1 0
2.8156512 -19.218393 -1.8131529 2 3200376211080 1 0
13.515068 -54.469147 1.3058996 21 3200376211080 1 0
12.369915 -84.52587 0.994521 28 3200376213384 1 0
4.6777077 -18.865261 -1.3591352 84 3200376213384 1 1
4.190034 -21.323946 -1.774071 4 3200376215688 1 0
12.448353 -41.44871 1.2595037 48 3200376215688 1 0
10.797567 -54.99755 0.9783121 87 3200376217992 1 0
5.5772834 -18.581217 -1.2433345 1 3200376217992 1 1
4.3340254 -29.714714 -1.7488217 8 3200376220296 1 0
13.441865 -54.32283 3.259041 47 3200376220296 1 0
10.755762 -54.8775 2.278305 86 3200376222600 1 0
4.657574 -18.835655 -0.9038206 6 3200376222600 1 1
5.6676645 -28.9418 -1.5455855 32 3200376224904 1 0
9.326896 -37.74473 4.7738657 7 3200376224904 1 0
5.6077294 -18.726164 -0.7963972 1 3200376227208 1 1
0 0 0 8 3200376227208 1 0
4.127828 -28.428371 -1.0031512 20 3200376229512 1 0
0 0 0 9 3200376229512 1 0
5.9340863 -30.379581 5.643662 15 3200376231816 1 0
0 0 0 4 3200376252552 1 0
0 0 0 1 3200376231816 1 0
0 0 0 7 3200376252552 1 0
1.4522623 -5.9300494 -1.7091078 5 3200376254856 1 0
5.65611 -29.204735 -0.8657343 14 3200376254856 1 0
1.6520331 -8.537418 -1.7391682 3 3200376257160 1 0
13.331961 -54.47636 0 22 3200376257160 1 0
11.994586 -83.83253 -0.9859066 14 3200376259464 1 0
2.5022745 -10.231753 -1.6387346 8 3200376259464 1 0
2.0613563 -10.671034 -1.3833947 8 3200376261768 1 0
12.321808 -41.509033 0.25165588 68 3200376261768 1 0
3.7713037 -15.442201 -1.7122676 2 3200376264072 1 0
5.6366787 -29.204512 -0.17286956 23 3200376264072 1 0
2.7457726 -19.256662 -1.8157554 2 3200376266376 1 0
13.305822 -54.52064 1.3058996 21 3200376266376 1 0
12.43328 -87.297066 1.0265573 28 3200376268680 1 0
4.6042905 -18.879206 -1.3588561 49 3200376268680 1 1
4.11114 -21.355537 -1.7753729 4 3200376270984 1 0
12.290245 -41.50004 1.2596201 66 3200376270984 1 0
10.587823 -55.04646 0.9784517 62 3200376273288 1 0
5.50363 -18.59484 -1.2428229 1 3200376273288 1 1
13.232237 -54.370163 3.2588084 47 3200376275592 1 0
4.2271924 -29.782534 -1.751845 8 3200376275592 1 0
10.546476 -54.926243 2.2786307 64 3200376277896 1 0
0 0 0 108 3200376277896 1 0
5.542195 -28.888811 -1.541608 32 3200376280200 1 0
0 0 0 8 3200376282504 1 0
5.52673 -18.716894 -0.7950946 1 3200376282504 1 1
4.0326214 -28.542967 -1.006641 24 3200376284808 1 0
9.178147 -37.764835 4.771916 7 3200376280200 1 0
0 0 0 9 3200376284808 1 0
5.84032 -30.52196 5.6659036 15 3200376287112 1 0
0 0 0 1 3200376287112 1 0
0 0 0 4 3200376308296 1 0
0 0 0 7 3200376308296 1 0
1.4328071 -5.9308176 -1.7080295 5 3200376310600 1 0
10.483286 -55.051003 -1.6309317 51 3200376310600 1 0
1.6247191 -8.538666 -1.7383837 3 3200376312904 1 0
13.159522 -54.505928 0 22 3200376312904 1 0
11.663877 -83.36226 -0.9799464 14 3200376315208 1 0
2.472419 -10.24714 -1.6399645 8 3200376315208 1 0
2.0277028 -10.673441 -1.3828896 9 3200376317512 1 0
12.192634 -41.542988 0.2516326 68 3200376317512 1 0
10.456997 -55.087334 -0.32588562 10 3200376319816 1 0
3.7257593 -15.461434 -1.7131244 2 3200376319816 1 0
2.687494 -19.268904 -1.8161271 2 3200376322120 1 0
13.142045 -54.57269 1.3061788 21 3200376322120 1 0
12.176138 -87.393875 1.0272558 28 3200376324424 1 0
0 0 0 7 3200376324424 1 0
4.0472574 -21.371794 -1.7756983 4 3200376326728 1 0
12.16127 -41.525517 1.259271 60 3200376326728 1 0
10.419817 -55.0663 0.9782423 50 3200376329032 1 0
5.45435 -18.634312 -1.244358 1 3200376329032 1 1
4.1395884 -29.80693 -1.7525426 8 3200376331336 1 0
13.062748 -54.382385 3.2571805 47 3200376331336 1 0
10.38192 -54.953518 2.278468 64 3200376333640 1 0
4.535511 -18.894184 -0.9051234 102 3200376333640 1 1
9.066983 -37.79576 4.7724037 7 3200376335944 1 0
5.4431186 -28.834475 -1.5378398 31 3200376335944 1 0
0 0 0 8 3200376338248 1 0
5.4736853 -18.740803 -0.7954203 1 3200376338248 1 1
3.9640787 -28.665567 -1.0105498 28 3200376340552 1 0
0 0 0 9 3200376340552 1 0
0 0 0 1 3200376342856 1 0
0 0 0 4 3200376363592 1 0
0 0 0 7 3200376363592 1 0
5.7823815 -30.705189 5.696755 10 3200376342856 1 0
10.269031 -54.969353 -1.6274408 33 3200376365896 1 0
1.4129875 -5.93953 -1.7091078 5 3200376365896 1 0
1.5977827 -8.559708 -1.7415216 4 3200376368200 1 0
12.998786 -54.67606 0 22 3200376368200 1 0
11.148549 -81.7578 -0.9606222 14 3200376370504 1 0
2.4366348 -10.255709 -1.6399645 8 3200376370504 1 0
1.9911602 -10.684355 -1.3833947 9 3200376372808 1 0
12.040869 -41.562244 0.25149313 68 3200376372808 1 0
0 0 0 100 3200376375112 1 0
3.6736026 -15.482084 -1.7139812 2 3200376375112 1 0
2.6202166 -19.278168 -1.8161271 2 3200376377416 1 0
12.946857 -54.598778 1.3057135 21 3200376377416 1 0
11.881227 -87.511154 1.0281404 28 3200376379720 1 0
3.9755437 -21.40147 -1.7770001 4 3200376382024 1 0
12.014025 -41.560036 1.2590383 60 3200376382024 1 0
10.230455 -55.118065 0.9785215 37 3200376384328 1 0
5.385947 -18.641733 -1.2435904 1 3200376384328 1 1
0 0 0 10 3200376386632 1 0
4.483664 -18.920519 -1.3596932 3 3200376379720 1 1
12.871 -54.41988 3.2567153 47 3200376386632 1 0
10.191489 -54.997284 2.2787936 64 3200376388936 1 0
0 0 0 12 3200376388936 1 0
5.3257074 -28.76296 -1.5330248 31 3200376391240 1 0
0 0 0 8 3200376393544 1 0
8.931345 -37.811726 4.7704535 7 3200376391240 1 0
5.3772354 -18.652267 -0.79086107 1 3200376393544 1 1
3.8773375 -28.778275 -1.0140398 24 3200376395848 1 0
0 0 0 9 3200376395848 1 0
5.7123327 -30.926409 5.7340636 10 3200376398152 1 0
4.4520617 -18.885067 -0.45149103 1 3200376398152 1 1
0 0 0 4 3200376418888 1 0
0 0 0 7 3200376418888 1 0
9.937962 -54.2499 -1.6050993 32 3200376421192 1 0
1.3912812 -5.940696 -1.7080295 6 3200376421192 1 0
1.5648203 -8.549846 -1.7383837 4 3200376423496 1 0
12.805348 -54.71758 0 22 3200376423496 1 0
3.9111133 -29.459496 -0.34597299 5 3200376425800 1 0
2.397673 -10.25271 -1.6381197 10 3200376425800 1 0
1.9539437 -10.695257 -1.3838997 7 3200376428104 1 0
13.93268 -48.73882 0.29461753 33 3200376428104 1 0
0 0 0 112 3200376430408 1 0
3.622028 -15.510568 -1.7156947 3 3200376430408 1 0
2.5543575 -19.31111 -1.8183577 2 3200376432712 1 0
12.747789 -54.629173 1.3053414 21 3200376432712 1 0
12.28812 -93.01345 1.0922595 28 3200376435016 1 0
4.4147577 -18.93262 -1.3594142 3 3200376435016 1 1
3.9033206 -21.443127 -1.7792783 4 3200376437320 1 0
13.895838 -48.727917 1.4746573 32 3200376437320 1 0
10.026482 -55.13114 0.9781027 87 3200376439624 1 0
5.3227763 -18.676472 -1.2446138 1 3200376439624 1 1
3.8791165 -29.47144 -1.7311475 33 3200376441928 1 0
12.673039 -54.46632 3.2567153 47 3200376441928 1 0
9.990645 -55.034122 2.2787936 64 3200376444232 1 0
0 0 0 6 3200376444232 1 0
5.206706 -28.707611 -1.5290473 31 3200376446536 1 0
8.772931 -37.75913 4.759729 7 3200376446536 1 0
0 0 0 8 3200376448840 1 0
5.3107495 -18.679617 -0.7911867 1 3200376448840 1 1
3.7865703 -28.911314 -1.0182277 16 3200376451144 1 0
0 0 0 9 3200376451144 1 0
5.6515236 -31.24555 5.7893095 5 3200376453448 1 0
4.4271464 -19.09623 -0.45614365 1 3200376453448 1 1
0 0 0 4 3200376474184 1 0
0 0 0 7 3200376474184 1 0
9.884249 -55.141396 -1.6303499 33 3200376476488 1 0
1.5345522 -8.567285 -1.7407371 3 3200376478792 1 0
1.3703614 -5.953462 -1.7101861 6 3200376476488 1 0
12.600134 -54.773407 0 22 3200376478792 1 0
3.8133283 -29.573137 -0.3471371 23 3200376481096 1 0
2.3680391 -10.300155 -1.6442688 26 3200376481096 1 0
1.9176009 -10.721989 -1.3864251 6 3200376483400 1 0
13.751112 -48.79036 0.29461753 88 3200376483400 1 0
0 0 0 38 3200376485704 1 0
3.5647032 -15.523843 -1.7156947 3 3200376485704 1 0
2.4845772 -19.328241 -1.8191013 2 3200376488008 1 0
12.550161 -54.68722 1.3056204 10 3200376488008 1 0
10.801056 -84.11159 0.987257 28 3200376490312 1 0
4.391381 -19.146898 -1.3736445 3 3200376490312 1 1
3.8259497 -21.457066 -1.7792783 4 3200376492616 1 0
13.714573 -48.758476 1.4740756 56 3200376492616 1 0
9.819342 -55.11154 0.97712535 50 3200376494920 1 0
5.2472763 -18.664654 -1.2425671 1 3200376494920 1 1
3.775517 -29.492943 -1.7316126 20 3200376497224 1 0
12.478777 -54.50706 3.2564828 47 3200376497224 1 0
9.800379 -55.08862 2.2796078 64 3200376499528 1 0
4.3311515 -18.929777 -0.90456504 4 3200376499528 1 1
5.0938816 -28.65482 -1.5252792 36 3200376501832 1 0
8.641959 -37.793392 4.7602167 7 3200376501832 1 0
0 0 0 8 3200376504136 1 0
3.7024765 -29.043104 -1.0224156 16 3200376506440 1 0
5.246057 -18.697887 -0.7911867 1 3200376504136 1 1
0 0 0 9 3200376506440 1 0
0 0 0 29 3200376508744 1 0
0 0 0 1 3200376508744 1 0
0 0 0 4 3200376529480 1 0
9.702142 -55.12907 -1.6290699 50 3200376531784 1 0
0 0 0 7 3200376529480 1 0
1.3515214 -5.957767 -1.7101861 6 3200376531784 1 0
1.5086142 -8.579855 -1.742306 3 3200376534088 1 0
12.424721 -54.809364 0 22 3200376534088 1 0
6.6962323 -53.277195 -0.6251262 7 3200376536392 1 0
2.3280082 -10.276857 -1.6393496 38 3200376536392 1 0
1.8815992 -10.720307 -1.385415 3 3200376538696 1 0
0 0 0 28 3200376541000 1 0
3.5177314 -15.550864 -1.7174083 2 3200376541000 1 0
13.583849 -48.799824 0.2944083 77 3200376538696 1 0
2.420323 -19.328365 -1.8183577 2 3200376543304 1 0
12.369368 -54.7202 1.3054343 10 3200376543304 1 0
11.677458 -93.37023 1.0954725 28 3200376545608 1 0
4.2764087 -18.931622 -1.3571819 1 3200376545608 1 1
3.7685106 -21.548178 -1.7857875 4 3200376547912 1 0
13.550669 -48.795982 1.4738429 64 3200376547912 1 0
9.626379 -55.092793 0.9762178 37 3200376550216 1 0
5.1849456 -18.682064 -1.2425671 1 3200376550216 1 1
3.7415807 -30.028522 -1.76231 8 3200376552520 1 0
12.294699 -54.54478 3.2562504 70 3200376552520 1 0
9.614037 -55.121445 2.2796078 86 3200376554824 1 0
4.2671146 -18.944315 -0.90456504 4 3200376554824 1 1
4.9832993 -28.59722 -1.5213016 31 3200376557128 1 0
8.515027 -37.83033 4.7611914 7 3200376557128 1 0
0 0 0 8 3200376559432 1 0
5.1819825 -18.715746 -0.7911867 1 3200376559432 1 1
3.616606 -29.170744 -1.026464 16 3200376561736 1 0
0 0 0 9 3200376561736 1 0
0 0 0 29 3200376564040 1 0
4.3045726 -19.16522 -0.45707417 1 3200376564040 1 1
0 0 0 4 3200376584776 1 0
0 0 0 7 3200376584776 1 0
9.525528 -55.309982 -1.6333753 17 3200376587080 1 0
1.3313961 -5.97019 -1.7123427 5 3200376587080 1 0
1.4772822 -8.585305 -1.742306 3 3200376589384 1 0
12.221068 -54.83874 0 22 3200376589384 1 0
6.138835 -50.323517 -0.5902029 46 3200376591688 1 0
2.287973 -10.273698 -1.6375048 39 3200376591688 1 0
1.8446219 -10.738811 -1.3869302 4 3200376593992 1 0
13.411612 -48.86818 0.29452455 22 3200376593992 1 0
9.523594 -55.491753 -0.327234 20 3200376596296 1 0
3.4630036 -15.571291 -1.718265 3 3200376596296 1 0
2.3507888 -19.340958 -1.8187295 2 3200376598600 1 0
12.17285 -54.77244 1.3056204 10 3200376598600 1 0
11.360642 -93.58256 1.0974748 28 3200376600904 1 0
4.2001705 -18.911896 -1.3546708 1 3200376600904 1 1
3.6927795 -21.57342 -1.7867638 4 3200376603208 1 0
14.69239 -53.65727 1.6190628 8 3200376603208 1 0
9.479911 -55.430634 0.98159313 25 3200376605512 1 0
5.125037 -18.72756 -1.244358 1 3200376605512 1 1
3.6370368 -30.06952 -1.763938 8 3200376607816 1 0
12.098669 -54.5886 3.2562504 70 3200376607816 1 0
9.414336 -55.14374 2.2791193 43 3200376610120 1 0
4.2017603 -18.971195 -0.9051234 4 3200376610120 1 1
4.8688593 -28.54399 -1.5175334 36 3200376612424 1 0
8.371898 -37.82567 4.756804 7 3200376612424 1 0
0 0 0 8 3200376614728 1 0
5.1024895 -18.687864 -0.78923273 1 3200376614728 1 1
3.5231466 -29.270761 -1.0295352 12 3200376617032 1 0
0 0 0 9 3200376617032 1 0
0 0 0 1 3200376619336 1 0
0 0 0 29 3200376619336 1 0
0 0 0 4 3200376640072 1 0
0 0 0 7 3200376640072 1 0
4.8130064 -28.540766 -0.8423455 4 3200376642376 1 0
1.3097663 -5.9710293 -1.7112644 5 3200376642376 1 0
1.4487332 -8.598124 -1.7438749 4 3200376644680 1 0
12.036365 -54.90824 0 22 3200376644680 1 0
3.4778426 -29.356707 -0.34415698 2 3200376646984 1 0
2.2514756 -10.277712 -1.6368899 40 3200376646984 1 0
1.8061213 -10.737306 -1.38592 2 3200376649288 1 0
4.790563 -28.503746 -0.16798756 7 3200376651592 1 0
14.662876 -54.161335 0.3261181 13 3200376649288 1 0
3.4083452 -15.579275 -1.7178366 3 3200376651592 1 0
2.284573 -19.352901 -1.8191013 2 3200376653896 1 0
11.959207 -54.700783 1.302922 10 3200376653896 1 0
16.088018 -136.44551 1.5994848 28 3200376656200 1 0
4.135093 -18.926231 -1.3546708 1 3200376656200 1 1
3.6187074 -21.585968 -1.7867638 4 3200376658504 1 0
14.503956 -53.691944 1.6185973 26 3200376658504 1 0
13.943911 -83.24742 1.4733322 29 3200376660808 1 0
5.1284924 -18.995502 -1.2609868 3 3200376660808 1 1
11.911168 -54.625732 3.2560177 70 3200376663112 1 0
3.5412295 -30.141266 -1.7674263 8 3200376663112 1 0
14.488246 -86.64414 3.578984 29 3200376665416 1 0
4.129375 -18.95028 -0.9034483 4 3200376665416 1 1
4.7578616 -28.477657 -1.5131372 31 3200376667720 1 0
8.2431135 -37.853943 4.756804 7 3200376667720 1 0
0 0 0 8 3200376670024 1 0
3.438789 -29.40959 -1.0340023 12 3200376672328 1 0
5.0784993 -18.85173 -0.7954203 1 3200376670024 1 1
0 0 0 9 3200376672328 1 0
0 0 0 29 3200376674632 1 0
0 0 0 1 3200376674632 1 0
0 0 0 4 3200376695368 1 0
5.06257 -18.906967 -0.3416483 1 3200376695368 1 1
4.6966195 -28.426426 -0.83850557 4 3200376697672 1 0
1.2891022 -5.971584 -1.7101861 6 3200376697672 1 0
1.4194489 -8.599031 -1.7430905 4 3200376699976 1 0
11.850043 -54.932384 0 33 3200376699976 1 0
3.404526 -29.582722 -0.34667146 2 3200376702280 1 0
2.2171566 -10.28517 -1.6368899 39 3200376702280 1 0
1.7721281 -10.755033 -1.3874352 6 3200376704584 1 0
14.486775 -54.229404 0.32623434 26 3200376704584 1 0
4.6865315 -28.468336 -0.16768533 10 3200376706888 1 0
3.3627923 -15.621717 -1.7212638 2 3200376706888 1 0
2.2209003 -19.372337 -1.8202167 2 3200376709192 1 0
11.798905 -54.85012 1.3055274 10 3200376709192 1 0
4.073022 -18.947851 -1.3552288 1 3200376711496 1 1
3.5477872 -21.609858 -1.7877402 4 3200376713800 1 0
15.6148615 -136.3797 1.5980879 28 3200376711496 1 0
14.312404 -53.701946 1.6174337 17 3200376713800 1 0
5.042652 -18.931732 -1.2556144 2 3200376716104 1 1
3.4422326 -30.180866 -1.7690542 8 3200376718408 1 0
13.675271 -83.37303 1.4747283 29 3200376716104 1 0
11.726819 -54.669685 3.2562504 70 3200376718408 1 0
14.213928 -86.81512 3.5840318 29 3200376720712 1 0
4.0683436 -18.979822 -0.9041928 6 3200376720712 1 1
4.646727 -28.406958 -1.5085316 31 3200376723016 1 0
0 0 0 8 3200376725320 1 0
8.114234 -37.88178 4.756804 7 3200376723016 1 0
4.9813266 -18.745338 -0.7902097 1 3200376725320 1 1
0 0 0 9 3200376727624 1 0
0 0 0 29 3200376729928 1 0
3.3504174 -29.528418 -1.0377715 12 3200376727624 1 0
0 0 0 1 3200376729928 1 0
0 0 0 4 3200376750664 1 0
0 0 0 7 3200376750664 1 0
9.046077 -55.965622 -1.6498988 17 3200376752968 1 0
1.2690493 -5.9798155 -1.7112644 6 3200376752968 1 0
1.3906746 -8.611678 -1.7446594 3 3200376755272 1 0
11.633327 -54.856026 0 33 3200376755272 1 0
3.3034594 -29.614302 -0.34690428 2 3200376757576 1 0
1.7364696 -10.772905 -1.3889505 9 3200376759880 1 0
14.297391 -54.279644 0.32623434 13 3200376759880 1 0
2.1804218 -10.28898 -1.6362749 34 3200376757576 1 0
4.5680513 -28.36605 -0.16698791 10 3200376762184 1 0
3.3082418 -15.633361 -1.7212638 2 3200376762184 1 0
2.1625004 -19.463097 -1.8280239 2 3200376764488 1 0
11.582551 -54.7736 1.3027358 10 3200376764488 1 0
9.125574 -82.24165 0.96332294 28 3200376766792 1 0
4.008507 -18.96976 -1.3557868 1 3200376766792 1 1
3.4729652 -21.626047 -1.7880657 4 3200376769096 1 0
14.121813 -53.73998 1.6170846 17 3200376769096 1 0
13.427877 -83.69273 1.4795452 29 3200376771400 1 0
4.935979 -18.794785 -1.2453812 3 3200376771400 1 1
0 0 0 11 3200376773704 1 0
11.535914 -54.71029 3.2562504 70 3200376773704 1 0
21.22928 -132.56352 5.469593 29 3200376776008 1 0
4.001243 -18.989998 -0.90400666 2 3200376776008 1 1
4.5330253 -28.332285 -1.5037167 30 3200376778312 1 0
7.976227 -37.882675 4.7533917 7 3200376778312 1 0
0 0 0 8 3200376780616 1 0
4.9178886 -18.770344 -0.7905354 1 3200376780616 1 1
3.2613018 -29.66709 -1.0422386 28 3200376782920 1 0
0 0 0 9 3200376782920 1 0
0 0 0 29 3200376785224 1 0
0 0 0 4 3200376805960 1 0
4.0509944 -19.281715 -0.45846996 1 3200376785224 1 1
0 0 0 7 3200376805960 1 0
8.769518 -55.48345 -1.6347717 17 3200376808264 1 0
1.2481681 -5.9842086 -1.7112644 6 3200376808264 1 0
1.3612176 -8.620355 -1.7454439 2 3200376810568 1 0
11.435243 -54.86497 0 33 3200376810568 1 0
3.2108045 -29.725067 -0.3480684 5 3200376812872 1 0
2.146911 -10.308136 -1.6381197 10 3200376812872 1 0
14.103811 -54.313732 0.32614136 13 3200376815176 1 0
1.6963835 -10.763223 -1.3869302 10 3200376815176 1 0
4.4596753 -28.322556 -0.1666392 18 3200376817480 1 0
3.2560804 -15.656494 -1.722549 2 3200376817480 1 0
2.0966783 -19.490326 -1.8298829 2 3200376819784 1 0
11.386403 -54.790207 1.3021775 21 3200376819784 1 0
14.652126 -136.38994 1.5969703 28 3200376822088 1 0
3.9438882 -18.991451 -1.3563448 1 3200376822088 1 1
13.933137 -53.785072 1.6169683 17 3200376824392 1 0
3.3999286 -21.653791 -1.7893674 4 3200376824392 1 0
0 0 0 54 3200376826696 1 0
0 0 0 24 3200376829000 1 0
11.34568 -54.75413 3.2564828 70 3200376829000 1 0
13.097847 -83.49808 1.4752868 29 3200376826696 1 0
13.670561 -87.31499 3.6006403 29 3200376831304 1 0
3.9414127 -19.03515 -0.90549564 2 3200376831304 1 1
4.4217534 -28.269005 -1.4995298 30 3200376833608 1 0
7.842334 -37.90251 4.752417 7 3200376833608 1 0
0 0 0 8 3200376835912 1 0
4.843343 -18.75257 -0.78906995 1 3200376835912 1 1
3.1623769 -29.72202 -1.0437741 28 3200376838216 1 0
0 0 0 9 3200376838216 1 0
0 0 0 29 3200376840520 1 0
11.33327 -54.89514 -1.3043177 11 3200376840520 1 0
0 0 0 4 3200376861256 1 0
0 0 0 7 3200376861256 1 0
4.3681655 -28.276476 -0.83268744 13 3200376863560 1 0
1.2288184 -5.996076 -1.713421 6 3200376863560 1 0
1.3317169 -8.62893 -1.7462283 4 3200376865864 1 0
11.246066 -54.91631 0 33 3200376865864 1 0
8.240371 -78.86529 -0.9231379 13 3200376868168 1 0
2.110916 -10.315568 -1.6381197 8 3200376868168 1 0
1.6600107 -10.776922 -1.3879403 10 3200376870472 1 0
13.886364 -54.25413 0.32549042 13 3200376870472 1 0
4.3467913 -28.24702 -0.1661045 100 3200376872776 1 0
3.2022054 -15.671661 -1.7229773 2 3200376872776 1 0
2.027395 -19.485641 -1.8287675 2 3200376875080 1 0
9.820158 -94.51678 1.1062754 28 3200376877384 1 0
11.19268 -54.817863 1.3018984 21 3200376875080 1 0
3.8983116 -19.106754 -1.3635995 1 3200376877384 1 1
3.324322 -21.665527 -1.7893674 6 3200376879688 1 0
13.74234 -53.82176 1.6166191 17 3200376879688 1 0
12.896596 -84.13232 1.4856884 29 3200376881992 1 0
4.806621 -18.836521 -1.2458929 26 3200376881992 1 1
3.1387355 -30.33839 -1.7762634 8 3200376884296 1 0
11.15528 -54.797314 3.2567153 70 3200376884296 1 0
20.271872 -132.50305 5.461126 29 3200376886600 1 0
3.8653855 -19.001806 -0.9032622 2 3200376886600 1 1
4.3170137 -28.24478 -1.4974364 35 3200376888904 1 0
7.707609 -37.917984 4.7509546 7 3200376888904 1 0
0 0 0 8 3200376891208 1 0
4.7837706 -18.7926 -0.7900469 1 3200376891208 1 1
3.0606537 -29.752758 -1.0444721 28 3200376893512 1 0
0 0 0 9 3200376893512 1 0
0 0 0 29 3200376895816 1 0
0 0 0 9 3200376895816 1 0
0.58641696 -3.882084 -1.8307823 0 3200376916552 1 0
0 0 0 7 3200376916552 1 0
4.2616796 -28.240156 -0.83117473 13 3200376918856 1 0
1.2078806 -6.000329 -1.713421 6 3200376918856 1 0
1.3021729 -8.637404 -1.7470129 4 3200376921160 1 0
5.8466177 -29.065804 0 57 3200376921160 1 0
7.807537 -77.33361 -0.9048847 13 3200376923464 1 0
2.0725584 -10.311249 -1.6362749 9 3200376923464 1 0
13.728203 -54.426384 0.32623434 13 3200376925768 1 0
1.622382 -10.782651 -1.3879403 10 3200376925768 1 0
4.248164 -28.262022 -0.1661045 54 3200376928072 1 0
3.1482642 -15.686643 -1.7234057 2 3200376928072 1 0
1.9597634 -19.496563 -1.8291392 2 3200376930376 1 0
10.9981165 -54.840916 1.3015262 21 3200376930376 1 0
8.257465 -82.26903 0.9625779 28 3200376932680 1 0
3.8856914 -19.390205 -1.3828523 1 3200376932680 1 1
3.2516294 -21.696714 -1.7909948 6 3200376934984 1 0
13.553408 -53.865524 1.6165028 17 3200376934984 1 0
12.553098 -83.844574 1.4798244 29 3200376937288 1 0
0 0 0 13 3200376937288 1 0
3.036389 -30.384922 -1.7783564 8 3200376939592 1 0
10.961585 -54.824173 3.2560177 70 3200376939592 1 0
19.813951 -132.60463 5.4624286 29 3200376941896 1 0
5.7999253 -29.030186 -1.3789964 13 3200376941896 1 0
4.231369 -28.346594 -1.5020419 13 3200376944200 1 0
7.5775356 -37.956337 4.752417 7 3200376944200 1 0
0 0 0 8 3200376946504 1 0
4.7142534 -18.793678 -0.7893956 1 3200376946504 1 1
2.959545 -29.791107 -1.0454494 28 3200376948808 1 0
0 0 0 9 3200376948808 1 0
0 0 0 29 3200376951112 1 0
10.940382 -54.92586 -1.3032011 33 3200376951112 1 0
0 0 0 4 3200376972296 1 0
0 0 0 7 3200376972296 1 0
8.032424 -54.576717 -1.6054484 32 3200376974600 1 0
1.1852212 -6.00092 -1.7123427 6 3200376974600 1 0
1.2707579 -8.642082 -1.7470129 3 3200376976904 1 0
10.8528595 -54.987213 0 44 3200376976904 1 0
7.7280664 -79.4235 -0.929005 14 3200376979208 1 0
2.0367317 -10.326442 -1.6375048 9 3200376979208 1 0
1.5852071 -10.800211 -1.3894556 8 3200376981512 1 0
13.503833 -54.362972 0.32556015 13 3200376981512 1 0
3.0965016 -15.721264 -1.725976 3 3200376983816 1 0
1.893067 -19.535164 -1.8321135 2 3200376986120 1 0
10.800285 -54.87207 1.3013401 21 3200376986120 1 0
4.165178 -28.403746 -0.16684842 18 3200376983816 1 0
7.7881904 -80.47855 0.941298 28 3200376988424 1 0
4.853115 -24.673841 -1.7584212 5 3200376988424 1 0
3.1763415 -21.719952 -1.7919712 6 3200376990728 1 0
13.3612 -53.9094 1.6163864 17 3200376990728 1 0
12.663742 -86.67441 1.5289705 29 3200376993032 1 0
2.9416819 -30.522615 -1.7857982 8 3200376995336 1 0
0 0 0 69 3200376993032 1 0
10.770088 -54.870255 3.2564828 70 3200376995336 1 0
19.321339 -132.48344 5.4546127 29 3200376997640 1 0
5.6819825 -28.967999 -1.3750877 35 3200376997640 1 0
4.1496735 -28.479774 -1.5083222 13 3200376999944 1 0
7.442706 -37.970867 4.7509546 7 3200376999944 1 0
0 0 0 8 3200377002248 1 0
4.6527314 -18.825472 -0.7900469 1 3200377002248 1 1
2.8583105 -29.82107 -1.0461473 28 3200377004552 1 0
0 0 0 9 3200377004552 1 0
0 0 0 29 3200377006856 1 0
10.754825 -54.98287 -1.3036664 45 3200377006856 1 0
0.53567713 -3.7173417 -1.75133 0 3200377027592 1 0
0 0 0 7 3200377027592 1 0
7.822707 -54.344616 -1.5978849 31 3200377029896 1 0
1.1669663 -6.0084205 -1.713421 6 3200377029896 1 0
1.2437828 -8.649968 -1.7477973 3 3200377032200 1 0
5.6657424 -29.195324 0 61 3200377032200 1 0
7.262048 -77.20194 -0.90274274 13 3200377034504 1 0
2.0013468 -10.3212805 -1.63566 10 3200377034504 1 0
1.5514536 -10.813128 -1.3904657 6 3200377036808 1 0
13.352978 -54.5073 0.3261646 13 3200377036808 1 0
3.0476482 -15.74296 -1.7272612 3 3200377039112 1 0
4.0853095 -28.504242 -0.16735987 21 3200377039112 1 0
1.828386 -19.533323 -1.8313699 2 3200377041416 1 0
10.604712 -54.82467 1.2993859 21 3200377041416 1 0
7.1706004 -76.73246 0.89720154 25 3200377043720 1 0
4.7755914 -24.709286 -1.7598163 8 3200377043720 1 0
13.181408 -53.94953 1.6162701 17 3200377046024 1 0
11.870389 -83.18452 1.4667002 29 3200377048328 1 0
4.611166 -18.88532 -1.2458929 16 3200377048328 1 1
3.1105 -21.773779 -1.7955512 6 3200377046024 1 0
2.8398564 -30.54028 -1.7862632 8 3200377050632 1 0
10.584921 -54.902206 3.2562504 70 3200377050632 1 0
5.5688763 -28.908575 -1.3713653 35 3200377052936 1 0
18.867594 -132.50845 5.4529843 29 3200377052936 1 0
4.0650964 -28.580736 -1.5129278 13 3200377055240 1 0
0 0 0 8 3200377057544 1 0
7.273662 -37.789352 4.725118 14 3200377055240 1 0
4.5901146 -18.849064 -0.79037255 1 3200377057544 1 1
2.7569704 -29.846668 -1.0467057 24 3200377059848 1 0
0 0 0 9 3200377059848 1 0
0 0 0 29 3200377062152 1 0
5.602482 -29.178976 -0.6913805 28 3200377062152 1 0
0.52658397 -3.7515905 -1.7665443 0 3200377082888 1 0
0 0 0 7 3200377082888 1 0
7.579614 -54.060116 -1.5886922 30 3200377085192 1 0
1.1463777 -6.020225 -1.7155776 6 3200377085192 1 0
1.2115266 -8.650584 -1.7470129 4 3200377087496 1 0
10.474427 -55.05241 0 22 3200377087496 1 0
6.98228 -77.26389 -0.9031618 13 3200377089800 1 0
1.9657184 -10.340195 -1.6375048 16 3200377089800 1 0
1.5107129 -10.810883 -1.3894556 3 3200377092104 1 0
13.125921 -54.44311 0.32549042 13 3200377092104 1 0
3.9973977 -28.63787 -0.1680573 33 3200377094408 1 0
2.9914098 -15.761839 -1.728118 3 3200377094408 1 0
1.7585636 -19.559727 -1.8332288 2 3200377096712 1 0
10.398482 -54.835667 1.2987345 21 3200377096712 1 0
6.876442 -76.614815 0.8955252 51 3200377099016 1 0
4.687967 -24.742304 -1.7609324 8 3200377099016 1 0
12.984519 -54.001366 1.6163864 17 3200377101320 1 0
11.372757 -81.841 1.4422668 29 3200377103624 1 0
0 0 0 9 3200377103624 1 0
3.0317729 -21.79293 -1.7962021 4 3200377101320 1 0
2.7314532 -30.590258 -1.7885889 8 3200377105928 1 0
10.387331 -54.960255 3.2574131 70 3200377105928 1 0
18.36204 -132.43419 5.4471226 29 3200377108232 1 0
5.4510207 -28.865973 -1.3683873 35 3200377108232 1 0
3.9767554 -28.714146 -1.5192082 13 3200377110536 1 0
7.1387887 -37.835262 4.7275558 7 3200377110536 1 0
0 0 0 8 3200377112840 1 0
4.5209985 -18.86576 -0.79037255 1 3200377112840 1 1
2.6489708 -29.8725 -1.0472641 29 3200377115144 1 0
0 0 0 9 3200377115144 1 0
0 0 0 29 3200377117448 1 0
10.364524 -55.069984 -1.3039455 45 3200377117448 1 0
0.5143024 -3.7642708 -1.7716157 0 3200377138184 1 0
0 0 0 7 3200377138184 1 0
7.3508487 -53.857655 -1.5819433 30 3200377140488 1 0
1.1250991 -6.0281563 -1.7166559 6 3200377140488 1 0
1.1805942 -8.658819 -1.7477973 4 3200377142792 1 0
10.277848 -55.109795 0 22 3200377142792 1 0
4.3972096 -50.706245 -0.59253114 20 3200377145096 1 0
1.9326025 -10.37056 -1.6411942 53 3200377145096 1 0
1.472778 -10.824124 -1.3904657 3 3200377147400 1 0
12.931306 -54.497887 0.3255369 13 3200377147400 1 0
3.909037 -28.75906 -0.16868499 30 3200377149704 1 0
2.9362218 -15.780304 -1.7289747 3 3200377149704 1 0
1.6895967 -19.577797 -1.8343441 2 3200377152008 1 0
10.198564 -54.852863 1.2982693 21 3200377152008 1 0
6.599271 -76.59101 0.8949665 51 3200377154312 1 0
4.6201787 -24.8687 -1.7687452 8 3200377154312 1 0
2.9565556 -21.819355 -1.797504 6 3200377156616 1 0
12.791875 -54.043217 1.6162701 17 3200377156616 1 0
11.426776 -84.41717 1.486945 29 3200377158920 1 0
4.5265417 -19.135567 -1.2602193 8 3200377158920 1 1
2.6282012 -30.651403 -1.791612 8 3200377161224 1 0
10.193093 -54.992546 3.2571805 70 3200377161224 1 0
17.892902 -132.4621 5.4456573 29 3200377163528 1 0
5.3352532 -28.806324 -1.3646648 35 3200377163528 1 0
