# .PCD v.7 - Point Cloud Data file format
VERSION .7
FIELDS x y z rgb timestamp_ns device_id active
SIZE 4 4 4 4 8 1 1
TYPE F F F F F U U
COUNT 1 1 1 1 1 1 1
WIDTH 943
HEIGHT 1
VIEWPOINT 0 0 0 1 0 0 0
POINTS 943               
DATA ascii
-3.958875 21.025497 -0.7471284 46 3200325579328 1 0
-3.7352002 12.8038 3.5737734 2 3200325579328 1 0
-4.764032 19.912506 3.7330248 24 3200325581632 1 0
-4.1617365 14.273634 -0.3459694 17 3200325581632 1 0
-0.95467806 4.013533 -1.9237583 4 3200325602368 1 0
-4.973679 20.923885 -0.62591195 8 3200325604672 1 0
-10.432049 30.331259 -0.5598732 32 3200325602368 1 0
-2.0436733 7.0475674 -2.0541642 5 3200325604672 1 0
-2.5952878 10.925592 -2.2459352 1 3200325606976 1 0
-9.750483 33.643555 0 14 3200325606976 1 0
-3.8299375 20.55685 -0.24343833 21 3200325609280 1 0
-4.34026 14.984409 -2.427049 10 3200325609280 1 0
-3.6991844 15.593935 -2.0399895 81 3200325611584 1 0
-10.51752 30.640614 0.18828276 55 3200325611584 1 0
-4.93062 20.799206 -0.124235466 34 3200325613888 1 0
-4.122754 14.249774 -1.597888 22 3200325613888 1 0
-3.3145196 17.835768 -1.6934409 19 3200325616192 1 0
-8.746458 30.248316 0.7326959 25 3200325616192 1 0
-3.7115033 19.98897 0.2366865 30 3200325618496 1 0
-3.7181094 15.716457 -1.31843 17 3200325620800 1 0
-9.901067 28.902187 0.8891231 65 3200325620800 1 0
-4.131027 14.294722 -1.0404875 14 3200325618496 1 0
-4.860199 20.558086 0.36873445 29 3200325623104 1 0
-4.7547264 13.886431 -0.9406875 6 3200325623104 1 0
-3.9217634 21.175411 -1.254175 21 3200325625408 1 0
-7.759229 26.895695 1.6302181 9 3200325625408 1 0
-4.92502 20.860727 0.8732526 8 3200325627712 1 0
-4.1367407 14.347344 -0.6955472 13 3200325627712 1 0
0 0 0 42 3200325630016 1 0
-5.850612 20.303167 2.5943546 21 3200325630016 1 0
-6.503757 27.585398 2.3136802 9 3200325632320 1 0
-4.7404065 13.872253 -0.5972572 4 3200325632320 1 0
-3.7454555 20.292664 -0.72060484 27 3200325634624 1 0
-5.7186546 19.868046 5.539763 6 3200325634624 1 0
-4.6760883 19.860579 3.7201102 31 3200325636928 1 0
-4.1313334 14.361542 -0.34773743 15 3200325636928 1 0
-0.9407873 4.020535 -1.9254488 3 3200325657664 1 0
0 0 0 7 3200325657664 1 0
-6.0917583 26.049875 -0.77857906 8 3200325659968 1 0
-2.015813 7.0475745 -2.0520077 5 3200325659968 1 0
-2.5537589 10.927318 -2.2443662 2 3200325662272 1 0
-7.182859 25.125444 0 29 3200325662272 1 0
-3.717393 20.362045 -0.24097042 18 3200325664576 1 0
-4.2848787 14.996229 -2.426434 10 3200325664576 1 0
-3.6329916 15.5646715 -2.0344336 81 3200325666880 1 0
-10.356817 30.53062 0.1873761 13 3200325666880 1 0
-4.921292 21.09725 -0.1259093 19 3200325669184 1 0
-4.096642 14.35245 -1.6077409 22 3200325669184 1 0
-2.817497 15.469151 -1.4677727 15 3200325671488 1 0
-8.627205 30.240961 0.73176533 17 3200325671488 1 0
-3.6173344 19.876146 0.23519644 21 3200325673792 1 0
-4.101947 14.386097 -1.0460681 14 3200325673792 1 0
-5.874524 25.230965 -2.1148255 6 3200325676096 1 0
-9.726624 28.725065 0.8826068 36 3200325676096 1 0
-4.816515 20.699785 0.37096834 40 3200325678400 1 0
-4.6941004 13.869119 -0.938385 7 3200325678400 1 0
-2.8042595 15.444889 -0.91417795 6 3200325680704 1 0
-7.4480286 26.162392 1.584172 12 3200325680704 1 0
-4.8654394 20.936256 0.875695 16 3200325683008 1 0
-4.1061077 14.430933 -0.6988975 17 3200325683008 1 0
-3.6607473 15.762277 -0.84805185 9 3200325685312 1 0
-5.7655873 20.273823 2.5880175 21 3200325685312 1 0
0 0 0 51 3200325687616 1 0
-4.684481 13.86593 -0.5962802 5 3200325687616 1 0
-3.670205 20.277971 -0.7196276 19 3200325689920 1 0
0 0 0 57 3200325689920 1 0
-4.6031575 19.857412 3.716523 22 3200325692224 1 0
-4.1036496 14.452634 -0.34959847 22 3200325692224 1 0
-0.9241925 4.0095024 -1.9186869 3 3200325712960 1 0
-12.15701 36.16558 -0.66598386 18 3200325712960 1 0
-4.7719903 20.716494 -0.61869746 28 3200325715264 1 0
-1.9913331 7.050528 -2.0509293 5 3200325715264 1 0
-2.5164695 10.93194 -2.2435818 1 3200325717568 1 0
-3.6416478 20.331034 -0.24045822 27 3200325719872 1 0
-7.046975 24.964449 0 12 3200325717568 1 0
-4.2347984 15.010448 -2.426434 9 3200325719872 1 0
-3.5737922 15.5458 -2.0303931 82 3200325722176 1 0
-9.734262 29.014088 0.1778678 63 3200325722176 1 0
-4.7932177 20.864134 -0.12442145 25 3200325724480 1 0
-4.0679197 14.435006 -1.6154519 19 3200325724480 1 0
-2.722779 15.239372 -1.4450943 42 3200325726784 1 0
-8.618789 30.600803 0.73976785 43 3200325726784 1 0
-3.5468757 19.868526 0.23496363 26 3200325729088 1 0
-4.074028 14.472806 -1.0513695 15 3200325729088 1 0
-3.592286 15.667989 -1.3122462 2 3200325731392 1 0
-9.649955 28.818384 0.8844686 10 3200325731392 1 0
-4.752742 20.743242 0.371457 29 3200325733696 1 0
-4.6357713 13.850843 -0.93608254 7 3200325733696 1 0
-2.7169003 15.257733 -0.90255016 52 3200325736000 1 0
-4.781829 20.898115 0.8734154 8 3200325738304 1 0
-7.363647 26.20286 1.5851023 12 3200325736000 1 0
-4.0840864 14.540965 -0.7035506 9 3200325738304 1 0
-6.7912135 29.699633 -1.5966654 4 3200325740608 1 0
-5.731963 20.419468 2.604104 28 3200325740608 1 0
-6.081831 26.61514 2.2287357 8 3200325742912 1 0
-3.5421991 19.959768 -0.7079014 22 3200325745216 1 0
-4.627032 13.8515 -0.5949776 6 3200325742912 1 0
-5.41285 19.304241 5.372048 10 3200325745216 1 0
-4.56138 19.988157 3.7380471 20 3200325747520 1 0
-4.074625 14.539765 -0.35136646 15 3200325747520 1 0
-0.9125969 4.02331 -1.9237583 3 3200325768256 1 0
-12.325787 37.095913 -0.6823193 19 3200325768256 1 0
-4.745457 20.935827 -0.6247483 23 3200325770560 1 0
-1.9645908 7.0500293 -2.0487728 6 3200325770560 1 0
-2.477269 10.936869 -2.2427974 1 3200325772864 1 0
-6.962646 25.000557 0 43 3200325772864 1 0
-3.5971763 20.497341 -0.24227422 19 3200325775168 1 0
-3.5120497 15.527321 -2.0263524 84 3200325777472 1 0
-9.683697 29.203833 0.17882097 17 3200325777472 1 0
-4.1820483 15.02523 -2.426434 8 3200325775168 1 0
-4.7451735 20.994053 -0.12509564 21 3200325779776 1 0
-4.0414824 14.537393 -1.6253048 19 3200325779776 1 0
-8.489173 30.554014 0.7379068 34 3200325782080 1 0
-2.662722 15.2135935 -1.4417484 65 3200325782080 1 0
-3.4861336 19.936123 0.23561552 16 3200325784384 1 0
-4.0473013 14.575573 -1.0577872 14 3200325784384 1 0
0 0 0 105 3200325786688 1 0
-9.599122 29.00808 0.88923943 54 3200325786688 1 0
-4.6982923 20.845846 0.37299284 29 3200325788992 1 0
-4.573952 13.829342 -0.93352425 7 3200325788992 1 0
-2.655654 15.22798 -0.9002246 81 3200325791296 1 0
-5.5540147 24.677738 1.0305455 29 3200325793600 1 0
-4.0534735 14.632468 -0.70727307 9 3200325793600 1 0
-7.53049 27.16788 1.641846 9 3200325791296 1 0
0 0 0 59 3200325795904 1 0
-5.669461 20.478107 2.608979 21 3200325795904 1 0
-5.966265 26.547312 2.22125 12 3200325798208 1 0
-4.5685725 13.841433 -0.5938378 3 3200325798208 1 0
-2.6423764 15.206725 -0.5389878 10 3200325800512 1 0
-4.681555 20.860683 3.898044 20 3200325802816 1 0
-5.352733 19.357077 5.381366 12 3200325800512 1 0
-4.0488896 14.6507 -0.35369277 15 3200325802816 1 0
-0.89626664 4.0195513 -1.9203774 3 3200325823552 1 0
-9.872518 30.080507 -0.552613 9 3200325823552 1 0
-4.6547785 20.890638 -0.62288654 14 3200325825856 1 0
-1.9407786 7.064611 -2.0509293 6 3200325825856 1 0
-2.4397242 10.95736 -2.2451508 1 3200325828160 1 0
-6.866731 25.010479 0 28 3200325828160 1 0
-4.1238127 15.029022 -2.4245894 8 3200325830464 1 0
-3.5348873 20.585285 -0.24315895 26 3200325830464 1 0
-9.630129 29.402582 0.17982061 39 3200325832768 1 0
-3.4482262 15.509102 -2.022312 85 3200325832768 1 0
-4.6586514 20.968351 -0.12483991 59 3200325835072 1 0
-4.0102477 14.632654 -1.634301 18 3200325835072 1 0
-2.6008935 15.187921 -1.4384024 68 3200325837376 1 0
-8.421498 30.746912 0.74181503 13 3200325837376 1 0
-3.4157386 19.964535 0.23580179 17 3200325839680 1 0
-4.014922 14.667283 -1.0633677 13 3200325839680 1 0
-5.6113605 25.31121 -2.1164527 9 3200325841984 1 0
-9.502675 29.073471 0.89017034 18 3200325841984 1 0
-4.596771 20.74969 0.37096834 27 3200325844288 1 0
-4.5120783 13.811864 -0.9312218 6 3200325844288 1 0
-2.5951214 15.210056 -0.8985967 79 3200325846592 1 0
-8.038175 29.417915 1.7760308 15 3200325846592 1 0
-5.140672 23.238453 0.9696474 13 3200325848896 1 0
-4.02192 14.728171 -0.7111817 11 3200325848896 1 0
-6.71387 30.372099 -1.6301603 10 3200325851200 1 0
-5.511789 20.19617 2.5704682 21 3200325851200 1 0
-4.506662 13.823885 -0.59237236 3 3200325853504 1 0
-2.5852833 15.2084255 -0.5387086 85 3200325855808 1 0
-5.842267 26.44832 2.211161 8 3200325853504 1 0
-5.2695565 19.331833 5.3689423 20 3200325855808 1 0
-4.613541 20.91613 3.9052188 22 3200325858112 1 0
-4.0161867 14.742608 -0.35555384 10 3200325858112 1 0
-0.8851901 4.029429 -1.9237583 3 3200325878296 1 0
-9.770557 30.08855 -0.5521941 4 3200325878296 1 0
-4.5831246 20.877823 -0.622072 20 3200325880600 1 0
-1.9175663 7.066956 -2.049851 6 3200325880600 1 0
-2.401927 10.949646 -2.242013 2 3200325882904 1 0
-6.8017344 25.082117 0 12 3200325882904 1 0
-3.4017522 20.190042 -0.23836282 49 3200325885208 1 0
-4.06934 15.0152 -2.420285 8 3200325885208 1 0
-3.3892977 15.473346 -2.016251 74 3200325887512 1 0
-9.5537405 29.482159 0.18012282 30 3200325887512 1 0
-4.5559783 20.814865 -0.12384026 21 3200325889816 1 0
-3.987119 14.729635 -1.6437255 11 3200325889816 1 0
-2.549207 15.172451 -1.4361718 68 3200325892120 1 0
-8.332172 30.80024 0.7424664 4 3200325892120 1 0
-3.3212194 19.78583 0.23356669 16 3200325894424 1 0
-3.9906936 14.760715 -1.0692272 13 3200325894424 1 0
-3.4230394 15.673189 -1.3096426 13 3200325896728 1 0
-9.494947 29.361877 0.898083 15 3200325896728 1 0
-4.5162115 20.693695 0.3697118 29 3200325899032 1 0
-4.462527 13.806979 -0.9299426 6 3200325899032 1 0
-2.5420508 15.186626 -0.89673626 81 3200325901336 1 0
0 0 0 9 3200325901336 1 0
-4.680441 21.477697 0.89556015 8 3200325903640 1 0
-3.9943588 14.810175 -0.71453196 6 3200325903640 1 0
-3.4065273 15.64342 -0.83905005 15 3200325905944 1 0
-5.429715 20.144386 2.5616937 28 3200325905944 1 0
-5.971069 27.440437 2.2925253 9 3200325908248 1 0
-4.450942 13.799937 -0.5907441 5 3200325908248 1 0
-2.531574 15.1809845 -0.5374522 74 3200325910552 1 0
-4.552822 20.953592 3.9095237 17 3200325912856 1 0
-3.9947865 14.847831 -0.3577871 18 3200325912856 1 0
-5.194736 19.29606 5.3544483 20 3200325910552 1 0
0 0 0 36 3200325933592 1 0
-7.123184 33.026253 -0.98326004 6 3200325935896 1 0
-0.8696507 4.0291023 -1.9220679 3 3200325933592 1 0
-1.8916517 7.0739365 -2.049851 5 3200325935896 1 0
-6.737643 25.211216 0 26 3200325938200 1 0
-2.360952 10.954542 -2.2412283 2 3200325938200 1 0
-4.00612 14.999465 -2.4153657 9 3200325940504 1 0
-3.3242142 15.446872 -2.0112002 77 3200325942808 1 0
-9.488288 29.650314 0.1809365 17 3200325942808 1 0
-3.3095272 20.091871 -0.23705901 25 3200325940504 1 0
-4.4678845 20.776676 -0.12351479 23 3200325945112 1 0
-3.9566815 14.83253 -1.6535784 16 3200325945112 1 0
-2.4877706 15.146322 -1.4328258 67 3200325947416 1 0
0 0 0 19 3200325947416 1 0
-3.2713466 19.936012 0.23519644 11 3200325949720 1 0
-3.9601936 14.863925 -1.0756449 11 3200325949720 1 0
-5.423053 25.274757 -2.110269 9 3200325952024 1 0
-9.915133 31.04951 0.94858414 16 3200325952024 1 0
-4.444527 20.729662 0.37006083 21 3200325954328 1 0
-4.400968 13.789017 -0.92764014 6 3200325954328 1 0
-2.4812136 15.164314 -0.8948758 81 3200325956632 1 0
-7.7741184 29.232683 1.7616123 10 3200325956632 1 0
-4.4653125 20.857681 0.86901903 27 3200325958936 1 0
-3.965708 14.921256 -0.71918505 4 3200325958936 1 0
-6.5111575 30.436626 -1.6312071 15 3200325961240 1 0
-5.3436155 20.118107 2.5558438 23 3200325961240 1 0
-6.087971 28.479689 2.37747 4 3200325963544 1 0
-4.3869915 13.774268 -0.58895296 12 3200325963544 1 0
-2.470128 15.154652 -0.5361959 72 3200325965848 1 0
-5.2062073 19.624935 5.4403763 14 3200325965848 1 0
-4.471885 20.950897 3.9059362 25 3200325968152 1 0
-3.9608355 14.93968 -0.35964814 23 3200325968152 1 0
-0.85337377 4.02517 -1.9186869 4 3200325988888 1 0
-8.1915245 25.869947 -0.47365832 23 3200325988888 1 0
0 0 0 16 3200325991192 1 0
-1.8648847 7.077057 -2.0487728 6 3200325991192 1 0
-2.3204515 10.959183 -2.240444 2 3200325993496 1 0
-6.6473136 25.239319 0 6 3200325993496 1 0
-3.2022078 19.886469 -0.23449798 27 3200325995800 1 0
-3.9470696 14.994678 -2.412291 9 3200325995800 1 0
-3.2623577 15.427609 -2.0071597 79 3200325998104 1 0
-9.306196 29.443792 0.1794719 13 3200325998104 1 0
-4.244281 20.08409 -0.11930697 28 3200326000408 1 0
-3.9221153 14.915739 -1.6612895 16 3200326000408 1 0
-2.4291708 15.123562 -1.4298515 64 3200326002712 1 0
-6.8843803 26.195126 0.630245 6 3200326002712 1 0
-3.2152452 20.034262 0.23622087 16 3200326005016 1 0
-3.9302623 14.962648 -1.0817834 11 3200326005016 1 0
-3.285292 15.576354 -1.2995534 17 3200326007320 1 0
-9.789848 31.030546 0.9469551 8 3200326007320 1 0
-4.1894736 19.876179 0.3545631 18 3200326009624 1 0
-4.344706 13.777551 -0.9258493 5 3200326009624 1 0
-2.422615 15.1333475 -0.89255023 82 3200326011928 1 0
-7.629749 29.093216 1.7516124 15 3200326011928 1 0
-4.380672 20.810278 0.8664138 16 3200326014232 1 0
-3.9378774 15.023649 -0.7234659 4 3200326014232 1 0
-3.2802422 15.592838 -0.8350725 4 3200326016536 1 0
-5.314354 20.28596 2.5748556 23 3200326016536 1 0
-5.6110535 26.689838 2.2264574 12 3200326018840 1 0
-4.3355875 13.773775 -0.5883016 8 3200326018840 1 0
-2.4135299 15.1273365 -0.53493947 72 3200326021144 1 0
-5.1382866 19.634842 5.438306 18 3200326021144 1 0
-4.397885 20.946451 3.902349 22 3200326023448 1 0
-3.9362428 15.049537 -0.36197445 5 3200326023448 1 0
-0.8407241 4.027831 -1.9186869 4 3200326044184 1 0
-8.117383 25.918453 -0.47407717 20 3200326044184 1 0
-4.3758273 20.979437 -0.62370104 17 3200326046488 1 0
-1.8405998 7.075452 -2.046616 6 3200326046488 1 0
-2.2832909 10.954966 -2.2380905 2 3200326048792 1 0
-5.465163 21.021189 0 19 3200326048792 1 0
-3.1363556 19.880764 -0.23431171 24 3200326051096 1 0
-3.8903425 14.972745 -2.4067569 7 3200326051096 1 0
-3.2081254 15.414661 -2.0041292 74 3200326053400 1 0
-8.11772 25.972496 0.1581538 10 3200326053400 1 0
-4.1658573 20.031054 -0.11891175 28 3200326055704 1 0
-3.8991263 15.024506 -1.6719991 16 3200326055704 1 0
-2.3772318 15.111654 -1.4279927 60 3200326058008 1 0
-7.0768547 27.28557 0.6559275 38 3200326058008 1 0
-3.1694999 20.167072 0.23766436 29 3200326060312 1 0
-3.9077435 15.075745 -1.089038 10 3200326060312 1 0
-5.250741 25.302973 -2.109618 19 3200326062616 1 0
-21.916845 70.26609 2.1421106 32 3200326062616 1 0
-4.1422715 19.975935 0.3560989 54 3200326064920 1 0
-4.3174167 13.848859 -0.9296868 11 3200326064920 1 0
-2.3710034 15.129394 -0.89185256 78 3200326067224 1 0
-7.5380783 29.1336 1.7525426 15 3200326067224 1 0
-4.300596 20.769836 0.86413413 8 3200326069528 1 0
-3.909261 15.1178055 -0.72737455 4 3200326069528 1 0
-3.2293258 15.607542 -0.83528185 12 3200326071832 1 0
-5.2798357 20.430319 2.5909421 19 3200326071832 1 0
-4.6834354 22.651953 1.8883067 19 3200326074136 1 0
-4.3098717 13.853016 -0.5910697 11 3200326074136 1 0
-2.3622956 15.131375 -0.5347999 65 3200326076440 1 0
-5.0803003 19.681849 5.446588 16 3200326076440 1 0
-4.3060026 20.857056 3.8829772 10 3200326078744 1 0
-3.9066346 15.143992 -0.36392856 8 3200326078744 1 0
-0.8259309 4.0271897 -1.9169965 4 3200326099480 1 0
-10.406198 33.637775 -0.61460394 10 3200326099480 1 0
-4.207045 20.528471 -0.609854 30 3200326101784 1 0
-1.8158907 7.081834 -2.046616 6 3200326101784 1 0
-2.2481847 10.97824 -2.2412283 2 3200326104088 1 0
-5.3202596 20.761152 0 34 3200326104088 1 0
-3.0803485 19.978558 -0.23533614 28 3200326106392 1 0
-3.83119 14.959432 -2.4024527 8 3200326106392 1 0
-3.1479392 15.394666 -2.0000887 74 3200326108696 1 0
-8.01403 25.958633 0.15789807 30 3200326108696 1 0
-4.0822973 19.978851 -0.11851654 33 3200326111000 1 0
-3.8703108 15.130495 -1.6822804 18 3200326111000 1 0
-6.974634 27.282986 0.6552761 35 3200326113304 1 0
-3.0523307 19.873604 0.2340789 17 3200326115608 1 0
-6.5525756 25.647547 -1.8510578 12 3200326115608 1 0
-2.3305194 15.1592245 -1.4317105 57 3200326113304 1 0
-3.1617818 15.508324 -1.2920679 2 3200326117912 1 0
0 0 0 43 3200326117912 1 0
-4.0725174 19.990273 0.3560989 13 3200326120216 1 0
-4.283146 13.909625 -0.9327568 6 3200326120216 1 0
-2.3266401 15.192839 -0.89510834 65 3200326122520 1 0
-6.79888 26.660109 1.6023114 26 3200326122520 1 0
-4.6782036 22.99753 0.9561326 6 3200326124824 1 0
-7.3103127 28.682985 -1.3788103 45 3200326124824 1 0
-6.661564 32.771908 -1.7526265 12 3200326127128 1 0
-5.2565064 20.637144 2.6148286 27 3200326127128 1 0
-4.5971947 22.633001 1.8853775 13 3200326129432 1 0
-4.280273 13.929102 -0.59367496 5 3200326129432 1 0
-2.3191082 15.202759 -0.53703344 55 3200326131736 1 0
-5.002041 19.662018 5.4362354 12 3200326131736 1 0
-4.2347364 20.879671 3.884412 25 3200326134040 1 0
-6.617687 26.02864 -0.624941 35 3200326134040 1 0
-0.8125843 4.033602 -1.9186869 4 3200326154776 1 0
-4.1224394 20.480377 -0.6079922 30 3200326157080 1 0
-1.7919999 7.09189 -2.0476944 6 3200326157080 1 0
-2.2064366 10.970703 -2.2380905 2 3200326159384 1 0
-10.28638 33.666245 -0.61446434 16 3200326154776 1 0
-5.3254976 21.090012 0 36 3200326159384 1 0
-3.007933 19.977453 -0.23519644 27 3200326161688 1 0
-3.77346 14.953717 -2.399378 7 3200326161688 1 0
-3.086256 15.370727 -1.995543 70 3200326163992 1 0
-7.925356 25.998388 0.15796782 20 3200326163992 1 0
-4.0110793 19.99327 -0.11851654 26 3200326166296 1 0
-4.053497 16.08516 -1.7868072 20 3200326166296 1 0
-2.2857234 15.230484 -1.4376589 56 3200326168600 1 0
-6.4716988 25.698462 0.61665934 18 3200326168600 1 0
-3.0028563 20.030796 0.23580179 26 3200326170904 1 0
-3.9868646 15.842139 -1.142332 5 3200326170904 1 0
-3.109734 15.539173 -1.2936951 7 3200326173208 1 0
-4.965517 16.326365 0.4966336 6 3200326173208 1 0
-4.0165625 20.087248 0.3575649 30 3200326175512 1 0
-4.2594447 14.012889 -0.93864083 7 3200326175512 1 0
-7.0880585 28.222218 1.6946362 9 3200326177816 1 0
-4.3000364 21.540777 0.89490885 8 3200326180120 1 0
-3.983091 15.870049 -0.7621798 21 3200326180120 1 0
-2.280234 15.260439 -0.8985967 63 3200326177816 1 0
-3.1050572 15.567573 -0.83193237 10 3200326182424 1 0
-5.169242 20.610062 2.608979 23 3200326182424 1 0
-4.5068674 22.614576 1.8824484 13 3200326184728 1 0
-4.2556663 14.032725 -0.59742004 4 3200326184728 1 0
-2.2735174 15.282395 -0.5395462 59 3200326187032 1 0
-4.9077787 19.59416 5.412424 14 3200326187032 1 0
-4.043623 20.32403 3.7782257 11 3200326189336 1 0
-6.526932 26.07628 -0.6254993 6 3200326189336 1 0
-0.7970904 4.0366926 -1.9186869 3 3200326210072 1 0
-4.9238887 16.33962 -0.29787767 21 3200326210072 1 0
-4.042818 20.488092 -0.6077594 27 3200326212376 1 0
-1.7621741 7.0874524 -2.0444596 7 3200326212376 1 0
-2.1649349 10.978969 -2.2380905 2 3200326214680 1 0
-5.2476363 21.117764 0 27 3200326214680 1 0
-2.9381733 20.024216 -0.23561552 16 3200326216984 1 0
-3.712557 14.948592 -2.3963034 8 3200326216984 1 0
-2.73538 13.891008 -1.8021001 16 3200326219288 1 0
-4.9079337 16.317596 0.09903501 21 3200326219288 1 0
-3.9286962 19.96478 -0.11826082 20 3200326221592 1 0
-3.9748948 16.022823 -1.7782394 21 3200326221592 1 0
-2.2396886 15.305751 -1.443979 50 3200326223896 1 0
-5.1495123 20.769348 0.49792424 11 3200326223896 1 0
-2.933474 20.065329 0.23608117 26 3200326226200 1 0
-3.928275 15.852657 -1.142053 6 3200326226200 1 0
-4.94732 25.193424 -2.095949 9 3200326228504 1 0
-4.9019966 16.328852 0.49616814 7 3200326228504 1 0
-3.958529 20.172132 0.35882148 38 3200326230808 1 0
-4.228784 14.093037 -0.94298995 13 3200326230808 1 0
-2.2358568 15.335609 -0.90255016 60 3200326233112 1 0
0 0 0 39 3200326233112 1 0
-4.1880684 21.37144 0.8872559 60 3200326235416 1 0
-4.054802 20.705755 -1.1057541 31 3200326237720 1 0
-5.0896487 20.597145 2.6050792 16 3200326237720 1 0
-4.4499974 22.739592 1.8915613 22 3200326240024 1 0
-4.2265587 14.112459 -0.60018814 4 3200326240024 1 0
-2.230242 15.353406 -0.5417798 48 3200326242328 1 0
0 0 0 4 3200326235416 1 0
-4.857159 19.678411 5.431059 12 3200326242328 1 0
-3.9759386 20.3454 3.7796607 30 3200326244632 1 0
-5.177718 20.98894 -0.50304216 36 3200326244632 1 0
-0.78302264 4.032059 -1.915306 4 3200326265368 1 0
-4.8679643 16.339678 -0.29759842 6 3200326265368 1 0
-3.9842281 20.53215 -0.6086903 27 3200326267672 1 0
-1.7388787 7.0892377 -2.0433812 6 3200326267672 1 0
-2.1316063 10.993479 -2.2396595 2 3200326269976 1 0
-5.1587486 21.04494 0 23 3200326269976 1 0
-3.6564596 14.925791 -2.3907692 8 3200326272280 1 0
-2.691672 13.903585 -1.8026052 20 3200326274584 1 0
-2.8550627 19.89886 -0.23403233 46 3200326272280 1 0
-3.8523479 19.91447 -0.11788886 22 3200326276888 1 0
0 0 0 1 3200326274584 1 0
-3.947001 16.132093 -1.7889491 22 3200326276888 1 0
-2.2009714 15.387812 -1.4510428 56 3200326279192 1 0
-5.0881233 20.809174 0.49848256 24 3200326279192 1 0
-2.8649843 20.05098 0.23580179 26 3200326281496 1 0
-6.4986525 26.594656 -1.9143966 27 3200326281496 1 0
-2.987121 15.477951 -1.2868605 11 3200326283800 1 0
-3.9023395 20.236029 0.359729 28 3200326286104 1 0
-7.729152 26.054213 0.79091346 25 3200326283800 1 0
-4.2064714 14.18717 -0.9483624 12 3200326286104 1 0
-2.1966982 15.421943 -0.9072013 61 3200326288408 1 0
-6.896863 28.27777 1.6951013 14 3200326288408 1 0
-4.091794 21.251715 0.8817197 13 3200326290712 1 0
-6.2998896 25.846453 -1.2392169 11 3200326290712 1 0
-2.9801545 15.490283 -0.8266988 12 3200326293016 1 0
-6.129128 25.161777 3.1798148 14 3200326293016 1 0
-4.373482 22.750372 1.8912358 6 3200326295320 1 0
-4.204477 14.2107725 -0.6037704 8 3200326295320 1 0
-4.78491 19.66827 5.423812 16 3200326297624 1 0
-2.1889749 15.432024 -0.54429257 51 3200326297624 1 0
-3.9083023 20.362507 3.780378 19 3200326299928 1 0
0 0 0 4 3200326299928 1 0
-0.76894337 4.034768 -1.915306 4 3200326320664 1 0
-15.194449 51.659595 -0.9399168 9 3200326320664 1 0
-3.8974254 20.467407 -0.6063631 35 3200326322968 1 0
-2.0886602 10.977764 -2.2349527 2 3200326325272 1 0
-4.977938 20.619629 0 24 3200326325272 1 0
-1.7140706 7.095277 -2.0433812 6 3200326322968 1 0
-2.7901385 19.944416 -0.23445141 21 3200326327576 1 0
-3.5938141 14.896277 -2.3840053 7 3200326327576 1 0
-2.9092858 15.316356 -1.9844314 61 3200326329880 1 0
-9.854284 33.579334 0.20339373 10 3200326329880 1 0
-3.7746272 19.888638 -0.11765638 43 3200326332184 1 0
-3.8397756 15.937132 -1.7658161 28 3200326332184 1 0
-2.1542723 15.450718 -1.4562477 50 3200326334488 1 0
-5.0239067 20.865904 0.4994131 22 3200326334488 1 0
-2.7922995 20.049116 0.23566209 27 3200326336792 1 0
-3.8019567 15.801355 -1.1364725 5 3200326336792 1 0
-7.6445065 26.10834 0.79172796 14 3200326339096 1 0
-3.785754 20.013996 0.35554042 22 3200326341400 1 0
-4.177295 14.274831 -0.95322317 12 3200326341400 1 0
-2.1494164 15.485047 -0.9104571 63 3200326343704 1 0
-4.8083496 25.39887 -2.110269 19 3200326339096 1 0
-7.001177 29.156395 1.7462636 15 3200326343704 1 0
-3.7955813 15.817335 -0.75771284 7 3200326346008 1 0
-3.8579202 20.42968 0.8470371 21 3200326346008 1 0
-4.020091 21.306305 -1.1363183 12 3200326348312 1 0
-6.01962 25.10247 3.1695778 21 3200326348312 1 0
-4.276379 22.683634 1.8844012 6 3200326350616 1 0
-4.1826253 14.325504 -0.6080039 15 3200326350616 1 0
-2.1417296 15.4991865 -0.54638654 57 3200326352920 1 0
-4.7079234 19.65903 5.416565 16 3200326352920 1 0
-4.0889926 21.726109 4.030777 23 3200326355224 1 0
-5.069681 21.183918 -0.5068573 23 3200326355224 1 0
-0.75481564 4.041123 -1.9169965 2 3200326375960 1 0
-15.075216 51.95692 -0.9443148 9 3200326375960 1 0
-3.8380854 20.564037 -0.60880667 38 3200326378264 1 0
-1.6881568 7.101487 -2.0433812 6 3200326378264 1 0
-2.046573 10.973719 -2.2325993 2 3200326380568 1 0
-4.928818 20.74656 0 40 3200326380568 1 0
-2.713572 19.922686 -0.2340789 19 3200326382872 1 0
-2.8445776 15.276037 -1.9778655 78 3200326385176 1 0
-3.5316255 14.874585 -2.3784711 7 3200326382872 1 0
-9.730875 33.606976 0.20334724 15 3200326385176 1 0
-3.6951048 19.858812 -0.11740065 24 3200326387480 1 0
-3.8283792 16.144306 -1.7872355 31 3200326387480 1 0
-2.1086228 15.529363 -1.4629396 50 3200326389784 1 0
-4.942763 20.856508 0.4987617 30 3200326389784 1 0
-2.710087 19.97967 0.2347308 19 3200326392088 1 0
-6.298501 26.593563 -1.9110484 13 3200326392088 1 0
-2.862636 15.420367 -1.2803514 12 3200326394392 1 0
-8.8148775 30.506552 0.9241481 11 3200326394392 1 0
-3.712807 20.015453 0.355331 24 3200326396696 1 0
-4.1467543 14.358537 -0.9578281 13 3200326396696 1 0
-1.9595206 14.49134 -0.8516204 104 3200326399000 1 0
-9.58203 40.532207 2.42556 10 3200326399000 1 0
-3.8190398 20.61992 0.8543644 21 3200326401304 1 0
-6.6809425 28.277992 -1.3534973 4 3200326401304 1 0
-3.7705073 20.373602 -1.0858665 46 3200326403608 1 0
-5.9830494 25.33971 3.1968765 29 3200326403608 1 0
-4.146085 14.386042 -0.6099579 9 3200326405912 1 0
-3.8103755 20.604937 1.7106067 8 3200326405912 1 0
0 0 0 110 3200326408216 1 0
-4.655807 19.742899 5.4351997 16 3200326408216 1 0
-3.7925823 20.54046 3.8083596 16 3200326410520 1 0
-4.9305825 20.921022 -0.50015754 40 3200326410520 1 0
-0.7414107 4.043604 -1.9169965 3 3200326431256 1 0
-3.7652495 20.55311 -0.6081085 16 3200326433560 1 0
-15.029534 52.448765 -0.9523429 9 3200326431256 1 0
-1.6627381 7.09957 -2.0412247 6 3200326433560 1 0
-2.009146 10.976645 -2.2318149 2 3200326435864 1 0
-4.8530083 20.735668 0 22 3200326435864 1 0
-1.9079682 14.3688965 -0.16874914 9 3200326438168 1 0
-3.4744298 14.855577 -2.3735518 8 3200326438168 1 0
-2.7887359 15.262129 -1.974835 81 3200326440472 1 0
-7.16771 25.071074 0.15155146 21 3200326440472 1 0
-3.646463 19.973528 -0.1180051 35 3200326442776 1 0
-3.6822903 15.766039 -1.7439684 22 3200326442776 1 0
0 0 0 177 3200326445080 1 0
-4.8563 20.807007 0.49717984 20 3200326445080 1 0
-3.6725173 15.745907 -1.130613 12 3200326447384 1 0
-2.7811208 15.273212 -1.267333 12 3200326449688 1 0
-1.8986663 14.366095 0.16870257 9 3200326447384 1 0
-8.78798 30.80962 0.9324098 7 3200326449688 1 0
-4.1224055 14.46104 -0.9637122 13 3200326451992 1 0
0 0 0 211 3200326454296 1 0
-3.651666 20.071417 0.3560989 35 3200326451992 1 0
-9.215358 39.592815 2.367421 9 3200326454296 1 0
-3.7280567 20.526897 0.849968 7 3200326456600 1 0
-2.802875 15.446211 -0.82272124 14 3200326458904 1 0
0 0 0 12 3200326456600 1 0
-5.8001833 24.954395 3.1456914 25 3200326458904 1 0
-3.7075458 20.449488 1.696612 13 3200326461208 1 0
-4.119687 14.485059 -0.6135401 13 3200326461208 1 0
0 0 0 218 3200326463512 1 0
-4.6221046 19.913473 5.4776464 10 3200326463512 1 0
-3.7234669 20.573097 3.811947 14 3200326465816 1 0
-6.0493045 26.08038 -0.6229869 32 3200326465816 1 0
-0.72722584 4.049862 -1.9186869 3 3200326486552 1 0
-14.981852 53.01537 -0.9616276 9 3200326486552 1 0
-3.6016352 20.074839 -0.59356326 13 3200326488856 1 0
-1.6375703 7.1093698 -2.0423028 6 3200326488856 1 0
-1.968901 10.983935 -2.2318149 1 3200326491160 1 0
-4.8550367 21.092447 0 23 3200326491160 1 0
-1.852219 14.351993 -0.16846976 25 3200326493464 1 0
-3.4137561 14.841249 -2.3692474 8 3200326493464 1 0
-2.7257895 15.233188 -1.9697843 79 3200326495768 1 0
-7.063832 25.054829 0.15129574 34 3200326495768 1 0
-3.5901265 20.081259 -0.11856304 30 3200326498072 1 0
-3.8212402 16.636038 -1.8386421 20 3200326498072 1 0
-1.8398106 14.30748 -1.3465737 210 3200326500376 1 0
-4.777322 20.812973 0.49690068 20 3200326500376 1 0
-1.8434516 14.353121 0.16846976 21 3200326502680 1 0
-6.0992737 26.590837 -1.9077001 19 3200326502680 1 0
-2.7174249 15.240129 -1.2637529 71 3200326504984 1 0
-9.467472 33.659054 1.0175868 8 3200326504984 1 0
-3.5507195 19.931107 0.35337633 28 3200326507288 1 0
-4.08882 14.545223 -0.96831715 10 3200326507288 1 0
-1.8343996 14.334617 -0.84162045 214 3200326509592 1 0
0 0 0 78 3200326509592 1 0
-3.6709907 20.642733 0.85420156 23 3200326511896 1 0
0 0 0 4 3200326511896 1 0
-2.712701 15.2676 -0.81267273 89 3200326514200 1 0
-5.669757 24.805191 3.1242425 24 3200326514200 1 0
-3.6256013 20.423685 1.6933575 7 3200326516504 1 0
-4.0870743 14.573177 -0.6166339 9 3200326516504 1 0
-1.8240869 14.323518 -0.50422794 117 3200326518808 1 0
-4.5611243 19.983017 5.4921403 25 3200326518808 1 0
-3.8142009 21.5243 3.9855762 31 3200326521112 1 0
-4.7335935 20.75324 -0.49531877 16 3200326521112 1 0
-0.7126107 4.041416 -1.9136155 3 3200326542296 1 0
-10.749777 38.501373 -0.69774723 6 3200326542296 1 0
-2.684026 15.234825 -0.45020512 7 3200326544600 1 0
-1.6152792 7.1144676 -2.0423028 6 3200326544600 1 0
-1.937944 11.009353 -2.235737 2 3200326546904 1 0
-4.727987 20.838367 0 22 3200326546904 1 0
-1.8049372 14.337859 -0.16823694 20 3200326549208 1 0
-3.3621943 14.828699 -2.365558 8 3200326549208 1 0
-2.6714954 15.2025175 -1.9647336 78 3200326551512 1 0
-6.9901085 25.092106 0.15138873 28 3200326551512 1 0
-3.5367446 20.143526 -0.11886526 28 3200326553816 1 0
-1.7949822 14.309159 -1.3462019 215 3200326556120 1 0
-3.5482376 15.670364 -1.7306883 18 3200326553816 1 0
-4.678402 20.675562 0.49327162 28 3200326556120 1 0
-1.79759 14.346844 0.16833006 28 3200326558424 1 0
-3.5502155 15.700303 -1.1255904 21 3200326558424 1 0
-2.6628556 15.205239 -1.260173 62 3200326560728 1 0
-9.370067 33.7112 1.018285 17 3200326560728 1 0
-3.4714692 19.839506 0.35156128 24 3200326563032 1 0
-4.0675635 14.642347 -0.97394544 11 3200326563032 1 0
-1.7903999 14.3401785 -0.84162045 171 3200326565336 1 0
-5.854343 25.94258 1.5488235 12 3200326565336 1 0
-3.6731071 21.027897 0.86967033 22 3200326567640 1 0
-3.542367 15.708069 -0.7500817 17 3200326567640 1 0
-5.571274 24.721693 3.111568 21 3200326569944 1 0
-2.6585019 15.232529 -0.81036997 78 3200326569944 1 0
-3.5804741 20.532824 1.7014939 10 3200326572248 1 0
-4.069338 14.68185 -0.6207046 5 3200326572248 1 0
-1.7815241 14.33693 -0.5045071 215 3200326574552 1 0
-4.523264 20.098564 5.5200925 12 3200326574552 1 0
-3.5754688 20.539423 3.801185 30 3200326576856 1 0
-4.6767797 20.794811 -0.49597016 46 3200326576856 1 0
-10.613193 38.530952 -0.6976076 19 3200326597592 1 0
-0.6997333 4.051024 -1.9169965 3 3200326597592 1 0
-2.6238093 15.204739 -0.4490415 84 3200326599896 1 0
-1.5886524 7.112567 -2.0401464 6 3200326599896 1 0
-1.8978492 11.008375 -2.2341683 2 3200326602200 1 0
-4.8689575 21.81525 0 20 3200326602200 1 0
-1.7508532 14.316358 -0.16791098 51 3200326604504 1 0
-3.3071835 14.828917 -2.3637133 7 3200326604504 1 0
-2.6128173 15.184528 -1.9611981 78 3200326606808 1 0
-6.916913 25.17461 0.15173744 37 3200326606808 1 0
-3.4730754 20.203306 -0.11914423 28 3200326609112 1 0
-3.7378793 16.78537 -1.8523506 25 3200326609112 1 0
-1.7428106 14.307583 -1.3454584 173 3200326611416 1 0
-4.594842 20.649231 0.49224806 13 3200326611416 1 0
0 0 0 189 3200326613720 1 0
-5.910169 26.58037 -1.9040728 16 3200326613720 1 0
-2.6039515 15.191169 -1.2582202 65 3200326616024 1 0
-9.264262 33.80262 1.0200305 8 3200326616024 1 0
-3.3995967 19.85195 0.35156128 28 3200326618328 1 0
-4.037708 14.741683 -0.97957367 10 3200326618328 1 0
-1.7420883 14.378307 -0.84348094 118 3200326620632 1 0
-5.6025696 25.254177 1.5064983 8 3200326620632 1 0
-4.001669 23.412779 0.96769345 9 3200326622936 1 0
-2.5972753 15.2106695 -0.8086952 74 3200326625240 1 0
0 0 0 2 3200326622936 1 0
-5.490072 24.784584 3.1169302 10 3200326625240 1 0
-3.5203142 20.63625 1.7089794 5 3200326627544 1 0
-4.034245 14.766122 -0.62363553 5 3200326627544 1 0
-1.7304606 14.359289 -0.5050655 160 3200326629848 1 0
-4.5215755 20.443346 5.610162 18 3200326629848 1 0
-3.4926624 20.513748 3.7940102 26 3200326632152 1 0
-4.6211977 20.90963 -0.49829647 28 3200326632152 1 0
-0.6841734 4.053681 -1.9169965 3 3200326652888 1 0
-2.5611963 15.187028 -0.44822696 76 3200326655192 1 0
-10.4766865 38.613876 -0.6983755 13 3200326652888 1 0
-1.5623628 7.1223316 -2.0412247 7 3200326655192 1 0
-1.8562071 11.015473 -2.2341683 2 3200326657496 1 0
-1.6985313 14.334743 -0.16805068 112 3200326659800 1 0
-4.5551577 20.778559 0 86 3200326657496 1 0
-2.5332205 15.057198 -1.9435205 23 3200326662104 1 0
0 0 0 3 3200326662104 1 0
-3.248132 14.825779 -2.3612537 7 3200326659800 1 0
-3.3805113 20.109495 -0.11851654 31 3200326664408 1 0
-3.6894455 16.861227 -1.8592048 26 3200326664408 1 0
-4.5319424 20.724531 0.49364382 18 3200326666712 1 0
-1.6952424 14.37138 0.16846976 117 3200326669016 1 0
-5.8092217 26.582191 -1.9026775 9 3200326669016 1 0
-2.5432055 15.165076 -1.2552911 63 3200326671320 1 0
0 0 0 26 3200326666712 1 0
-18.921778 70.03003 2.1111581 62 3200326671320 1 0
-3.3430872 19.950762 0.35309708 30 3200326673624 1 0
-4.006793 14.836964 -0.98494613 9 3200326673624 1 0
-1.6933824 14.404229 -0.8446437 117 3200326675928 1 0
0 0 0 63 3200326675928 1 0
0 0 0 24 3200326678232 1 0
-3.4661806 20.718632 0.8558299 47 3200326678232 1 0
-2.5382369 15.184185 -0.8068111 72 3200326680536 1 0
-5.4905686 25.203156 3.1671405 10 3200326680536 1 0
-3.7779164 22.618376 1.8720338 6 3200326682840 1 0
-4.009106 14.876473 -0.6277063 4 3200326682840 1 0
0 0 0 18 3200326685144 1 0
-4.4595923 20.4965 5.6205144 6 3200326685144 1 0
-3.4202368 20.50999 3.7911403 28 3200326687448 1 0
-0.67084295 4.0522337 -1.915306 3 3200326708184 1 0
-4.540661 20.882254 -0.49727288 26 3200326687448 1 0
-2.5066166 15.155607 -0.44706333 71 3200326710488 1 0
-14.769071 55.118923 -0.99604374 20 3200326708184 1 0
-1.5373839 7.1159434 -2.0379899 6 3200326710488 1 0
-1.8223898 11.02907 -2.235737 2 3200326712792 1 0
-4.348829 20.143915 0 24 3200326712792 1 0
-1.6781927 14.562629 -0.17065828 116 3200326715096 1 0
0 0 0 22 3200326717400 1 0
-3.1905665 14.789757 -2.3538747 7 3200326715096 1 0
-6.7313986 25.183445 0.15150496 31 3200326717400 1 0
-3.2793589 19.903307 -0.117237926 31 3200326719704 1 0
-3.5877175 16.655413 -1.835215 20 3200326719704 1 0
-1.735697 15.122541 -1.420929 28 3200326722008 1 0
-4.4666214 20.75098 0.49392298 18 3200326722008 1 0
-1.6674747 14.547756 0.17047203 116 3200326724312 1 0
-5.714069 26.566076 -1.9001664 26 3200326724312 1 0
-2.4877317 15.141954 -1.2526875 65 3200326726616 1 0
-3.2855432 20.017063 0.35407442 28 3200326728920 1 0
-7.9854813 29.94853 0.9020393 15 3200326726616 1 0
-3.982942 14.946686 -0.9913419 8 3200326728920 1 0
0 0 0 31 3200326731224 1 0
-4.859865 22.64514 1.3488253 13 3200326731224 1 0
-3.5330806 21.566385 0.8903496 11 3200326733528 1 0
-4.546859 21.20243 -1.0100976 15 3200326733528 1 0
-2.4800925 15.153315 -0.80471766 78 3200326735832 1 0
-5.1335664 23.956146 3.0082228 9 3200326735832 1 0
-3.7570345 22.977417 1.9006741 9 3200326738136 1 0
-3.98277 14.982819 -0.63161415 4 3200326738136 1 0
-1.8187912 16.019253 -0.56299865 54 3200326740440 1 0
-4.7729135 22.306387 6.1122704 7 3200326740440 1 0
-3.3522396 20.541151 3.7947276 23 3200326742744 1 0
-4.33609 20.280014 -0.4825706 33 3200326742744 1 0
-0.6565652 4.0582438 -1.9169965 4 3200326763480 1 0
-14.709884 55.714046 -1.005817 20 3200326763480 1 0
-2.4455302 15.129133 -0.44601607 71 3200326765784 1 0
-1.5129952 7.129044 -2.0401464 6 3200326765784 1 0
-1.7822751 11.035623 -2.235737 3 3200326768088 1 0
-4.2722354 20.143944 0 28 3200326768088 1 0
0 0 0 100 3200326770392 1 0
-3.1255112 14.747083 -2.3452659 7 3200326770392 1 0
-2.3253944 14.423873 -1.8596784 4 3200326772696 1 0
-5.504385 20.894775 0.12558383 6 3200326772696 1 0
-3.5130374 16.59816 -1.827504 26 3200326775000 1 0
-3.188753 19.79649 -0.11654049 30 3200326775000 1 0
-1.693898 15.239488 -1.4313387 24 3200326777304 1 0
-4.3815904 20.715967 0.4927133 20 3200326777304 1 0
0 0 0 12 3200326779608 1 0
-2.4282885 15.115261 -1.2497584 63 3200326781912 1 0
-5.6135917 26.55894 -1.8982131 26 3200326779608 1 0
-7.125995 27.111263 0.8158149 25 3200326781912 1 0
-3.198931 19.929829 0.3523292 20 3200326784216 1 0
-3.9524043 15.045608 -0.9969701 7 3200326784216 1 0
-1.779484 16.090471 -0.94278234 61 3200326786520 1 0
-4.785075 22.685549 1.3502207 13 3200326786520 1 0
-3.460626 21.59837 0.89116377 31 3200326788824 1 0
-6.5987477 31.305405 -1.4902989 5 3200326788824 1 0
-2.4221313 15.130325 -0.8030429 78 3200326791128 1 0
-5.011451 23.791328 2.9853115 39 3200326791128 1 0
-3.7111409 23.20292 1.9182488 27 3200326793432 1 0
-3.949917 15.070028 -0.6347079 5 3200326793432 1 0
-1.7711986 16.096977 -0.56551147 51 3200326795736 1 0
-4.2789135 20.341553 5.569786 12 3200326795736 1 0
-3.2069633 20.086275 3.7086306 20 3200326798040 1 0
-4.448783 21.163612 -0.50322825 42 3200326798040 1 0
-0.64196974 4.0532374 -1.9136155 3 3200326818776 1 0
-11.120614 42.692696 -0.77006996 7 3200326818776 1 0
-2.3958614 15.141127 -0.44613242 65 3200326821080 1 0
-1.4885072 7.1302624 -2.039068 6 3200326821080 1 0
-1.7436719 11.029876 -2.2333837 2 3200326823384 1 0
-4.1503906 19.895708 0 29 3200326823384 1 0
-3.0682032 14.71874 -2.3391168 7 3200326825688 1 0
0 0 0 11 3200326825688 1 0
0 0 0 58 3200326827992 1 0
-5.452565 20.982756 0.12600228 6 3200326827992 1 0
-3.1323333 19.870287 -0.116912454 33 3200326830296 1 0
-3.2369308 15.5508 -1.7109824 20 3200326830296 1 0
-4.278577 20.570051 0.48889816 22 3200326832600 1 0
-1.7374086 16.12416 -1.513873 46 3200326832600 1 0
-3.239126 15.584067 -1.1130342 6 3200326834904 1 0
-2.3797476 15.139122 -1.2510601 53 3200326837208 1 0
-7.052533 27.20482 0.8179095 28 3200326837208 1 0
-3.1172478 19.849659 0.35072356 26 3200326839512 1 0
-2.20293 20.472424 0.23971319 19 3200326834904 1 0
-6.6466727 25.654593 -1.6984564 8 3200326839512 1 0
-1.7304771 16.148026 -0.9458056 63 3200326841816 1 0
-4.702493 22.674265 1.3485928 27 3200326841816 1 0
-3.383542 21.586308 0.8901868 14 3200326844120 1 0
0 0 0 10 3200326844120 1 0
-2.3706229 15.138481 -0.8030429 68 3200326846424 1 0
-4.9071026 23.695503 2.9711745 26 3200326846424 1 0
-3.6375282 23.250893 1.921178 10 3200326848728 1 0
-6.657846 25.759436 -1.0839535 33 3200326848728 1 0
-1.722101 16.158588 -0.56746584 51 3200326851032 1 0
-4.221881 20.416597 5.5863504 25 3200326851032 1 0
-3.0926118 19.80554 3.65482 27 3200326853336 1 0
-4.381932 21.20614 -0.5038796 42 3200326853336 1 0
-0.6278174 4.055454 -1.9136155 3 3200326874072 1 0
-10.946656 42.63441 -0.76832473 7 3200326874072 1 0
-2.3521612 15.208667 -0.44787785 61 3200326876376 1 0
-1.4620608 7.127868 -2.0369115 6 3200326876376 1 0
-1.7057587 11.039771 -2.2341683 2 3200326878680 1 0
-4.078507 19.89832 0 29 3200326878680 1 0
-2.248289 21.481201 -0.2514474 16 3200326880984 1 0
-3.010462 14.698384 -2.3341975 7 3200326880984 1 0
-2.3277369 15.094344 -1.9440255 100 3200326883288 1 0
-5.368371 20.959038 0.12574656 52 3200326883288 1 0
-3.0806167 19.995745 -0.117586635 28 3200326885592 1 0
-3.3507645 16.384134 -1.8013724 21 3200326885592 1 0
-1.6158844 15.504252 -1.4551324 22 3200326887896 1 0
-4.0938525 20.03243 0.47577775 32 3200326887896 1 0
-2.1347668 20.511814 0.2400857 15 3200326890200 1 0
-5.4201508 26.542078 -1.8943068 26 3200326890200 1 0
-2.3383892 15.222207 -1.2572439 50 3200326892504 1 0
-6.6635475 26.07874 0.7833499 23 3200326892504 1 0
-6.5679455 25.720182 -1.7012706 22 3200326894808 1 0
-3.0588608 19.931576 0.35198012 30 3200326894808 1 0
-4.639262 22.768797 1.3532438 33 3200326897112 1 0
-1.6810971 16.22149 -0.94975907 61 3200326897112 1 0
-3.3130121 21.629591 0.89148945 11 3200326899416 1 0
-6.6564317 32.693066 -1.5541395 21 3200326899416 1 0
-4.5663223 22.444191 2.812257 11 3200326901720 1 0
-2.3268285 15.205893 -0.8061831 63 3200326901720 1 0
-3.5099554 22.959995 1.8961177 22 3200326904024 1 0
0 0 0 3 3200326904024 1 0
-1.6742915 16.248007 -0.5703974 51 3200326906328 1 0
-3.0270197 19.839556 3.6591249 19 3200326908632 1 0
-4.147511 20.416065 5.582209 17 3200326906328 1 0
-4.252989 20.950897 -0.497459 34 3200326908632 1 0
-0.6141995 4.061205 -1.915306 3 3200326929368 1 0
0 0 0 94 3200326929368 1 0
-2.3104076 15.291901 -0.45008874 63 3200326931672 1 0
-1.4364102 7.1291523 -2.0358331 6 3200326931672 1 0
-1.6648707 11.030145 -2.2310302 2 3200326933976 1 0
-4.028761 20.010468 0 29 3200326933976 1 0
-2.0819333 20.585587 -0.24087729 49 3200326936280 1 0
-2.793874 13.887342 -2.2038367 7 3200326936280 1 0
-5.30203 21.004797 0.1259093 28 3200326938584 1 0
-3.0203238 20.069662 -0.1179586 28 3200326940888 1 0
-3.1149726 15.506735 -1.7036998 20 3200326940888 1 0
-2.270896 15.074911 -1.94049 89 3200326938584 1 0
-1.6240013 16.127972 -1.5131295 25 3200326943192 1 0
-4.0152445 20.003471 0.47475415 17 3200326943192 1 0
-2.073558 20.622612 0.24129637 17 3200326945496 1 0
-3.1122022 15.516317 -1.1066167 19 3200326945496 1 0
-2.2935214 15.285473 -1.2618003 48 3200326947800 1 0
-5.298399 21.041992 0.6314973 6 3200326947800 1 0
-3.0224688 20.163624 0.35588947 37 3200326950104 1 0
-6.4664354 25.696499 -1.6982006 16 3200326950104 1 0
-1.6324186 16.306728 -0.9544102 59 3200326952408 1 0
-4.549569 22.73395 1.3502207 30 3200326952408 1 0
-3.0967557 20.700281 0.8527361 26 3200326954712 1 0
-3.1089497 15.547006 -0.738542 13 3200326954712 1 0
-2.2849538 15.288983 -0.8101606 61 3200326957016 1 0
-4.4848375 22.44442 2.810307 20 3200326957016 1 0
-3.4339097 22.999708 1.8983959 32 3200326959320 1 0
-7.457751 29.708838 -1.2479224 22 3200326959320 1 0
-1.6231074 16.309443 -0.57235175 54 3200326961624 1 0
-4.1049476 20.574402 5.6215496 15 3200326961624 1 0
-2.9710872 19.93952 3.6756268 23 3200326963928 1 0
-4.088353 20.506771 -0.48657185 37 3200326963928 1 0
-0.6000195 4.063324 -1.915306 3 3200326984664 1 0
0 0 0 7 3200326984664 1 0
-1.4115161 7.134123 -2.0358331 6 3200326986968 1 0
-1.6257863 11.032008 -2.2302458 2 3200326989272 1 0
-2.2646005 15.351294 -0.45160145 60 3200326986968 1 0
-3.9643176 20.051878 0 21 3200326989272 1 0
-2.0026808 20.517094 -0.23999257 16 3200326991576 1 0
-2.738487 13.862112 -2.1983025 17 3200326991576 1 0
-2.213642 15.05134 -1.9364495 93 3200326993880 1 0
-5.173649 20.801922 0.12458418 30 3200326993880 1 0
-3.2101336 16.274466 -1.7868072 52 3200326996184 1 0
-2.9310615 19.949488 -0.11719143 26 3200326996184 1 0
-1.529176 15.737141 -1.4759518 21 3200326998488 1 0
-3.9577677 20.080141 0.47624302 29 3200326998488 1 0
-2.0011728 20.625744 0.24124981 12 3200327000792 1 0
-3.3278918 16.897354 -1.2042757 10 3200327000792 1 0
-2.2488182 15.352555 -1.2666821 43 3200327003096 1 0
-6.398525 25.790888 0.7733427 27 3200327003096 1 0
-2.9601731 20.229452 0.3568668 30 3200327005400 1 0
-6.5784316 26.532558 -1.7519249 21 3200327005400 1 0
-1.5812459 16.371948 -0.9578985 63 3200327007704 1 0
-4.4671054 22.73402 1.3492904 23 3200327007704 1 0
0 0 0 29 3200327010008 1 0
-4.0785275 20.772436 -0.98608756 28 3200327010008 1 0
-2.240221 15.356156 -0.8133008 53 3200327012312 1 0
-4.6388264 23.644297 2.9585001 18 3200327012312 1 0
-3.360504 23.058895 1.9023014 19 3200327014616 1 0
-7.512328 30.374853 -1.2747892 9 3200327014616 1 0
-1.5730429 16.386637 -0.5748645 49 3200327016920 1 0
-4.0271626 20.558271 5.6132674 13 3200327016920 1 0
-2.8873084 19.852415 3.6576898 21 3200327019224 1 0
-0.58583224 4.065394 -1.915306 3 3200327039960 1 0
-4.0236597 20.556238 -0.48740932 46 3200327019224 1 0
-5.151538 20.973305 -0.376972 31 3200327039960 1 0
-2.223534 15.446171 -0.4541614 56 3200327042264 1 0
-1.5721933 10.932792 -2.2090652 2 3200327044568 1 0
-1.3866048 7.1390066 -2.0358331 7 3200327042264 1 0
-1.9325491 20.539888 -0.24017882 9 3200327046872 1 0
-3.8904886 20.04596 0 19 3200327044568 1 0
-2.1571438 15.031482 -1.932914 86 3200327049176 1 0
-2.6885777 13.863827 -2.1970727 27 3200327046872 1 0
-5.109572 20.854818 0.12479341 24 3200327049176 1 0
-2.8580012 19.93584 -0.117051944 35 3200327051480 1 0
-3.216054 16.609644 -1.8223634 26 3200327051480 1 0
-1.4798039 15.801863 -1.4815284 23 3200327053784 1 0
-3.9036026 20.176281 0.4781971 19 3200327053784 1 0
-1.9142692 20.473309 0.23938723 14 3200327056088 1 0
-5.1320643 26.546452 -1.8906795 6 3200327056088 1 0
-2.2059307 15.435298 -1.2728658 47 3200327058392 1 0
-6.232522 25.502346 0.7640338 23 3200327058392 1 0
-2.886715 20.219866 0.35651776 22 3200327060696 1 0
-6.4943 26.59026 -1.7542274 12 3200327060696 1 0
-1.5318578 16.460865 -0.9627822 59 3200327063000 1 0
-4.049681 20.9968 1.2453378 9 3200327063000 1 0
-3.1545393 22.141863 0.91119176 6 3200327065304 1 0
-2.9867258 15.497708 -0.73519176 11 3200327065304 1 0
-2.1967354 15.435067 -0.81706893 61 3200327067608 1 0
-4.594552 23.85917 2.9833615 29 3200327067608 1 0
-3.2676473 22.98365 1.8951414 16 3200327069912 1 0
-6.302269 25.869299 -1.0847676 37 3200327069912 1 0
-1.5228271 16.467659 -0.57751685 47 3200327072216 1 0
-3.9612124 20.602558 5.6215496 13 3200327072216 1 0
-2.8190982 19.870167 3.6591249 19 3200327074520 1 0
-3.942827 20.523033 -0.4862927 37 3200327074520 1 0
-0.57163775 4.0674143 -1.915306 3 3200327095256 1 0
-5.0886407 21.03392 -0.37773988 10 3200327095256 1 0
-2.1780543 15.513214 -0.45590684 61 3200327097560 1 0
-1.360286 7.1362257 -2.0336766 6 3200327097560 1 0
-3.810305 20.00435 0 22 3200327099864 1 0
-1.5510693 11.058604 -2.2333837 2 3200327099864 1 0
-1.93815 21.394936 -0.25009704 17 3200327102168 1 0
-2.6360362 13.849772 -2.1933832 24 3200327102168 1 0
-2.101798 15.015281 -1.9298835 92 3200327104472 1 0
-5.0138907 20.775173 0.12421222 20 3200327104472 1 0
-3.2499897 17.101223 -1.8750551 22 3200327106776 1 0
-2.7918897 19.9654 -0.11716818 30 3200327106776 1 0
-1.4224645 15.775137 -1.4785542 21 3200327109080 1 0
-3.8929706 20.499985 0.48554826 22 3200327109080 1 0
-1.8463454 20.507658 0.23971319 14 3200327111384 1 0
-2.9376929 15.481261 -1.1018733 4 3200327111384 1 0
-2.161744 15.505956 -1.2780732 48 3200327113688 1 0
-5.0574636 21.00662 0.62882096 22 3200327113688 1 0
-2.7898567 20.031576 0.35302728 15 3200327115992 1 0
-6.39478 26.57742 -1.7519249 27 3200327115992 1 0
-1.481646 16.533619 -0.96673566 57 3200327118296 1 0
-3.971949 20.979132 1.2434773 15 3200327118296 1 0
-3.0806534 22.164368 0.9116803 9 3200327120600 1 0
-2.9323657 15.499952 -0.73481953 4 3200327120600 1 0
-22.148401 159.51268 -8.439906 100 3200327122904 1 0
-4.501524 23.812252 2.9755619 22 3200327122904 1 0
-2.0190225 14.555754 1.1996378 3 3200327125208 1 0
-6.2246385 25.933302 -1.0865587 10 3200327125208 1 0
-1.4730405 16.540415 -0.57989 47 3200327127512 1 0
-3.7036104 19.621138 5.3503075 16 3200327127512 1 0
-2.0040233 14.4770155 2.6647038 7 3200327129816 1 0
-0.55765396 4.065696 -1.9136155 3 3200327150552 1 0
-3.8815572 20.579473 -0.48731625 30 3200327129816 1 0
-5.010514 21.015665 -0.37711158 23 3200327150552 1 0
-2.1336548 15.571848 -0.45741954 46 3200327152856 1 0
-1.3359052 7.1369114 -2.0325983 6 3200327152856 1 0
-1.4978994 10.943218 -2.2090652 2 3200327155160 1 0
-3.7351224 19.969694 0 43 3200327155160 1 0
-4.9295797 56.50152 -0.66028225 25 3200327157464 1 0
-2.5937247 13.877864 -2.1964579 15 3200327157464 1 0
-2.0493088 15.00251 -1.9273582 93 3200327159768 1 0
-4.9412684 20.776121 0.12411923 20 3200327159768 1 0
-2.7294524 20.00229 -0.117330916 9 3200327162072 1 0
-2.985339 15.997697 -1.7529645 95 3200327162072 1 0
-1.3698 15.775799 -1.4781824 20 3200327164376 1 0
-3.7685251 20.210083 0.4783832 21 3200327164376 1 0
-1.7869655 20.613287 0.24087729 14 3200327166680 1 0
-3.8767138 20.806236 -1.4799533 35 3200327166680 1 0
0 0 0 218 3200327168984 1 0
-4.9720845 20.95714 0.62684286 24 3200327168984 1 0
-1.9565283 14.397454 0.25361836 5 3200327171288 1 0
-3.7279735 15.722933 -1.0356004 14 3200327171288 1 0
-1.4329885 16.610052 -0.97092164 56 3200327173592 1 0
-3.906007 21.011816 1.2446401 6 3200327173592 1 0
-1.9539138 14.408054 0.59237236 4 3200327175896 1 0
-3.7909155 20.408392 -0.96691674 58 3200327175896 1 0
-21.611273 159.52586 -8.436766 239 3200327178200 1 0
-4.553675 24.533585 3.0637953 13 3200327178200 1 0
-1.9530991 14.431994 1.1888977 16 3200327180504 1 0
-7.7438617 32.74076 -1.3706956 10 3200327180504 1 0
-1.4250104 16.624868 -0.582682 51 3200327182808 1 0
-3.6371157 19.625713 5.3482366 16 3200327182808 1 0
-1.9496849 14.436785 2.656094 21 3200327185112 1 0
-0.54345864 4.0676174 -1.9136155 3 3200327205296 1 0
-4.911535 20.924007 -0.37515694 17 3200327205296 1 0
-3.7958164 20.497862 -0.485083 31 3200327185112 1 0
-1.9156328 14.354611 -0.42146367 13 3200327207600 1 0
-1.4588546 10.944534 -2.2082808 2 3200327209904 1 0
-1.3108808 7.14155 -2.0325983 6 3200327207600 1 0
-3.6575956 19.943375 0 36 3200327209904 1 0
-4.4479995 53.150593 -0.6209354 51 3200327212208 1 0
-2.5532088 13.933597 -2.2038367 8 3200327212208 1 0
-1.9855931 14.931022 -1.9172567 24 3200327214512 1 0
-4.8410673 20.68058 0.12344505 20 3200327214512 1 0
-1.9092189 14.373509 -0.08427275 25 3200327216816 1 0
