# .PCD v.7 - Point Cloud Data file format
VERSION .7
FIELDS x y z rgb timestamp_ns device_id active
SIZE 4 4 4 4 8 1 1
TYPE F F F F F U U
COUNT 1 1 1 1 1 1 1
WIDTH 1010
HEIGHT 1
VIEWPOINT 0 0 0 1 0 0 0
POINTS 1010               
DATA ascii
44.30105 -21.268303 8.959833 19 3201561612744 1 0
0 0 0 9 3201561610440 1 0
41.29676 -17.397738 -1.042747 7 3201561612744 1 0
0 0 0 4 3201561633480 1 0
49.09712 -17.98643 -0.91269106 9 3201561633480 1 0
37.964287 -18.294106 -1.2264569 8 3201561635784 1 0
0 0 0 1 3201561635784 1 0
7.38444 -3.559713 -1.6395406 24 3201561638088 1 0
0 0 0 27 3201561638088 1 0
44.024532 -23.94816 -0.5834511 19 3201561640392 1 0
9.423269 -3.9892693 -1.5920014 4 3201561640392 1 0
11.286239 -5.4446445 -1.5950202 3 3201561642696 1 0
65.42393 -24.010838 0.4050439 56 3201561642696 1 0
37.288216 -17.99506 -0.24063647 55 3201561645000 1 1
12.900808 -5.4658847 -1.5092117 3 3201561645000 1 0
14.375661 -7.828103 -1.5280005 3 3201561647304 1 0
76.01528 -32.21961 1.9211632 57 3201561647304 1 0
49.507526 -26.968098 0.65632427 9 3201561649608 1 0
18.860466 -7.9973764 -1.432519 5 3201561649608 1 0
16.415874 -7.931031 -1.4883189 4 3201561651912 1 0
83.42262 -30.671509 2.5867302 37 3201561651912 1 0
20.45538 -7.524088 -1.3968327 5 3201561654216 1 0
51.48176 -24.881712 0.9980682 26 3201561654216 1 0
21.38587 -11.661569 -1.4185921 6 3201561656520 1 0
55.793457 -23.686749 3.5299687 56 3201561656520 1 0
51.4217 -24.87114 2.327154 23 3201561658824 1 0
24.6883 -11.945424 -1.4373547 4 3201561661128 1 0
25.990398 -11.038516 -1.3153418 4 3201561658824 1 0
0 0 0 1 3201561661128 1 0
55.36301 -26.79731 5.0211644 28 3201561663432 1 0
29.446394 -10.850699 -1.2785343 4 3201561663432 1 0
31.21923 -17.047205 -1.2421429 6 3201561665736 1 0
0 0 0 9 3201561665736 1 0
43.288036 -20.968214 8.769702 19 3201561668040 1 0
41.254177 -17.549612 -1.0432123 7 3201561668040 1 0
0 0 0 4 3201561688776 1 0
45.55732 -16.870245 -0.8479775 8 3201561688776 1 0
37.33192 -18.150562 -1.2080717 8 3201561691080 1 0
0 0 0 1 3201561691080 1 0
7.375444 -3.5872905 -1.6403251 13 3201561693384 1 0
55.629974 -23.77124 0 25 3201561693384 1 0
43.884037 -24.07187 -0.58270603 19 3201561695688 1 0
9.416468 -4.0254507 -1.5932313 3 3201561695688 1 0
11.284843 -5.4930186 -1.5975456 3 3201561697992 1 0
63.63644 -23.609304 0.39448947 25 3201561697992 1 0
37.166977 -18.098446 -0.2402645 73 3201561700296 1 1
12.885106 -5.5129166 -1.50964 3 3201561700296 1 0
14.354886 -7.8826957 -1.528744 3 3201561702600 1 0
75.75388 -32.425125 1.917441 57 3201561702600 1 0
49.534405 -27.210665 0.65795404 9 3201561704904 1 0
18.846697 -8.070405 -1.433635 5 3201561704904 1 0
16.405542 -7.9979734 -1.4899462 4 3201561707208 1 0
83.49314 -31.034235 2.5923157 37 3201561707208 1 0
51.46844 -25.101446 0.99953425 26 3201561709512 1 0
20.428493 -7.5967817 -1.3968327 5 3201561709512 1 0
21.34418 -11.7377 -1.4185921 6 3201561711816 1 0
56.883137 -24.388958 3.6043868 28 3201561711816 1 0
51.45468 -25.114193 2.33269 24 3201561714120 1 0
25.928787 -11.121798 -1.3142251 4 3201561714120 1 0
24.73873 -12.079249 -1.4427977 4 3201561716424 1 0
0 0 0 1 3201561716424 1 0
55.395542 -27.058617 5.032881 57 3201561718728 1 0
29.399813 -10.95341 -1.2782086 4 3201561718728 1 0
31.154285 -17.15732 -1.2420033 6 3201561721032 1 0
0 0 0 9 3201561721032 1 0
42.229454 -20.643461 8.570244 27 3201561723336 1 0
41.190735 -17.698002 -1.0432123 7 3201561723336 1 0
0 0 0 4 3201561744072 1 0
44.877193 -16.805683 -0.8364589 8 3201561744072 1 0
0 0 0 1 3201561746376 1 0
37.103756 -18.207735 -1.2028354 8 3201561746376 1 0
0 0 0 18 3201561748680 1 0
55.630962 -24.01221 0 25 3201561748680 1 0
44.87747 -24.829931 -0.5970944 13 3201561750984 1 0
9.394482 -4.056598 -1.5920014 3 3201561750984 1 0
11.261234 -5.5322657 -1.5970405 3 3201561753288 1 0
63.228096 -23.719711 0.39249015 50 3201561753288 1 0
37.17644 -18.270248 -0.24075271 49 3201561755592 1 1
12.872317 -5.5627933 -1.5104967 3 3201561755592 1 0
14.333213 -7.93849 -1.5294876 3 3201561757896 1 0
75.72772 -32.73893 1.9197674 28 3201561757896 1 0
49.516205 -27.434101 0.659025 19 3201561760200 1 0
18.817404 -8.13847 -1.433635 5 3201561760200 1 0
16.344393 -8.041257 -1.4870172 3 3201561762504 1 0
83.42931 -31.353477 2.5938284 74 3201561762504 1 0
51.535633 -25.364264 1.0026058 26 3201561764808 1 0
20.40475 -7.6716743 -1.3970885 5 3201561764808 1 0
21.305367 -11.816239 -1.4188247 6 3201561767112 1 0
55.798424 -24.161552 3.5411315 28 3201561767112 1 0
51.565094 -25.397398 2.3418083 24 3201561769416 1 0
25.910744 -11.2242155 -1.3153418 4 3201561769416 1 0
24.691769 -12.165919 -1.4425883 4 3201561771720 1 0
0 0 0 1 3201561771720 1 0
55.341484 -27.277391 5.0367866 57 3201561774024 1 0
29.382956 -11.066769 -1.2791855 4 3201561774024 1 0
31.09295 -17.268225 -1.2420033 6 3201561776328 1 0
42.09225 -20.762169 8.55733 18 3201561778632 1 0
41.29262 -17.915995 -1.0473996 7 3201561778632 1 0
0 0 0 4 3201561799368 1 0
44.36192 -16.789522 -0.82794213 8 3201561799368 1 0
0 0 0 9 3201561776328 1 0
38.27991 -18.950642 -1.2430967 9 3201561801672 1 0
0 0 0 1 3201561801672 1 0
7.353206 -3.6415026 -1.6411095 2 3201561803976 1 0
0 0 0 11 3201561803976 1 0
44.703743 -24.936743 -0.59593034 27 3201561806280 1 0
9.37673 -4.087582 -1.5913866 3 3201561806280 1 0
11.252683 -5.5764995 -1.5985557 3 3201561808584 1 0
44.69526 -16.943928 0.27780947 29 3201561808584 1 1
37.174034 -18.428759 -0.24114792 6 3201561810888 1 1
12.845735 -5.604044 -1.50964 3 3201561810888 1 0
14.3161955 -7.9936748 -1.5306029 3 3201561813192 1 0
0 0 0 7 3201561813192 1 0
49.515827 -27.656923 0.66028225 9 3201561815496 1 0
18.811241 -8.212728 -1.4353092 5 3201561815496 1 0
16.30241 -8.090222 -1.4857153 3 3201561817800 1 0
83.351105 -31.651018 2.5947592 37 3201561817800 1 0
51.26576 -25.449938 0.99904555 26 3201561820104 1 0
20.385818 -7.7443547 -1.3976002 5 3201561820104 1 0
21.278797 -11.896786 -1.4197549 6 3201561822408 1 0
55.52159 -24.267365 3.528806 84 3201561822408 1 0
51.524704 -25.596235 2.3439252 24 3201561824712 1 0
25.97482 -11.357344 -1.3205533 4 3201561824712 1 0
24.66453 -12.256995 -1.4434257 4 3201561827016 1 0
55.391327 -27.53617 5.0498047 57 3201561829320 1 0
0 0 0 1 3201561827016 1 0
29.333996 -11.162229 -1.2786971 4 3201561829320 1 0
31.128433 -17.426218 -1.2457725 6 3201561831624 1 0
18.28834 -8.005506 5.3492723 2 3201561831624 1 0
40.98949 -20.390848 8.34711 18 3201561833928 1 0
41.224476 -18.052317 -1.0472136 7 3201561833928 1 0
44.261173 -16.919403 -0.82710445 8 3201561854664 1 0
0 0 0 4 3201561854664 1 0
38.2203 -19.079542 -1.243213 9 3201561856968 1 0
0 0 0 1 3201561856968 1 0
7.3340187 -3.662469 -1.6395406 2 3201561859272 1 0
55.82507 -24.548113 0 13 3201561859272 1 0
44.71788 -25.140705 -0.59723413 13 3201561861576 1 0
9.359416 -4.1172667 -1.5907717 4 3201561861576 1 0
11.230416 -5.612337 -1.5980506 3 3201561863880 1 0
44.634594 -17.091917 0.27778623 9 3201561863880 1 1
42.67545 -21.334574 -0.27729803 25 3201561866184 1 0
12.826875 -5.6470776 -1.50964 3 3201561866184 1 0
14.341319 -8.071028 -1.5361795 3 3201561868488 1 0
55.72248 -24.541698 1.4168183 25 3201561868488 1 0
44.94025 -25.300144 0.6004005 8 3201561870792 1 0
18.801739 -8.284063 -1.4367043 5 3201561870792 1 0
16.267887 -8.141617 -1.4850644 4 3201561873096 1 0
83.40809 -31.995096 2.5998793 37 3201561873096 1 0
42.66798 -21.361877 0.8328986 27 3201561875400 1 0
21.252274 -11.976669 -1.4206852 6 3201561877704 1 0
20.355787 -7.811816 -1.3973444 5 3201561875400 1 0
55.428074 -24.450544 3.5281084 56 3201561877704 1 0
42.682922 -21.384888 1.9449939 20 3201561880008 1 0
25.92879 -11.4422655 -1.320181 4 3201561880008 1 0
0 0 0 1 3201561882312 1 0
43.179913 -21.649603 3.9432478 15 3201561884616 1 0
29.318138 -11.270817 -1.279674 4 3201561884616 1 0
31.051283 -17.522688 -1.2450744 6 3201561886920 1 0
24.629812 -12.344447 -1.4438443 4 3201561882312 1 0
0 0 0 9 3201561886920 1 0
41.063614 -20.603481 8.376526 27 3201561889224 1 0
0 0 0 4 3201561909960 1 0
41.177032 -18.19988 -1.0475857 7 3201561889224 1 0
48.80185 -18.850641 -0.9131797 9 3201561909960 1 0
38.31045 -19.292242 -1.248333 9 3201561912264 1 0
0 0 0 1 3201561912264 1 0
7.324639 -3.689918 -1.6403251 2 3201561914568 1 0
56.042126 -24.878345 0 13 3201561914568 1 0
45.843678 -25.985977 -0.6134851 14 3201561916872 1 0
9.35212 -4.153324 -1.5920014 4 3201561916872 1 0
11.217679 -5.655403 -1.5990608 3 3201561919176 1 0
0 0 0 1 3201561919176 1 0
42.58565 -21.477753 -0.27720505 25 3201561921480 1 0
12.810512 -5.6938987 -1.5100684 3 3201561921480 1 0
14.323096 -8.127561 -1.5372949 3 3201561923784 1 0
75.81629 -33.711994 1.9307476 28 3201561923784 1 0
51.23669 -29.084316 0.68589264 10 3201561926088 1 0
18.779573 -8.353843 -1.4372624 5 3201561926088 1 0
16.238892 -8.199298 -1.4850644 3 3201561928392 1 0
83.42822 -32.342926 2.6040683 37 3201561928392 1 0
20.365095 -7.8985887 -1.3999026 5 3201561930696 1 0
21.292786 -12.099672 -1.4262664 6 3201561933000 1 0
0 0 0 16 3201561930696 1 0
55.4172 -24.682018 3.5329921 56 3201561933000 1 0
42.59916 -21.53355 1.9446682 20 3201561935304 1 0
24.578358 -12.428886 -1.4434257 4 3201561937608 1 0
25.898716 -11.539654 -1.3207394 4 3201561935304 1 0
55.357418 -28.003984 5.0644503 57 3201561939912 1 0
0 0 0 1 3201561937608 1 0
29.288717 -11.380198 -1.2801626 4 3201561939912 1 0
31.005505 -17.644012 -1.2457725 6 3201561942216 1 0
0 0 0 9 3201561942216 1 0
41.06993 -20.792046 8.393028 18 3201561944520 1 0
41.11125 -18.347988 -1.0475857 7 3201561944520 1 0
0 0 0 4 3201561965256 1 0
48.86282 -19.080297 -0.91562307 9 3201561965256 1 0
37.96901 -19.294035 -1.2394894 9 3201561967560 1 0
0 0 0 1 3201561967560 1 0
7.3182206 -3.7199752 -1.641894 2 3201561969864 1 0
56.08671 -25.141682 0 13 3201561969864 1 0
44.89908 -25.664537 -0.6020768 13 3201561972168 1 0
9.344322 -4.190197 -1.5932313 3 3201561972168 1 0
11.193835 -5.693704 -1.5985557 3 3201561974472 1 0
0 0 0 1 3201561974472 1 0
41.792442 -21.26446 -0.27253225 24 3201561976776 1 0
12.779298 -5.7345333 -1.5087832 3 3201561976776 1 0
14.321937 -8.1939535 -1.5402691 3 3201561979080 1 0
75.6383 -33.953537 1.9292587 28 3201561979080 1 0
46.083282 -26.373455 0.61814153 18 3201561981384 1 0
18.757397 -8.423022 -1.4378204 5 3201561981384 1 0
16.20662 -8.254123 -1.484739 3 3201561983688 1 0
0 0 0 114 3201561983688 1 0
20.341291 -7.9706407 -1.4001584 5 3201561985992 1 0
41.797024 -21.29435 0.8187971 26 3201561985992 1 0
21.24402 -12.169027 -1.4258014 6 3201561988296 1 0
55.411915 -24.908915 3.5381083 56 3201561988296 1 0
42.514473 -21.67389 1.9441798 30 3201561990600 1 0
25.862682 -11.629933 -1.3209256 4 3201561990600 1 0
24.55015 -12.519723 -1.4442631 4 3201561992904 1 0
0 0 0 1 3201561992904 1 0
29.235186 -11.473334 -1.2795112 4 3201561995208 1 0
30.963388 -17.758026 -1.2464705 6 3201561997512 1 0
55.33343 -28.227253 5.0709596 57 3201561995208 1 0
0 0 0 9 3201561997512 1 0
38.865818 -19.83945 7.956085 26 3201561999816 1 0
41.049778 -18.485113 -1.0475857 7 3201561999816 1 0
0 0 0 8 3201562020552 1 0
48.847286 -19.251307 -0.91646075 9 3201562020552 1 0
0 0 0 1 3201562022856 1 0
7.2925344 -3.7357943 -1.638756 2 3201562025160 1 0
38.200027 -19.562666 -1.2490312 9 3201562022856 1 0
56.124084 -25.370483 0 13 3201562025160 1 0
9.331112 -4.2195325 -1.5932313 4 3201562027464 1 0
11.182955 -5.7324624 -1.5995659 3 3201562029768 1 0
44.887554 -25.84538 -0.6030081 7 3201562027464 1 0
0 0 0 84 3201562029768 1 0
41.81441 -21.441278 -0.27311346 24 3201562032072 1 0
12.768465 -5.7779317 -1.50964 3 3201562032072 1 0
14.289223 -8.23493 -1.5395255 3 3201562034376 1 0
75.58226 -34.21408 1.9305614 28 3201562034376 1 0
45.71952 -26.356295 0.6143698 27 3201562036680 1 0
18.778095 -8.503307 -1.4414477 5 3201562036680 1 0
16.19125 -8.310457 -1.4857153 3 3201562038984 1 0
0 0 0 224 3201562038984 1 0
41.811752 -21.46757 0.82040274 26 3201562041288 1 0
20.327286 -8.03891 -1.400926 5 3201562041288 1 0
21.205687 -12.235707 -1.4258014 6 3201562043592 1 0
55.409767 -25.117496 3.5429919 56 3201562043592 1 0
42.421288 -21.794561 1.9430399 10 3201562045896 1 0
24.492933 -12.587658 -1.4432163 4 3201562048200 1 0
0 0 0 1 3201562048200 1 0
25.847853 -11.721026 -1.3220422 4 3201562045896 1 0
55.368576 -28.464746 5.0823503 28 3201562050504 1 0
29.202713 -11.566594 -1.279674 4 3201562050504 1 0
30.91437 -17.859213 -1.2467496 6 3201562052808 1 0
38.820793 -19.970453 7.9596725 17 3201562055112 1 0
0 0 0 9 3201562052808 1 0
40.9915 -18.613983 -1.0475857 7 3201562055112 1 0
0 0 0 8 3201562076296 1 0
48.813873 -19.455013 -0.9172287 9 3201562076296 1 0
38.120792 -19.707918 -1.2489148 9 3201562078600 1 0
0 0 0 1 3201562078600 1 0
7.2815104 -3.7657816 -1.6395406 2 3201562080904 1 0
56.08373 -25.614014 0 13 3201562080904 1 0
45.39208 -26.371115 -0.6111569 7 3201562083208 1 0
11.153478 -5.7723613 -1.5985557 3 3201562085512 1 0
9.307466 -4.2524514 -1.5920014 4 3201562083208 1 0
41.811905 -21.647007 -0.27364814 24 3201562087816 1 0
12.742146 -5.8261895 -1.5092117 3 3201562087816 1 0
0 0 0 117 3201562085512 1 0
14.2774315 -8.302993 -1.5417562 3 3201562090120 1 0
45.390556 -26.405563 0.61134315 36 3201562092424 1 0
75.5855 -34.573837 1.9340975 28 3201562090120 1 0
16.158245 -8.374446 -1.4857153 3 3201562094728 1 0
18.773462 -8.590538 -1.4436799 5 3201562092424 1 0
50.760437 -20.299301 1.5910195 218 3201562094728 1 0
41.814945 -21.67944 0.82214797 26 3201562097032 1 0
20.302618 -8.122523 -1.4014376 5 3201562097032 1 0
21.167109 -12.326147 -1.426499 6 3201562099336 1 0
55.39636 -25.378029 3.5485733 56 3201562099336 1 0
51.529213 -26.734934 2.365093 25 3201562101640 1 0
25.771706 -11.810999 -1.3205533 4 3201562101640 1 0
24.47057 -12.700598 -1.4448911 4 3201562103944 1 0
0 0 0 1 3201562103944 1 0
29.141037 -11.678205 -1.2790228 4 3201562106248 1 0
41.988518 -21.800432 3.8622088 15 3201562106248 1 0
0 0 0 9 3201562108552 1 0
40.61809 -21.10391 8.3456745 18 3201562110856 1 0
30.831547 -17.978024 -1.2463309 6 3201562108552 1 0
40.951973 -18.79685 -1.0485163 7 3201562110856 1 0
0 0 0 8 3201562131592 1 0
48.927456 -19.698475 -0.92064935 9 3201562131592 1 0
38.08722 -19.85935 -1.2500784 9 3201562133896 1 0
0 0 0 1 3201562133896 1 0
7.2752767 -3.7948039 -1.6411095 2 3201562136200 1 0
56.13202 -25.873255 0 13 3201562136200 1 0
42.90792 -25.12865 -0.57888776 12 3201562138504 1 0
11.133261 -5.811259 -1.5985557 3 3201562140808 1 0
0 0 0 3 3201562140808 1 0
9.292565 -4.2849145 -1.5920014 5 3201562138504 1 0
41.85664 -21.855774 -0.27443856 25 3201562143112 1 0
12.728952 -5.873965 -1.5100684 4 3201562143112 1 0
14.255233 -8.356808 -1.5424998 3 3201562145416 1 0
75.62774 -34.91289 1.9382849 28 3201562145416 1 0
45.363663 -26.602287 0.61222786 36 3201562147720 1 0
18.732492 -8.650998 -1.442843 5 3201562147720 1 0
16.143047 -8.438186 -1.4870172 3 3201562150024 1 0
50.79678 -20.519794 1.594394 214 3201562150024 1 0
20.285246 -8.19783 -1.4022051 5 3201562152328 1 0
41.827618 -21.8716 0.8238932 26 3201562152328 1 0
21.106735 -12.389852 -1.4253362 6 3201562154632 1 0
55.3763 -25.603085 3.5529919 56 3201562154632 1 0
51.492233 -26.944288 2.3676982 25 3201562156936 1 0
25.76296 -11.915983 -1.3222284 4 3201562156936 1 0
24.429626 -12.787791 -1.4451004 4 3201562159240 1 0
0 0 0 1 3201562159240 1 0
29.107504 -11.782854 -1.2793484 4 3201562161544 1 0
30.803066 -18.105793 -1.2477268 6 3201562163848 1 0
0 0 0 9 3201562163848 1 0
40.589493 -21.26931 8.355001 18 3201562166152 1 0
42.420746 -22.21318 3.9090748 15 3201562161544 1 0
40.878857 -18.936323 -1.0483302 7 3201562166152 1 0
0 0 0 8 3201562186888 1 0
48.725025 -19.814907 -0.9181362 9 3201562186888 1 0
37.989647 -19.976738 -1.2491475 9 3201562189192 1 0
0 0 0 1 3201562189192 1 0
7.2655683 -3.821791 -1.641894 2 3201562191496 1 0
56.06751 -26.079214 0 13 3201562191496 1 0
42.36294 -25.005993 -0.5726947 6 3201562193800 1 0
9.2777405 -4.3169208 -1.5920014 4 3201562193800 1 0
11.116759 -5.8512874 -1.5990608 3 3201562196104 1 0
0 0 0 1 3201562196104 1 0
41.873714 -22.04716 -0.275043 25 3201562198408 1 0
12.701591 -5.91408 -1.5092117 3 3201562198408 1 0
14.226709 -8.405275 -1.5424998 3 3201562200712 1 0
75.56648 -35.197094 1.9397737 28 3201562200712 1 0
45.307686 -26.776215 0.6126935 27 3201562203016 1 0
18.713919 -8.719486 -1.4436799 5 3201562203016 1 0
16.110956 -8.49075 -1.4866916 3 3201562205320 1 0
0 0 0 6 3201562205320 1 0
41.845882 -22.060497 0.82570827 26 3201562207624 1 0
20.272371 -8.27197 -1.4032284 5 3201562207624 1 0
55.37358 -25.827007 3.5583405 56 3201562209928 1 0
51.501186 -27.167856 2.3722575 25 3201562212232 1 0
21.102978 -12.482752 -1.4278944 3 3201562209928 1 0
25.72313 -12.001725 -1.3222284 4 3201562212232 1 0
24.394152 -12.872461 -1.4455191 4 3201562214536 1 0
0 0 0 1 3201562214536 1 0
45.4921 -24.013174 4.1993833 18 3201562216840 1 0
29.10544 -11.89401 -1.2809767 4 3201562216840 1 0
30.733068 -18.200834 -1.247308 6 3201562219144 1 0
0 0 0 9 3201562219144 1 0
40.832832 -21.567432 8.419575 9 3201562221448 1 0
40.816666 -19.069998 -1.0483302 7 3201562221448 1 0
0 0 0 8 3201562242184 1 0
48.584835 -19.935999 -0.9166702 18 3201562242184 1 0
37.954525 -20.111792 -1.2500784 9 3201562244488 1 0
0 0 0 1 3201562244488 1 0
7.246427 -3.84124 -1.6403251 1 3201562246792 1 0
56.132637 -26.327309 0 13 3201562246792 1 0
42.07282 -25.017027 -0.5698543 6 3201562249096 1 0
9.26027 -4.344974 -1.5913866 4 3201562249096 1 0
11.101314 -5.889011 -1.5995659 3 3201562251400 1 0
58.538506 -24.062117 0.36784765 19 3201562251400 1 0
49.67743 -26.362543 -0.32686204 10 3201562253704 1 0
12.682299 -5.9553375 -1.5092117 3 3201562253704 1 0
75.59567 -35.51221 1.9434958 57 3201562256008 1 0
14.202549 -8.453825 -1.5428715 3 3201562256008 1 0
44.940865 -26.759577 0.60892177 18 3201562258312 1 0
18.692316 -8.784482 -1.4442381 5 3201562258312 1 0
16.093273 -8.549741 -1.487668 3 3201562260616 1 0
0 0 0 6 3201562260616 1 0
49.58396 -26.351772 0.98012716 25 3201562262920 1 0
20.25941 -8.345674 -1.4042517 5 3201562262920 1 0
21.071209 -12.559715 -1.428592 3 3201562265224 1 0
55.369602 -26.052006 3.5636895 56 3201562265224 1 0
51.479595 -27.379389 2.375514 25 3201562267528 1 0
25.689629 -12.092044 -1.3226006 4 3201562267528 1 0
24.3502 -12.955409 -1.4455191 4 3201562269832 1 0
0 0 0 1 3201562269832 1 0
45.620743 -24.28124 4.2189107 19 3201562272136 1 0
29.05714 -11.990582 -1.2806511 4 3201562272136 1 0
30.683876 -18.31486 -1.2478664 6 3201562274440 1 0
40.493645 -19.082926 11.99471 9 3201562274440 1 0
40.556328 -21.60165 8.377961 18 3201562276744 1 0
38.424473 -18.114986 -0.9884974 6 3201562276744 1 0
0 0 0 8 3201562297480 1 0
48.238052 -20.000586 -0.91150427 18 3201562297480 1 0
38.028797 -20.32966 -1.2549657 9 3201562299784 1 0
0 0 0 1 3201562299784 1 0
7.242732 -3.8732173 -1.6426784 2 3201562302088 1 0
0 0 0 105 3201562302088 1 0
41.758415 -25.03646 -0.5668276 6 3201562304392 1 0
9.24795 -4.3803754 -1.5920014 4 3201562304392 1 0
11.086824 -5.9330816 -1.600576 3 3201562306696 1 0
58.439545 -24.270206 0.36777788 19 3201562306696 1 0
44.20365 -23.663727 -0.29140934 9 3201562309000 1 0
12.667791 -6.004727 -1.5100684 4 3201562309000 1 0
14.175255 -8.507254 -1.5432433 3 3201562311304 1 0
42.508556 -25.519844 0.57721144 8 3201562313608 1 0
18.674864 -8.858825 -1.4453541 5 3201562313608 1 0
0 0 0 176 3201562311304 1 0
16.072872 -8.613383 -1.4886444 3 3201562315912 1 0
77.1478 -32.09247 2.431736 41 3201562315912 1 0
49.587475 -26.583 0.98208183 37 3201562318216 1 0
20.247665 -8.426216 -1.4055309 5 3201562318216 1 0
21.012262 -12.627105 -1.4276618 3 3201562320520 1 0
55.362225 -26.291864 3.5692708 56 3201562320520 1 0
45.513607 -24.416115 2.1042407 13 3201562322824 1 0
24.31777 -13.050005 -1.4463565 4 3201562325128 1 0
0 0 0 1 3201562325128 1 0
25.64611 -12.184069 -1.3226006 4 3201562322824 1 0
51.255764 -27.515743 4.7490816 26 3201562327432 1 0
29.003075 -12.089645 -1.2801626 4 3201562327432 1 0
40.418407 -19.22378 11.99264 9 3201562329736 1 0
30.614994 -18.42202 -1.2477268 6 3201562329736 1 0
38.17565 -18.163889 -0.98375165 6 3201562332040 1 0
40.850178 -21.944998 8.454731 18 3201562332040 1 0
0 0 0 8 3201562352776 1 0
47.961357 -20.082344 -0.9075949 9 3201562352776 1 0
37.908478 -20.435444 -1.2533365 9 3201562355080 1 0
0 0 0 1 3201562355080 1 0
7.2292247 -3.8983705 -1.6426784 1 3201562357384 1 0
0 0 0 179 3201562357384 1 0
41.4043 -25.019812 -0.5631956 6 3201562359688 1 0
9.232699 -4.412429 -1.5920014 5 3201562359688 1 0
11.052252 -5.9638867 -1.5985557 3 3201562361992 1 0
55.371025 -23.220892 0.34897053 14 3201562361992 1 0
49.59857 -26.77265 -0.32758272 10 3201562364296 1 0
12.646975 -6.0484495 -1.5100684 5 3201562364296 1 0
14.15607 -8.562249 -1.5443586 3 3201562366600 1 0
0 0 0 230 3201562366600 1 0
44.268467 -26.783981 0.6023562 8 3201562368904 1 0
18.65868 -8.9299 -1.4464703 5 3201562368904 1 0
16.050226 -8.672292 -1.4892954 3 3201562371208 1 0
76.58376 -32.16664 2.4174235 41 3201562371208 1 0
49.566498 -26.790724 0.983478 63 3201562373512 1 0
20.226046 -8.498612 -1.4060426 5 3201562373512 1 0
20.992891 -12.713329 -1.4292897 6 3201562375816 1 0
55.351265 -26.518892 3.574387 56 3201562375816 1 0
45.46522 -24.590218 2.105869 13 3201562378120 1 0
25.626024 -12.28183 -1.3237174 4 3201562378120 1 0
24.259161 -13.125089 -1.4455191 4 3201562380424 1 0
0 0 0 1 3201562380424 1 0
51.393433 -27.814896 4.7705617 26 3201562382728 1 0
28.976585 -12.194275 -1.2808139 4 3201562382728 1 0
30.535297 -18.5153 -1.2470288 6 3201562385032 1 0
17.215528 -8.259693 5.116335 1 3201562385032 1 0
40.339745 -21.84689 8.364328 18 3201562387336 1 0
37.75349 -18.119846 -0.9744464 6 3201562387336 1 0
0 0 0 8 3201562408072 1 0
47.691883 -20.15565 -0.9037554 9 3201562408072 1 0
37.861435 -20.572771 -1.2540348 9 3201562410376 1 0
0 0 0 1 3201562410376 1 0
7.2196465 -3.9243002 -1.6434629 2 3201562412680 1 0
0 0 0 69 3201562412680 1 0
41.105328 -25.026836 -0.560262 6 3201562414984 1 0
9.217919 -4.4432225 -1.5920014 5 3201562414984 1 0
11.035726 -6.0027213 -1.5990608 3 3201562417288 1 0
55.418274 -23.459003 0.34976098 44 3201562417288 1 0
49.65962 -27.020985 -0.32858235 10 3201562419592 1 0
12.626626 -6.090814 -1.5100684 4 3201562419592 1 0
14.127222 -8.609762 -1.5443586 3 3201562421896 1 0
43.36944 -20.928267 1.120539 220 3201562421896 1 0
44.734695 -27.272251 0.6099462 9 3201562424200 1 0
18.617725 -8.98747 -1.4456332 5 3201562424200 1 0
16.034876 -8.734029 -1.4905971 3 3201562426504 1 0
75.80115 -32.139256 2.3961291 84 3201562426504 1 0
49.56693 -27.007936 0.98529303 37 3201562428808 1 0
20.211891 -8.5731945 -1.4070659 5 3201562428808 1 0
20.946278 -12.782317 -1.4290571 6 3201562431112 1 0
55.350964 -26.749756 3.580201 56 3201562431112 1 0
51.230892 -27.933924 2.3773053 25 3201562433416 1 0
25.580568 -12.367048 -1.3235313 4 3201562433416 1 0
24.228378 -13.215227 -1.4463565 4 3201562435720 1 0
0 0 0 1 3201562435720 1 0
51.34026 -28.012934 4.7744675 27 3201562438024 1 0
30.505947 -18.640404 -1.2484248 6 3201562440328 1 0
28.931147 -12.291471 -1.2806511 4 3201562438024 1 0
40.1956 -21.947216 8.349979 18 3201562442632 1 0
0 0 0 9 3201562440328 1 0
37.38887 -18.10267 -0.96663 6 3201562442632 1 0
0 0 0 8 3201562463368 1 0
37.68069 -20.645248 -1.2504275 9 3201562465672 1 0
47.44099 -20.245085 -0.9003347 18 3201562463368 1 0
0 0 0 1 3201562465672 1 0
7.2024646 -3.9475923 -1.6426784 1 3201562467976 1 0
37.269245 -18.118414 0 73 3201562467976 1 1
40.891582 -25.092766 -0.55853915 6 3201562470280 1 0
9.205908 -4.4771004 -1.5926164 5 3201562470280 1 0
11.018184 -6.0431147 -1.5995659 3 3201562472584 1 0
55.5457 -23.741917 0.35108608 30 3201562472584 1 0
45.237614 -24.819918 -0.29989475 19 3201562474888 1 0
12.605288 -6.134852 -1.5100684 4 3201562474888 1 0
14.10387 -8.663192 -1.5451022 3 3201562477192 1 0
43.32848 -21.09528 1.1213764 85 3201562477192 1 0
44.025818 -27.051332 0.6015646 8 3201562479496 1 0
18.604177 -9.061139 -1.4470283 5 3201562479496 1 0
16.014774 -8.795706 -1.4915736 3 3201562481800 1 0
75.70688 -32.411522 2.3967109 42 3201562481800 1 0
45.441376 -24.966118 0.905012 21 3201562484104 1 0
20.901531 -12.855356 -1.4290571 6 3201562486408 1 0
20.196518 -8.649981 -1.4080892 5 3201562484104 1 0
55.343395 -26.984806 3.5857823 56 3201562486408 1 0
45.42088 -24.97206 2.1117308 14 3201562488712 1 0
25.540836 -12.458017 -1.3237174 4 3201562488712 1 0
24.196102 -13.307419 -1.4471939 4 3201562491016 1 0
0 0 0 1 3201562491016 1 0
45.440308 -24.999958 4.233882 19 3201562493320 1 0
28.913776 -12.403414 -1.2817909 4 3201562493320 1 0
30.447502 -18.750967 -1.248704 6 3201562495624 1 0
0 0 0 9 3201562495624 1 0
39.967068 -22.003885 8.31841 18 3201562497928 1 0
37.11705 -18.131271 -0.96123296 6 3201562497928 1 0
0 0 0 8 3201562518664 1 0
47.219444 -20.345676 -0.89747256 9 3201562518664 1 0
37.755234 -20.858131 -1.2553147 9 3201562520968 1 0
0 0 0 1 3201562520968 1 0
7.1851506 -3.970917 -1.641894 2 3201562523272 1 0
37.24501 -18.268314 0 79 3201562523272 1 1
40.92565 -25.311983 -0.5602155 6 3201562525576 1 0
9.186578 -4.507667 -1.5920014 5 3201562525576 1 0
10.996845 -6.0818586 -1.5995659 3 3201562527880 1 0
55.78864 -24.078344 0.35315514 31 3201562527880 1 0
45.146294 -24.97738 -0.2998715 9 3201562530184 1 0
12.594281 -6.1845317 -1.5113535 5 3201562530184 1 0
14.0697775 -8.710888 -1.5447304 3 3201562532488 1 0
0 0 0 3 3201562532488 1 0
43.96714 -27.23025 0.6020768 8 3201562534792 1 0
18.582714 -9.13225 -1.4478654 5 3201562534792 1 0
16.004385 -8.864074 -1.4935262 3 3201562537096 1 0
55.839336 -24.140701 1.7704499 33 3201562537096 1 0
49.574787 -27.46703 0.9892722 38 3201562539400 1 0
20.172958 -8.724916 -1.4086008 5 3201562539400 1 0
20.879349 -12.944483 -1.430685 3 3201562541704 1 0
55.325714 -27.220627 3.5908985 28 3201562541704 1 0
45.327927 -25.132145 2.111568 14 3201562544008 1 0
25.506945 -12.554429 -1.3242757 4 3201562544008 1 0
24.169292 -13.405531 -1.44845 4 3201562546312 1 0
0 0 0 1 3201562546312 1 0
45.24929 -25.106617 4.2244434 19 3201562548616 1 0
28.876457 -12.510173 -1.2821165 4 3201562548616 1 0
30.458057 -18.908724 -1.2519147 6 3201562550920 1 0
0 0 0 9 3201562550920 1 0
39.9048 -22.157166 8.321998 27 3201562553224 1 0
37.08741 -18.282446 -0.96216345 6 3201562553224 1 0
0 0 0 8 3201562573960 1 0
47.063877 -20.483494 -0.8959367 18 3201562573960 1 0
37.591366 -20.947441 -1.2524056 9 3201562576264 1 0
0 0 0 1 3201562576264 1 0
7.1774583 -4.0009403 -1.6434629 2 3201562578568 1 0
0 0 0 3 3201562578568 1 0
40.690613 -25.372038 -0.5582598 24 3201562580872 1 0
9.170094 -4.541107 -1.5920014 5 3201562580872 1 0
10.978124 -6.123737 -1.600071 3 3201562583176 1 0
0 0 0 5 3201562583176 1 0
44.740993 -24.965628 -0.2977792 19 3201562585480 1 0
12.575319 -6.2319593 -1.5117819 4 3201562585480 1 0
14.044895 -8.766003 -1.5454739 3 3201562587784 1 0
0 0 0 1 3201562587784 1 0
43.35952 -27.071243 0.5950922 25 3201562590088 1 0
18.56031 -9.204672 -1.4487025 5 3201562590088 1 0
15.975788 -8.923688 -1.4938518 3 3201562592392 1 0
55.784878 -24.356356 1.7714971 33 3201562592392 1 0
49.531452 -27.676521 0.99038917 25 3201562594696 1 0
20.170685 -8.81026 -1.4106475 5 3201562594696 1 0
20.822552 -13.013059 -1.4299873 6 3201562597000 1 0
50.874744 -25.258131 3.3078778 24 3201562597000 1 0
45.37009 -25.368612 2.1177557 14 3201562599304 1 0
25.554813 -12.692006 -1.329115 4 3201562599304 1 0
24.142092 -13.50362 -1.449706 4 3201562601608 1 0
0 0 0 1 3201562601608 1 0
45.082813 -25.225199 4.2172832 19 3201562603912 1 0
28.816957 -12.606793 -1.2814652 4 3201562603912 1 0
30.393875 -19.019257 -1.2520543 6 3201562606216 1 0
41.474457 -20.621191 12.410891 10 3201562606216 1 0
39.767387 -22.266249 8.309801 18 3201562608520 1 0
40.30188 -20.045496 -1.0473996 7 3201562608520 1 0
0 0 0 8 3201562629256 1 0
46.838306 -20.580082 -0.8930047 18 3201562629256 1 0
37.49013 -21.062864 -1.2514747 9 3201562631560 1 0
0 0 0 1 3201562631560 1 0
7.163449 -4.02597 -1.6434629 2 3201562633864 1 0
42.764206 -21.355627 0 8 3201562633864 1 0
40.388447 -25.379848 -0.5553262 5 3201562636168 1 0
9.15065 -4.571323 -1.5913866 6 3201562636168 1 0
10.953222 -6.160075 -1.5995659 3 3201562638472 1 0
55.696167 -24.510769 0.35366657 15 3201562638472 1 0
44.44092 -25.002014 -0.2963611 19 3201562640776 1 0
12.546374 -6.2722607 -1.5109252 4 3201562640776 1 0
14.027696 -8.823458 -1.5469611 3 3201562643080 1 0
51.5243 -25.767714 1.3405151 11 3201562643080 1 0
43.41033 -27.314024 0.5970944 26 3201562645384 1 0
18.542341 -9.276545 -1.4498185 5 3201562645384 1 0
15.958436 -8.987225 -1.4951535 3 3201562647688 1 0
83.073654 -36.616756 2.6421187 36 3201562647688 1 0
51.256935 -28.875904 1.0268996 27 3201562649992 1 0
20.161724 -8.890278 -1.4121825 5 3201562649992 1 0
20.777 -13.085664 -1.4299873 6 3201562652296 1 0
43.131195 -21.601631 2.8092775 31 3201562652296 1 0
45.45882 -25.626926 2.1260598 14 3201562654600 1 0
25.438908 -12.745336 -1.3253925 4 3201562654600 1 0
24.160917 -13.625091 -1.4536835 4 3201562656904 1 0
43.159935 -21.631731 5.927725 23 3201562656904 1 0
0 0 0 8 3201562659208 1 0
28.7874 -12.713765 -1.2821165 4 3201562659208 1 0
41.39186 -20.760643 12.407785 20 3201562661512 1 0
30.340824 -19.133764 -1.2526127 6 3201562661512 1 0
39.374153 -22.226955 8.243793 27 3201562663816 1 0
40.31387 -20.2273 -1.0495398 7 3201562663816 1 0
0 0 0 8 3201562684552 1 0
46.623604 -20.68021 -0.89028215 8 3201562684552 1 0
37.364197 -21.164043 -1.2497294 18 3201562686856 1 0
0 0 0 1 3201562686856 1 0
7.145939 -4.049017 -1.6426784 1 3201562689160 1 0
0 0 0 11 3201562689160 1 0
40.09348 -25.39014 -0.5524858 5 3201562691464 1 0
9.141697 -4.6067944 -1.5926164 6 3201562691464 1 0
10.928202 -6.196315 -1.5990608 3 3201562693768 1 0
56.085476 -24.916147 0.35668877 16 3201562693768 1 0
44.127228 -25.028719 -0.29485 28 3201562696072 1 0
12.531506 -6.319599 -1.5117819 4 3201562696072 1 0
14.003538 -8.876634 -1.5477046 3 3201562698376 1 0
42.629627 -21.505766 1.1110476 23 3201562698376 1 0
18.527658 -9.350202 -1.4512137 3 3201562700680 1 0
43.324856 -27.471813 0.59723413 35 3201562700680 1 0
15.930434 -9.044844 -1.495479 3 3201562702984 1 0
75.734276 -33.697956 2.4124198 41 3201562702984 1 0
20.141508 -8.965471 -1.4129499 3 3201562705288 1 0
51.246243 -29.106003 1.0287147 13 3201562705288 1 0
20.734568 -13.160249 -1.4302199 3 3201562707592 1 0
49.809685 -25.16432 3.2499714 23 3201562707592 1 0
25.390697 -12.832253 -1.3252064 4 3201562709896 1 0
24.116682 -13.711319 -1.4538928 4 3201562712200 1 0
45.410786 -25.809149 2.1280138 14 3201562709896 1 0
43.155025 -21.818083 5.9374743 11 3201562712200 1 0
0 0 0 8 3201562714504 1 0
28.808552 -12.843468 -1.2850474 4 3201562714504 1 0
30.300842 -19.25671 -1.2537295 6 3201562716808 1 0
41.301903 -20.896278 12.402609 10 3201562716808 1 0
39.169785 -22.292244 8.217246 9 3201562719112 1 0
40.200203 -20.34623 -1.0484232 7 3201562719112 1 0
0 0 0 8 3201562739296 1 0
46.3065 -20.7139 -0.88546526 17 3201562739296 1 0
37.224594 -21.23971 -1.2472857 18 3201562741600 1 0
0 0 0 1 3201562741600 1 0
7.143403 -4.0772796 -1.6450318 2 3201562743904 1 0
41.901165 -21.273 0 24 3201562743904 1 0
39.834778 -25.401995 -0.5500179 5 3201562746208 1 0
10.922463 -6.2384877 -1.6010811 3 3201562748512 1 0
56.025177 -25.100399 0.356805 16 3201562748512 1 0
43.76359 -25.004509 -0.2929437 19 3201562750816 1 0
9.123655 -4.633701 -1.5920014 6 3201562746208 1 0
12.515136 -6.3607388 -1.5122104 4 3201562750816 1 0
13.989011 -8.929154 -1.5491917 3 3201562753120 1 0
43.24508 -27.612091 0.59732723 8 3201562755424 1 0
41.89883 -21.302485 1.0937397 23 3201562753120 1 0
18.515976 -9.417406 -1.4526088 3 3201562755424 1 0
15.922705 -9.106722 -1.4974318 3 3201562757728 1 0
75.690056 -33.963543 2.414398 83 3201562757728 1 0
45.902325 -26.261917 0.92309266 33 3201562760032 1 0
20.131453 -9.036877 -1.4142292 3 3201562760032 1 0
20.699852 -13.229625 -1.430685 3 3201562762336 1 0
49.42791 -25.16667 3.230204 23 3201562762336 1 0
45.3607 -25.969555 2.1294792 15 3201562764640 1 0
25.360939 -12.917398 -1.3257648 4 3201562764640 1 0
24.094284 -13.798927 -1.4551489 4 3201562766944 1 0
0 0 0 1 3201562766944 1 0
51.16945 -29.314903 4.814173 27 3201562769248 1 0
28.815449 -12.955214 -1.2871642 4 3201562769248 1 0
30.257032 -19.362583 -1.2544276 6 3201562771552 1 0
0 0 0 9 3201562771552 1 0
39.427296 -22.603075 8.286124 18 3201562773856 1 0
40.86279 -20.843094 -1.0674059 16 3201562773856 1 0
0 0 0 8 3201562794592 1 0
46.048016 -20.791477 -0.881905 26 3201562794592 1 0
37.132896 -21.35955 -1.246704 18 3201562796896 1 0
0 0 0 1 3201562796896 1 0
7.125727 -4.1002336 -1.6442474 2 3201562799200 1 0
41.783928 -21.397255 0 24 3201562799200 1 0
38.971947 -25.043564 -0.53930813 5 3201562801504 1 0
9.107425 -4.66552 -1.5920014 6 3201562801504 1 0
10.8937435 -6.2726164 -1.600071 3 3201562803808 1 0
56.257942 -25.440847 0.3588508 17 3201562803808 1 0
43.45768 -25.031345 -0.29147908 19 3201562806112 1 0
12.496395 -6.4062004 -1.5126387 5 3201562806112 1 0
41.760166 -21.415764 1.0920649 23 3201562808416 1 0
13.997952 -9.003785 -1.553653 3 3201562808416 1 0
18.49364 -9.487446 -1.4534459 5 3201562810720 1 0
44.352604 -28.537676 0.6139973 18 3201562810720 1 0
15.897727 -9.166229 -1.4980826 3 3201562813024 1 0
75.71673 -34.29353 2.4190524 83 3201562813024 1 0
45.502037 -26.244148 0.91687965 43 3201562815328 1 0
20.114328 -9.113684 -1.4152524 3 3201562815328 1 0
20.680403 -13.3190975 -1.4325454 3 3201562817632 1 0
42.384594 -21.76714 2.7748592 45 3201562817632 1 0
45.27669 -26.131731 2.1298048 15 3201562819936 1 0
25.393885 -13.046015 -1.3298595 4 3201562819936 1 0
24.052889 -13.886942 -1.4555676 4 3201562822240 1 0
0 0 0 1 3201562822240 1 0
51.160023 -29.547174 4.8229604 27 3201562824544 1 0
28.777328 -13.059023 -1.2874899 4 3201562824544 1 0
29.211618 -18.837633 -1.2138045 5 3201562826848 1 0
39.467403 -22.809483 8.311235 18 3201562829152 1 0
40.19691 -20.67319 12.111696 28 3201562826848 1 0
40.48042 -20.826443 -1.0593103 16 3201562829152 1 0
0 0 0 8 3201562849888 1 0
45.66946 -20.81277 -0.876041 17 3201562849888 1 0
37.040817 -21.47901 -1.2461221 18 3201562852192 1 0
0 0 0 1 3201562852192 1 0
7.1113715 -4.125082 -1.6442474 2 3201562854496 1 0
39.18309 -25.372936 -0.5434523 11 3201562856800 1 0
41.794277 -21.587034 0 24 3201562854496 1 0
9.091084 -4.697283 -1.5920014 6 3201562856800 1 0
10.878645 -6.3145885 -1.6010811 3 3201562859104 1 0
56.15788 -25.632086 0.35878107 16 3201562859104 1 0
43.08985 -25.020197 -0.28959602 18 3201562861408 1 0
12.481023 -6.453435 -1.5134954 4 3201562861408 1 0
13.966438 -9.052592 -1.553653 3 3201562863712 1 0
41.756195 -21.598146 1.093926 23 3201562863712 1 0
44.178886 -28.64445 0.61297286 9 3201562866016 1 0
18.474586 -9.559278 -1.454562 3 3201562866016 1 0
15.872528 -9.225674 -1.4987336 4 3201562868320 1 0
75.7311 -34.619125 2.423358 83 3201562868320 1 0
45.434353 -26.416891 0.9173683 96 3201562870624 1 0
20.096914 -9.190481 -1.4162757 5 3201562870624 1 0
20.620386 -13.382509 -1.4316152 3 3201562872928 1 0
48.446114 -25.094204 3.1774137 22 3201562872928 1 0
44.9952 -26.179071 2.1208494 14 3201562875232 1 0
25.355286 -13.138253 -1.3302318 4 3201562875232 1 0
24.038792 -13.9909115 -1.457661 4 3201562877536 1 0
0 0 0 1 3201562877536 1 0
51.19783 -29.807817 4.836304 27 3201562879840 1 0
28.757006 -13.171044 -1.2886297 4 3201562879840 1 0
29.105461 -18.913347 -1.2121294 5 3201562882144 1 0
40.107353 -20.804482 12.10652 19 3201562882144 1 0
38.07168 -22.180489 8.033572 17 3201562884448 1 0
40.325836 -20.925257 -1.0571702 16 3201562884448 1 0
0 0 0 8 3201562905184 1 0
45.066044 -20.728064 -0.8658488 25 3201562905184 1 0
36.92749 -21.586248 -1.2448422 18 3201562907488 1 0
0 0 0 1 3201562907488 1 0
7.0934825 -4.1480036 -1.6434629 2 3201562909792 1 0
41.82123 -21.786993 0 33 3201562909792 1 0
28.981144 -18.911495 -0.40287462 7 3201562912096 1 1
10.849503 -6.348831 -1.600071 4 3201562914400 1 0
9.071024 -4.7273593 -1.5913866 6 3201562912096 1 0
56.060047 -25.826242 0.35873455 16 3201562914400 1 0
42.773506 -25.038652 -0.28806168 9 3201562916704 1 0
12.458184 -6.4974155 -1.5134954 3 3201562916704 1 0
13.941025 -9.106254 -1.5543966 3 3201562919008 1 0
41.771782 -21.793684 1.0963453 23 3201562919008 1 0
38.743305 -25.315502 0.5387959 7 3201562921312 1 0
18.45123 -9.630185 -1.455399 5 3201562921312 1 0
15.853446 -9.290007 -1.5000354 4 3201562923616 1 0
45.41948 -26.624813 0.9189739 65 3201562925920 1 0
75.67312 -34.91782 2.4254525 83 3201562923616 1 0
20.082226 -9.270254 -1.4175549 3 3201562925920 1 0
20.572569 -13.455902 -1.4316152 6 3201562928224 1 0
48.236053 -25.203802 3.1695068 22 3201562928224 1 0
44.52913 -26.121166 2.1032639 13 3201562930528 1 0
25.325918 -13.237959 -1.3311623 4 3201562930528 1 0
24.002361 -14.084917 -1.4584985 4 3201562932832 1 0
0 0 0 1 3201562932832 1 0
46.672634 -27.39773 4.418091 22 3201562935136 1 0
28.720484 -13.279091 -1.2891182 4 3201562935136 1 0
30.167654 -19.758083 -1.2593135 6 3201562937440 1 0
37.66925 -22.128044 7.9654126 26 3201562939744 1 0
40.083736 -20.983116 -1.0527967 15 3201562939744 1 0
0 0 0 8 3201562960480 1 0
40.022087 -20.943058 12.103414 9 3201562937440 1 0
44.89546 -20.849302 -0.86403376 25 3201562960480 1 0
36.79317 -21.688696 -1.2429804 18 3201562962784 1 0
0 0 0 1 3201562962784 1 0
7.081671 -4.1758637 -1.6442474 2 3201562965088 1 0
41.844097 -21.99349 0 25 3201562965088 1 0
28.878633 -18.99498 -0.40240896 7 3201562967392 1 1
9.064235 -4.7658954 -1.5932313 7 3201562967392 1 0
10.83318 -6.392272 -1.6010811 5 3201562969696 1 0
56.118095 -26.100758 0.35971096 17 3201562969696 1 0
42.554913 -25.118477 -0.28720152 9 3201562972000 1 0
12.452122 -6.551841 -1.5156374 4 3201562972000 1 0
13.917934 -9.163252 -1.555512 3 3201562974304 1 0
41.7952 -21.998835 1.0990438 23 3201562974304 1 0
38.477856 -25.34097 0.53637457 7 3201562976608 1 0
18.430426 -9.7042465 -1.4565152 3 3201562976608 1 0
15.836996 -9.35727 -1.5016627 4 3201562978912 1 0
75.68078 -35.25301 2.4297578 82 3201562978912 1 0
42.42436 -25.074707 0.8601942 9 3201562981216 1 0
20.055962 -9.345858 -1.4180666 3 3201562981216 1 0
47.806072 -25.198175 3.1471815 21 3201562983520 1 0
20.534098 -13.536315 -1.432313 3 3201562983520 1 0
45.240166 -26.756735 2.1413658 15 3201562985824 1 0
25.281828 -13.330536 -1.3313485 4 3201562985824 1 0
24.030884 -14.217486 -1.4633133 4 3201562988128 1 0
41.45124 -21.864006 5.754183 32 3201562988128 1 0
46.361794 -27.438314 4.3979125 21 3201562990432 1 0
28.716345 -13.40184 -1.2910721 4 3201562990432 1 0
30.123747 -19.883074 -1.2604302 6 3201562992736 1 0
0 0 0 9 3201562992736 1 0
37.529377 -22.225765 7.952498 26 3201562995040 1 0
39.849735 -21.041502 -1.0486093 15 3201562995040 1 0
0 0 0 8 3201563015776 1 0
44.72825 -20.961763 -0.8622187 8 3201563015776 1 0
36.644897 -21.774372 -1.2405367 18 3201563018080 1 0
0 0 0 1 3201563018080 1 0
7.070362 -4.202665 -1.6450318 2 3201563020384 1 0
41.83743 -22.177496 0 16 3201563020384 1 0
28.658375 -18.99465 -0.400267 14 3201563022688 1 1
10.831076 -6.4425335 -1.6041116 3 3201563024992 1 0
9.040455 -4.794 -1.5920014 6 3201563022688 1 0
56.036743 -26.303217 0.3597807 17 3201563024992 1 0
42.33887 -25.192734 -0.28634137 9 3201563027296 1 0
12.425423 -6.5938544 -1.5152091 4 3201563027296 1 0
13.882143 -9.210183 -1.5551401 3 3201563029600 1 0
41.777237 -22.17829 1.1006256 15 3201563029600 1 0
38.217907 -25.364283 0.53399974 7 3201563031904 1 0
18.42061 -9.782559 -1.4584683 3 3201563031904 1 0
15.813964 -9.419535 -1.502639 4 3201563034208 1 0
0 0 0 251 3201563034208 1 0
42.0635 -25.063684 0.8546792 9 3201563036512 1 0
20.029825 -9.420517 -1.4185783 3 3201563036512 1 0
20.482407 -13.60719 -1.4320804 3 3201563038816 1 0
45.377766 -27.057287 2.1524382 16 3201563041120 1 0
55.60694 -29.563622 3.667642 28 3201563038816 1 0
25.24818 -13.428228 -1.332093 4 3201563041120 1 0
23.966139 -14.295192 -1.462476 4 3201563043424 1 0
41.404293 -22.02896 5.75857 10 3201563043424 1 0
45.94473 -27.414375 4.367645 21 3201563045728 1 0
28.740425 -13.538772 -1.2943287 4 3201563045728 1 0
30.05878 -19.995592 -1.2607094 6 3201563048032 1 0
0 0 0 9 3201563048032 1 0
37.92214 -22.643152 8.052944 17 3201563050336 1 0
39.614906 -21.100218 -1.0444219 15 3201563050336 1 0
0 0 0 8 3201563071072 1 0
36.558464 -21.903627 -1.240304 18 3201563073376 1 0
37.970264 -17.96468 -0.7332105 14 3201563071072 1 0
0 0 0 1 3201563073376 1 0
7.0584598 -4.2302594 -1.6458163 2 3201563075680 1 0
49.608734 -26.527554 0 11 3201563075680 1 0
0 0 0 12 3201563077984 1 0
10.804553 -6.479204 -1.6036065 3 3201563080288 1 0
9.023139 -4.8265123 -1.5920014 6 3201563077984 1 0
0 0 0 142 3201563080288 1 0
41.85112 -25.104456 -0.28364465 9 3201563082592 1 0
12.39839 -6.636122 -1.5147806 3 3201563082592 1 0
13.849504 -9.259189 -1.5551401 3 3201563084896 1 0
49.51796 -26.512363 1.3070163 10 3201563084896 1 0
37.849297 -25.311598 0.53008837 7 3201563087200 1 0
15.798078 -9.484939 -1.5042664 4 3201563089504 1 0
18.396688 -9.852852 -1.4593054 3 3201563087200 1 0
0 0 0 232 3201563089504 1 0
41.774017 -25.08796 0.8505605 9 3201563091808 1 0
20.015059 -9.498498 -1.4198574 3 3201563091808 1 0
51.453854 -27.583534 3.39997 26 3201563094112 1 0
45.308804 -27.226967 2.153578 16 3201563096416 1 0
25.223166 -13.52596 -1.3332098 4 3201563096416 1 0
23.865993 -14.345805 -1.4593358 4 3201563098720 1 0
0 0 0 5 3201563098720 1 0
45.52376 -27.372364 4.336401 20 3201563101024 1 0
28.687258 -13.632451 -1.294003 4 3201563101024 1 0
20.432062 -13.675491 -1.4318478 6 3201563094112 1 0
0 0 0 9 3201563103328 1 0
29.9549 -20.071991 -1.2591739 6 3201563103328 1 0
37.846348 -22.769608 8.052944 17 3201563105632 1 0
0 0 0 8 3201563126368 1 0
39.523117 -21.220982 -1.0438637 15 3201563105632 1 0
37.86671 -18.061495 -0.73230296 21 3201563126368 1 0
36.451336 -21.996443 -1.239024 18 3201563128672 1 0
0 0 0 1 3201563128672 1 0
7.038234 -4.248667 -1.6442474 2 3201563130976 1 0
0 0 0 11 3201563130976 1 0
28.206497 -18.972742 -0.39575025 56 3201563133280 1 1
9.007614 -4.8554254 -1.5920014 6 3201563133280 1 0
10.790369 -6.51816 -1.6046166 4 3201563135584 1 0
43.44788 -20.756165 0.27985528 108 3201563135584 1 0
41.58785 -25.130726 -0.2824125 8 3201563137888 1 0
12.387253 -6.6820545 -1.5160658 3 3201563137888 1 0
13.832345 -9.313359 -1.5566273 3 3201563140192 1 0
49.557625 -26.742634 1.3103662 21 3201563140192 1 0
37.56998 -25.30432 0.52734107 7 3201563142496 1 0
18.371153 -9.917194 -1.4598634 3 3201563142496 1 0
15.783594 -9.547592 -1.5058937 4 3201563144800 1 0
43.417545 -20.774258 1.4007674 223 3201563144800 1 0
41.474476 -25.096815 0.8461625 9 3201563147104 1 0
20.03365 -9.589382 -1.423439 3 3201563147104 1 0
51.37143 -27.761946 3.4006677 26 3201563149408 1 0
20.465466 -13.797635 -1.4374292 6 3201563149408 1 0
45.353226 -27.462831 2.1600912 16 3201563151712 1 0
23.87853 -14.4642 -1.463104 4 3201563154016 1 0
25.187826 -13.616877 -1.3337681 4 3201563151712 1 0
42.014687 -22.721994 5.8648405 11 3201563154016 1 0
45.42633 -27.526066 4.3360753 62 3201563156320 1 0
28.618773 -13.7202635 -1.2930261 4 3201563156320 1 0
28.2521 -19.07243 -1.1903521 5 3201563158624 1 0
0 0 0 9 3201563158624 1 0
39.436104 -23.91276 8.4088125 9 3201563160928 1 0
39.280468 -21.266565 -1.0393971 15 3201563160928 1 0
0 0 0 8 3201563181664 1 0
37.454327 -18.033602 -0.72560126 7 3201563181664 1 1
36.350136 -22.117163 -1.2383258 18 3201563183968 1 0
0 0 0 1 3201563183968 1 0
7.022677 -4.2743325 -1.6442474 2 3201563186272 1 0
49.563297 -26.94055 0 11 3201563186272 1 0
28.249746 -19.151693 -0.39733344 3 3201563188576 1 1
8.989864 -4.888211 -1.5920014 6 3201563188576 1 0
10.763208 -6.555288 -1.6041116 4 3201563190880 1 0
0 0 0 3 3201563190880 1 0
41.226524 -25.117067 -0.28057593 8 3201563193184 1 0
12.36991 -6.730763 -1.5169226 3 3201563193184 1 0
13.798525 -9.363393 -1.5566273 3 3201563195488 1 0
0 0 0 12 3201563195488 1 0
37.326046 -25.336609 0.5251991 6 3201563197792 1 0
18.342197 -9.987344 -1.4604216 3 3201563197792 1 0
15.762668 -9.612764 -1.5071955 4 3201563200096 1 0
43.381935 -20.949856 1.4020474 104 3201563200096 1 0
41.124382 -25.087656 0.84085697 9 3201563202400 1 0
20.002594 -9.663173 -1.4236948 3 3201563202400 1 0
20.419067 -13.873311 -1.4376618 3 3201563204704 1 0
51.44317 -28.039963 3.412063 26 3201563204704 1 0
45.62972 -27.85432 2.1780024 17 3201563207008 1 0
25.254612 -13.770215 -1.3399103 4 3201563207008 1 0
0 0 0 4 3201566001552 1 0
36.65968 -26.517685 -0.7897563 7 3201566001552 1 0
0 0 0 9 3201566003856 1 0
0 0 0 1 3201566003856 1 0
6.1987505 -5.4835486 -1.6552299 3 3201566006160 1 0
31.71817 -25.408016 0 5 3201566006160 1 0
0 0 0 28 3201566008464 1 0
8.05645 -6.455588 -1.6061444 5 3201566008464 1 0
40.906 -29.625515 0.29354814 11 3201566010768 1 0
9.582226 -8.481613 -1.6288601 21 3201566010768 1 0
19.253374 -17.046932 -0.14945917 3 3201566013072 1 1
11.263261 -9.030569 -1.5550492 20 3201566013072 1 0
9.241903 -9.028248 -1.2060423 15 3201566015376 1 0
38.177265 -30.61859 1.1387773 40 3201566015376 1 0
28.658566 -28.00418 0.46648148 26 3201566017680 1 0
16.829002 -13.50107 -1.508693 4 3201566017680 1 0
0 0 0 217 3201566019984 1 0
56.528954 -40.99035 2.0321484 26 3201566019984 1 0
29.25483 -25.932592 0.6823891 41 3201566022288 1 0
18.57019 -13.469763 -1.470256 4 3201566022288 1 0
16.946354 -16.573864 -1.3804529 5 3201566024592 1 0
32.752796 -26.29943 2.4462574 21 3201566024592 1 0
32.54642 -28.867296 1.772395 18 3201566026896 1 0
19.9654 -16.036345 -1.1928719 17 3201566026896 1 0
0 0 0 8 3201566029200 1 0
44.89274 -36.068897 7.0708594 50 3201566029200 1 0
29.997046 -26.621702 3.2741065 19 3201566031504 1 0
16.84653 -16.495422 -0.82334894 3 3201566033808 1 1
26.378628 -19.15699 -1.3281971 5 3201566031504 1 0
0 0 0 9 3201566033808 1 0
29.998306 -26.638426 7.314662 16 3201566036112 1 0
0 0 0 1 3201566036112 1 0
0 0 0 4 3201566057296 1 0
36.548912 -26.622625 -0.7892676 7 3201566057296 1 0
0 0 0 9 3201566059600 1 0
0 0 0 1 3201566059600 1 0
6.186311 -5.5093813 -1.6567988 4 3201566061904 1 0
31.77659 -25.629032 0 5 3201566061904 1 0
9.300754 -9.138629 -0.15179972 1 3201566064208 1 0
8.034857 -6.482444 -1.6061444 6 3201566064208 1 0
9.544912 -8.505701 -1.6273448 19 3201566066512 1 0
40.8099 -29.764545 0.29357138 11 3201566066512 1 0
18.300358 -16.312904 -0.14248487 2 3201566068816 1 1
11.239112 -9.073275 -1.5559059 18 3201566068816 1 0
9.183123 -9.031322 -1.2023245 11 3201566071120 1 0
37.993286 -30.68136 1.1363579 8 3201566071120 1 0
28.62114 -28.156616 0.46741277 21 3201566073424 1 0
16.780346 -13.555149 -1.508414 4 3201566073424 1 0
10.310651 -9.199375 -1.1280371 197 3201566075728 1 0
56.22887 -41.062958 2.0263302 26 3201566075728 1 0
29.21471 -26.07398 0.6835061 41 3201566078032 1 0
18.53743 -13.541901 -1.4712793 4 3201566078032 1 0
18.033928 -17.757502 -1.4739405 3 3201566080336 1 0
32.523746 -26.29729 2.4357924 21 3201566080336 1 0
9.890962 -8.833062 0.54026705 11 3201566082640 1 0
19.851797 -16.056314 -1.1893355 10 3201566082640 1 0
18.237309 -16.291723 -1.2816029 3 3201566084944 1 0
44.89627 -36.32386 7.090846 51 3201566084944 1 0
30.063631 -26.864649 3.2913556 19 3201566087248 1 0
26.33249 -19.261003 -1.3291742 5 3201566087248 1 0
16.790052 -16.552906 -0.82334894 3 3201566089552 1 1
0 0 0 9 3201566089552 1 0
30.030096 -26.851183 7.344796 16 3201566091856 1 0
0 0 0 1 3201566091856 1 0
0 0 0 4 3201566112592 1 0
36.654205 -26.905499 -0.79366565 7 3201566112592 1 0
0 0 0 9 3201566114896 1 0
0 0 0 1 3201566114896 1 0
6.1691566 -5.534458 -1.6575834 4 3201566117200 1 0
31.245474 -25.388737 0 5 3201566117200 1 0
0 0 0 13 3201566119504 1 0
8.011328 -6.5115 -1.6061444 5 3201566119504 1 0
9.520076 -8.545375 -1.628355 16 3201566121808 1 0
40.24136 -29.572834 0.29024696 10 3201566121808 1 0
0 0 0 85 3201566124112 1 0
10.910238 -8.872704 -1.5147806 72 3201566124112 1 0
44.47841 -36.182083 1.3341876 11 3201566126416 1 0
9.234114 -9.149221 0.15133408 2 3201566128720 1 0
9.145092 -9.058515 -1.2015809 8 3201566126416 1 0
16.744316 -13.624932 -1.5095301 4 3201566128720 1 0
0 0 0 19 3201566131024 1 0
56.324333 -41.439957 2.0350573 26 3201566131024 1 0
29.17294 -26.22252 0.6846928 48 3201566133328 1 0
18.479807 -13.600234 -1.4705118 4 3201566133328 1 0
9.303231 -9.225349 -0.7630165 3 3201566135632 1 0
32.282364 -26.290565 2.4246297 21 3201566135632 1 0
9.88074 -8.886385 0.5414068 7 3201566137936 1 0
