# .PCD v.7 - Point Cloud Data file format
VERSION .7
FIELDS x y z rgb timestamp_ns device_id active
SIZE 4 4 4 4 8 1 1
TYPE F F F F F U U
COUNT 1 1 1 1 1 1 1
WIDTH 1035
HEIGHT 1
VIEWPOINT 0 0 0 1 0 0 0
POINTS 1035               
DATA ascii
46.514263 -27.333426 6.62433 19 3207263564128 1 0
45.22063 -29.646063 4.4141855 43 3207263566432 1 0
23.043896 -12.071821 -1.0598547 6 3207263566432 1 1
29.625647 -21.569092 -1.2796948 6 3207263568736 1 0
0 0 0 9 3207263568736 1 0
0 0 0 29 3207263571040 1 0
21.098003 -12.41032 -0.5695747 2 3207263571040 1 1
0 0 0 8 3207263591776 1 0
23.146336 -12.172719 -0.45648515 3 3207263591776 1 1
19.775913 -13.01424 -0.6889802 3 3207263594080 1 1
0 0 0 1 3207263594080 1 0
6.8766894 -4.5268826 -1.6466007 2 3207263596384 1 0
21.42139 -12.646717 0 2 3207263596384 1 1
36.53687 -26.706688 -0.52687544 5 3207263598688 1 0
8.817875 -5.2076087 -1.5932313 6 3207263598688 1 0
10.5540695 -6.952081 -1.6086571 3 3207263600992 1 0
41.853775 -22.042105 0.27492675 28 3207263600992 1 0
20.868567 -13.750706 -0.14525135 2 3207263603296 1 1
12.168234 -7.191019 -1.5224917 3 3207263603296 1 0
13.532117 -9.900386 -1.5651782 3 3207263605600 1 0
45.05402 -26.634262 1.2178719 18 3207263605600 1 0
40.869026 -29.90978 0.5895976 8 3207263607904 1 0
18.121162 -10.716114 -1.4721407 5 3207263607904 1 0
15.545387 -10.25289 -1.5202138 4 3207263610208 1 0
51.553154 -27.188562 1.6962109 18 3207263610208 1 0
45.244064 -29.849962 0.94612986 34 3207263612512 1 0
19.771317 -10.430848 -1.4326489 5 3207263612512 1 0
20.072672 -14.703532 -1.449057 6 3207263614816 1 0
45.094776 -26.693771 3.0518334 19 3207263614816 1 0
39.447857 -26.042364 1.92578 10 3207263617120 1 0
20.94843 -12.404499 -1.1340566 9 3207263617120 1 0
20.033007 -13.22941 -1.2581564 7 3207263619424 1 0
46.38441 -27.475391 6.6194553 19 3207263619424 1 0
45.176746 -29.843287 4.4200435 44 3207263621728 1 0
22.810791 -12.051369 -1.051062 3 3207263621728 1 1
29.550175 -21.672373 -1.2796948 6 3207263624032 1 0
0 0 0 9 3207263624032 1 0
0 0 0 29 3207263626336 1 0
20.923845 -12.406389 -0.5660387 2 3207263626336 1 1
0 0 0 8 3207263647072 1 0
22.806913 -12.096033 -0.45062113 3 3207263647072 1 1
0 0 0 100 3207263649376 1 0
0 0 0 1 3207263649376 1 0
6.8608456 -4.5508595 -1.6466007 2 3207263651680 1 0
21.359926 -12.711186 0 2 3207263651680 1 1
0 0 0 14 3207263653984 1 0
8.806436 -5.2424006 -1.5944611 7 3207263653984 1 0
10.542962 -6.997657 -1.6106775 3 3207263656288 1 0
49.597763 -26.341997 0.32639706 26 3207263656288 1 0
37.94532 -25.193312 -0.26472104 7 3207263658592 1 0
13.5103 -9.957013 -1.5666652 3 3207263660896 1 0
12.149892 -7.237521 -1.5233485 3 3207263658592 1 0
45.153152 -26.906 1.2230829 9 3207263660896 1 0
40.188095 -29.627415 0.5812626 25 3207263663200 1 0
18.087072 -10.781346 -1.4724196 5 3207263663200 1 0
15.5194645 -10.31371 -1.5211902 4 3207263665504 1 0
51.532066 -27.407778 1.6986544 18 3207263665504 1 0
45.246174 -30.078564 0.9483638 23 3207263667808 1 0
19.787645 -10.527924 -1.4364864 5 3207263667808 1 0
44.72013 -26.683237 3.032764 38 3207263670112 1 0
20.050142 -14.7948475 -1.45115 6 3207263670112 1 0
39.17036 -26.055943 1.9166616 10 3207263672416 1 0
20.1031 -13.376707 -1.2654834 7 3207263674720 1 0
0 0 0 1 3207263674720 1 0
45.191776 -30.080326 4.4317603 44 3207263677024 1 0
22.64513 -12.065144 -1.045363 3 3207263677024 1 1
20.874123 -12.459117 -1.1323814 9 3207263672416 1 1
29.493637 -21.789642 -1.2805324 6 3207263679328 1 0
0 0 0 9 3207263679328 1 0
0 0 0 29 3207263681632 1 0
20.822058 -12.444476 -0.5644568 2 3207263681632 1 1
0 0 0 8 3207263702368 1 0
22.718706 -12.15105 -0.44971362 3 3207263702368 1 1
19.874073 -13.278595 -0.69561285 28 3207263704672 1 1
0 0 0 1 3207263704672 1 0
6.8481793 -4.5769596 -1.6473852 2 3207263706976 1 0
21.305136 -12.779496 0 2 3207263706976 1 1
0 0 0 84 3207263709280 1 0
8.788083 -5.273109 -1.5944611 39 3207263709280 1 0
49.6395 -26.58673 0.3272805 26 3207263711584 1 0
37.674294 -25.203289 -0.26344243 7 3207263713888 1 0
12.121144 -7.2778406 -1.52292 3 3207263713888 1 0
10.515173 -7.03221 -1.6101724 3 3207263711584 1 0
45.761715 -27.485544 1.2421587 9 3207263716192 1 0
13.481856 -10.00886 -1.5674088 3 3207263716192 1 0
40.129387 -29.800901 0.5819145 25 3207263718496 1 0
18.063011 -10.852636 -1.4735358 5 3207263718496 1 0
15.496619 -10.376694 -1.522492 4 3207263720800 1 0
51.53474 -27.640406 1.7019126 18 3207263720800 1 0
45.24391 -30.305315 0.95052785 35 3207263723104 1 0
19.75781 -10.600706 -1.436998 5 3207263723104 1 0
19.995173 -14.862364 -1.4509174 6 3207263725408 1 0
44.397438 -26.701288 3.0171826 38 3207263725408 1 0
39.10241 -26.208092 1.9178014 10 3207263727712 1 0
20.652468 -12.424795 -1.122703 6 3207263727712 1 1
20.208904 -13.549124 -1.2751132 7 3207263730016 1 0
45.034897 -27.102505 6.453713 17 3207263730016 1 0
45.225563 -30.331156 4.4454293 44 3207263732320 1 0
29.436638 -21.906782 -1.2813699 13 3207263734624 1 0
0 0 0 9 3207263734624 1 0
0 0 0 29 3207263736928 1 0
22.5219 -12.10061 -1.0416179 3 3207263732320 1 1
20.644901 -12.436606 -0.5608278 2 3207263736928 1 1
0 0 0 8 3207263757664 1 0
22.56351 -12.169525 -0.4474797 3 3207263757664 1 1
19.877352 -13.38138 -0.6973583 24 3207263759968 1 1
0 0 0 1 3207263759968 1 0
6.8354144 -4.6030273 -1.6481698 2 3207263762272 1 0
21.250128 -12.847579 0 5 3207263762272 1 1
32.586422 -24.346727 -0.47355926 31 3207263764576 1 0
8.756095 -5.2955713 -1.5920014 73 3207263764576 1 0
10.500434 -7.075524 -1.6116877 3 3207263766880 1 0
49.57455 -26.775047 0.32746646 13 3207263766880 1 0
37.330696 -25.162497 -0.26165235 7 3207263769184 1 0
12.092264 -7.318048 -1.5224917 3 3207263769184 1 0
13.491489 -10.0892515 -1.5726136 3 3207263771488 1 0
0 0 0 5 3207263771488 1 0
38.529423 -28.821941 0.5601689 7 3207263773792 1 0
18.03867 -10.92389 -1.4746518 5 3207263773792 1 0
15.466913 -10.435183 -1.5231429 4 3207263776096 1 0
51.515316 -27.861973 1.7044725 18 3207263776096 1 0
42.333313 -28.570307 0.89146894 20 3207263778400 1 0
19.727709 -10.6734085 -1.4375097 3 3207263778400 1 0
19.94317 -14.932069 -1.4509174 6 3207263780704 1 0
43.9898 -26.66566 2.9957874 55 3207263780704 1 0
38.84508 -26.232586 1.90966 10 3207263783008 1 0
20.41967 -13.793992 -1.291442 10 3207263785312 1 0
20.496223 -12.428442 -1.1165608 6 3207263783008 1 1
45.065613 -27.335724 6.47175 17 3207263785312 1 0
45.165657 -30.520088 4.449986 44 3207263787616 1 0
22.356533 -12.112516 -1.0359188 3 3207263787616 1 1
29.407969 -22.045368 -1.2834638 13 3207263789920 1 0
0 0 0 29 3207263792224 1 0
20.502237 -12.448407 -0.55812925 2 3207263792224 1 1
0 0 0 8 3207263812960 1 0
0 0 0 9 3207263789920 1 0
19.90001 -13.497816 -0.69980186 28 3207263815264 1 1
0 0 0 1 3207263815264 1 0
22.440084 -12.204265 -0.44587407 3 3207263812960 1 1
6.8160596 -4.624657 -1.6473852 2 3207263817568 1 0
21.211985 -12.92584 0 5 3207263817568 1 1
32.392582 -24.378551 -0.47197607 26 3207263819872 1 0
8.730806 -5.321989 -1.5907717 81 3207263819872 1 0
10.478955 -7.114363 -1.6121926 3 3207263822176 1 0
49.529964 -26.974716 0.32779193 26 3207263822176 1 0
37.275723 -25.315123 -0.26188484 7 3207263824480 1 0
13.456189 -10.136284 -1.5726136 2 3207263826784 1 0
12.066646 -7.3602133 -1.5224917 4 3207263824480 1 0
45.278557 -27.627304 1.2342491 19 3207263826784 1 0
38.284832 -28.847944 0.5580735 23 3207263829088 1 0
18.014053 -10.995106 -1.475768 5 3207263829088 1 0
15.446878 -10.500316 -1.5247703 4 3207263831392 1 0
51.36158 -28.010996 1.7026107 9 3207263831392 1 0
42.329235 -28.783121 0.8934934 20 3207263833696 1 0
19.700844 -10.747941 -1.4382771 3 3207263833696 1 0
19.890926 -15.001593 -1.4509174 6 3207263836000 1 0
43.695404 -26.69622 2.9820666 55 3207263836000 1 0
38.58806 -26.255608 1.9015185 10 3207263838304 1 0
20.391346 -12.462405 -1.1132106 6 3207263838304 1 1
20.589342 -14.013525 -1.3052588 3 3207263840608 1 0
0 0 0 1 3207263840608 1 0
45.197258 -30.771793 4.463655 45 3207263842912 1 0
22.180834 -12.117668 -1.0297314 3 3207263842912 1 1
0 0 0 10 3207263845216 1 0
0 0 0 9 3207263845216 1 0
20.407495 -12.488587 -0.5567335 2 3207263847520 1 1
0 0 0 8 3207263868256 1 0
0 0 0 29 3207263847520 1 0
22.348253 -12.255598 -0.44489676 3 3207263868256 1 1
0 0 0 9 3207263870560 1 0
0 0 0 1 3207263870560 1 0
21.173552 -13.003992 0 5 3207263872864 1 1
32.154293 -24.375492 -0.469741 4 3207263875168 1 0
8.712176 -5.352433 -1.5907717 102 3207263875168 1 0
6.806351 -4.6528487 -1.6489542 2 3207263872864 1 0
10.463882 -7.157619 -1.6137079 3 3207263877472 1 0
45.396515 -24.92944 0.30101064 23 3207263877472 1 0
37.27956 -25.508331 -0.26253575 15 3207263879776 1 0
12.047656 -7.4064546 -1.5233485 3 3207263879776 1 0
13.427071 -10.188008 -1.5733572 3 3207263882080 1 0
45.75752 -28.139206 1.2499751 19 3207263882080 1 0
32.818718 -24.90926 0.4796592 5 3207263884384 1 0
17.989157 -11.066282 -1.476884 5 3207263884384 1 0
15.410131 -10.554171 -1.5247703 4 3207263886688 1 0
45.37057 -24.949558 1.5068897 24 3207263886688 1 0
39.222786 -26.871489 0.8298968 27 3207263888992 1 0
19.677197 -10.82434 -1.4393004 3 3207263888992 1 0
19.85116 -15.080596 -1.4518477 6 3207263891296 1 0
43.285725 -26.65386 2.960439 36 3207263891296 1 0
38.37091 -26.304272 1.895331 10 3207263893600 1 0
20.266071 -12.483215 -1.1087437 3 3207263893600 1 1
23.123074 -15.856422 -1.4693843 4 3207263895904 1 0
0 0 0 1 3207263895904 1 0
45.234222 -31.0286 4.4779754 45 3207263898208 1 0
22.068386 -12.156452 -1.0264748 3 3207263898208 1 1
0 0 0 10 3207263900512 1 0
0 0 0 9 3207263900512 1 0
0 0 0 29 3207263902816 1 0
20.316126 -12.530357 -0.5554307 2 3207263902816 1 1
0 0 0 8 3207263923552 1 0
22.091839 -12.215481 -0.44063836 3 3207263923552 1 1
19.950193 -13.736181 -0.70492184 3 3207263925856 1 1
0 0 0 1 3207263925856 1 0
6.7836075 -4.672129 -1.6473852 2 3207263928160 1 0
21.145037 -13.088348 0 5 3207263928160 1 1
32.04994 -24.473019 -0.4694616 8 3207263930464 1 0
8.7068815 -5.3911343 -1.5932313 66 3207263930464 1 0
10.4323 -7.1895976 -1.6126977 3 3207263932768 1 0
45.074764 -24.957933 0.29945305 11 3207263932768 1 0
37.256157 -25.683712 -0.26300073 7 3207263935072 1 0
12.02511 -7.450558 -1.5237768 3 3207263935072 1 0
13.39459 -10.237234 -1.5737289 3 3207263937376 1 0
45.315716 -28.085985 1.2405767 9 3207263937376 1 0
17.967377 -11.139522 -1.4782792 5 3207263939680 1 0
32.569515 -24.899775 0.4772844 5 3207263939680 1 0
15.386322 -10.616955 -1.526072 4 3207263941984 1 0
51.231216 -28.40572 1.7048217 9 3207263941984 1 0
38.954304 -26.887827 0.8261969 26 3207263944288 1 0
19.660238 -10.904577 -1.4408355 3 3207263944288 1 0
19.795227 -15.147371 -1.4516151 6 3207263946592 1 0
42.988842 -26.678455 2.9464855 53 3207263946592 1 0
38.13087 -26.335842 1.8880037 10 3207263948896 1 0
20.100163 -12.478014 -1.1020432 3 3207263948896 1 1
23.12674 -15.97791 -1.4731525 4 3207263951200 1 0
0 0 0 1 3207263951200 1 0
45.161716 -31.21124 4.481555 45 3207263953504 1 0
21.882566 -12.153848 -1.0197988 3 3207263953504 1 1
21.18191 -16.228014 -0.9318166 3 3207263955808 1 1
0 0 0 9 3207263955808 1 0
0 0 0 29 3207263958112 1 0
20.170376 -12.537865 -0.5526392 2 3207263958112 1 1
0 0 0 8 3207263979296 1 0
21.965227 -12.245782 -0.43896294 3 3207263979296 1 1
19.990826 -13.867268 -0.7080636 3 3207263981600 1 1
0 0 0 1 3207263981600 1 0
6.7737026 -4.700252 -1.6489542 2 3207263983904 1 0
21.109402 -13.168429 0 5 3207263983904 1 1
0 0 0 42 3207263986208 1 0
0 0 0 24 3207263986208 1 0
10.416918 -7.2327585 -1.614213 3 3207263988512 1 0
44.491432 -24.838253 0.29615188 11 3207263988512 1 0
37.297688 -25.904873 -0.26393062 7 3207263990816 1 0
11.98891 -7.486169 -1.5224917 4 3207263990816 1 0
13.368241 -10.291216 -1.5748442 3 3207263993120 1 0
42.86699 -26.775867 1.1760913 8 3207263993120 1 0
32.412685 -24.959625 0.47626 5 3207263995424 1 0
17.925 -11.200057 -1.4780002 5 3207263995424 1 0
15.355715 -10.67515 -1.526723 4 3207263997728 1 0
51.243427 -28.64681 1.7085452 19 3207263997728 1 0
38.65663 -26.88207 0.8218687 26 3207264000032 1 0
19.65341 -10.990673 -1.4431379 5 3207264000032 1 0
19.735907 -15.211501 -1.45115 6 3207264002336 1 0
42.58398 -26.633545 2.9250903 51 3207264002336 1 0
37.83203 -26.324968 1.8777454 9 3207264004640 1 0
20.005672 -12.516312 -1.0992513 3 3207264004640 1 1
23.116726 -16.090488 -1.4760833 4 3207264006944 1 0
0 0 0 1 3207264006944 1 0
21.773752 -12.193055 -1.016705 6 3207264009248 1 1
45.186634 -31.462095 4.494899 46 3207264009248 1 0
0 0 0 9 3207264011552 1 0
20.992212 -16.19928 -0.92595345 3 3207264011552 1 1
20.082432 -12.580598 -0.55142945 2 3207264013856 1 1
0 0 0 29 3207264013856 1 0
0 0 0 8 3207264034592 1 0
21.789865 -12.247913 -0.43631017 2 3207264034592 1 1
20.007845 -13.982772 -0.71039087 3 3207264036896 1 1
0 0 0 1 3207264036896 1 0
21.185217 -13.318677 0 5 3207264039200 1 1
6.760469 -4.726115 -1.6497387 2 3207264039200 1 0
31.701237 -24.558998 -0.466854 61 3207264041504 1 0
8.689107 -5.4644127 -1.5969207 8 3207264041504 1 0
10.391607 -7.2690763 -1.614213 3 3207264043808 1 0
44.143032 -24.846258 0.2944083 11 3207264043808 1 0
38.09518 -26.656372 -0.27023074 8 3207264046112 1 0
11.959339 -7.5258546 -1.5220633 3 3207264046112 1 0
13.32909 -10.335376 -1.5744725 3 3207264048416 1 0
42.50591 -26.75704 1.1687402 8 3207264048416 1 0
32.290596 -25.045649 0.4757478 5 3207264050720 1 0
17.916183 -11.281695 -1.4805114 3 3207264050720 1 0
15.33142 -10.737835 -1.5280248 4 3207264053024 1 0
51.19537 -28.854956 1.7102907 19 3207264053024 1 0
38.369305 -26.88145 0.81775 26 3207264055328 1 0
19.618404 -11.06117 -1.4433937 5 3207264055328 1 0
19.685843 -15.282749 -1.4513825 6 3207264057632 1 0
42.291443 -26.6564 2.9113696 51 3207264057632 1 0
37.57955 -26.34445 1.8697668 9 3207264059936 1 0
19.928062 -12.564757 -1.09739 3 3207264059936 1 1
23.030983 -16.150442 -1.4741992 4 3207264062240 1 0
0 0 0 1 3207264062240 1 0
45.128757 -31.656265 4.5001063 46 3207264064544 1 0
21.616207 -12.204143 -1.0113317 3 3207264064544 1 1
20.89135 -16.238111 -0.9239991 3 3207264066848 1 1
0 0 0 29 3207264069152 1 0
0 0 0 9 3207264066848 1 0
19.997818 -12.625005 -0.5503128 2 3207264069152 1 1
0 0 0 8 3207264089888 1 0
21.691307 -12.29235 -0.4351932 2 3207264089888 1 1
34.199867 -24.079195 -1.2172643 8 3207264092192 1 0
0 0 0 1 3207264092192 1 0
6.737517 -4.745168 -1.6481698 2 3207264094496 1 0
21.182524 -13.420376 0 6 3207264094496 1 1
0 0 0 56 3207264096800 1 0
10.3759 -7.312163 -1.6157281 3 3207264099104 1 0
8.676657 -5.498942 -1.5981506 46 3207264096800 1 0
43.79512 -24.852137 0.29266474 11 3207264099104 1 0
37.73382 -26.600204 -0.26832443 7 3207264101408 1 0
11.943071 -7.573944 -1.5233485 4 3207264101408 1 0
42.20627 -26.77458 1.163064 8 3207264103712 1 0
13.308625 -10.394097 -1.5763314 3 3207264103712 1 0
32.054832 -25.042479 0.47355926 5 3207264106016 1 0
17.890171 -11.352717 -1.4816275 5 3207264106016 1 0
15.316648 -10.807375 -1.530303 4 3207264108320 1 0
51.146477 -29.063116 1.7120361 9 3207264108320 1 0
19.597025 -11.139447 -1.444673 5 3207264110624 1 0
38.088993 -26.883764 0.81377083 26 3207264110624 1 0
19.632376 -15.351372 -1.4513825 6 3207264112928 1 0
41.90488 -26.617592 2.8911371 49 3207264112928 1 0
37.30128 -26.344046 1.8604856 9 3207264115232 1 0
19.816631 -12.591386 -1.0936675 2 3207264115232 1 1
22.987518 -16.239956 -1.4750366 4 3207264117536 1 0
0 0 0 1 3207264117536 1 0
45.15147 -31.907934 4.51345 46 3207264119840 1 0
21.451906 -12.210326 -1.0056326 2 3207264119840 1 1
20.74326 -16.239473 -0.9199507 3 3207264122144 1 1
0 0 0 9 3207264122144 1 0
0 0 0 29 3207264124448 1 0
0 0 0 8 3207264145184 1 0
0 0 0 99 3207264124448 1 0
21.5302 -12.300537 -0.4328197 2 3207264145184 1 1
0 0 0 1 3207264147488 1 0
34.092777 -24.182236 -1.2164497 8 3207264147488 1 0
6.720912 -4.768657 -1.6481698 2 3207264149792 1 0
21.263662 -13.576032 0 9 3207264149792 1 1
31.620209 -24.851389 -0.46820438 8 3207264152096 1 0
8.627429 -5.5100484 -1.5926164 69 3207264152096 1 0
10.3632555 -7.3575253 -1.6177485 2 3207264154400 1 0
45.79473 -26.198593 0.30663657 11 3207264154400 1 0
37.31462 -26.500154 -0.26599967 7 3207264156704 1 0
11.919911 -7.6177287 -1.5237768 4 3207264156704 1 0
13.2785225 -10.445415 -1.577075 3 3207264159008 1 0
41.917133 -26.796818 1.1576669 8 3207264159008 1 0
31.901215 -25.102278 0.47258142 5 3207264161312 1 0
17.86724 -11.425845 -1.4830227 5 3207264161312 1 0
45.781696 -26.2265 1.5355147 16 3207264163616 1 0
37.864544 -26.923851 0.8109784 26 3207264165920 1 0
15.275579 -10.858464 -1.5299776 4 3207264163616 1 0
19.571875 -11.215724 -1.4456962 5 3207264165920 1 0
19.597492 -15.434632 -1.4527779 6 3207264168224 1 0
41.47539 -26.548424 2.8678815 32 3207264168224 1 0
37.02673 -26.344337 1.8513671 9 3207264170528 1 0
19.769194 -12.658327 -1.0934814 2 3207264170528 1 1
22.927435 -16.317781 -1.4748273 4 3207264172832 1 0
45.172974 -32.16015 4.526794 47 3207264175136 1 0
0 0 0 1 3207264172832 1 0
21.346756 -12.249328 -1.0027018 2 3207264175136 1 1
20.651917 -16.284555 -0.9184151 3 3207264177440 1 1
0 0 0 9 3207264177440 1 0
19.878895 -12.744883 -0.5494754 53 3207264179744 1 1
0 0 0 29 3207264179744 1 0
0 0 0 8 3207264200480 1 0
21.428213 -12.341683 -0.4316329 2 3207264200480 1 1
33.985386 -24.284822 -1.2156352 17 3207264202784 1 0
0 0 0 1 3207264202784 1 0
6.7042255 -4.7920885 -1.6481698 2 3207264205088 1 0
21.236328 -13.663158 0 3 3207264205088 1 1
31.690073 -25.08574 -0.4705326 4 3207264207392 1 0
8.601496 -5.5358524 -1.5913866 71 3207264207392 1 0
10.334282 -7.3913465 -1.6172434 3 3207264209696 1 0
45.567867 -26.28035 0.3057299 11 3207264209696 1 0
37.046223 -26.504564 -0.26474428 7 3207264212000 1 0
11.886561 -7.654984 -1.52292 4 3207264212000 1 0
13.248224 -10.496649 -1.5778185 3 3207264214304 1 0
41.5544 -26.76972 1.1502227 8 3207264214304 1 0
31.904303 -25.285526 0.4739318 5 3207264216608 1 0
17.833958 -11.492467 -1.4835807 3 3207264216608 1 0
15.25379 -10.923326 -1.5316049 4 3207264218912 1 0
45.8249 -26.46413 1.5400529 8 3207264218912 1 0
37.786587 -27.067505 0.81132746 17 3207264221216 1 0
19.542976 -11.289965 -1.4464637 5 3207264221216 1 0
19.559137 -15.515355 -1.4539406 6 3207264223520 1 0
41.1677 -26.554508 2.852998 32 3207264223520 1 0
36.713654 -26.315098 1.8402947 9 3207264225824 1 0
19.778606 -12.761919 -1.0964594 3 3207264225824 1 1
22.87358 -16.400042 -1.4750366 4 3207264228128 1 0
0 0 0 1 3207264228128 1 0
45.115513 -32.357136 4.5323267 47 3207264230432 1 0
21.162025 -12.241715 -0.99602574 2 3207264230432 1 1
20.497904 -16.279472 -0.9140876 3 3207264232736 1 1
0 0 0 9 3207264232736 1 0
0 0 0 29 3207264235040 1 0
0 0 0 9 3207264235040 1 0
0 0 0 8 3207264255776 1 0
33.91988 -24.417322 -1.2163334 17 3207264258080 1 0
21.381544 -12.414399 -0.4315631 2 3207264255776 1 1
0 0 0 1 3207264258080 1 0
6.697006 -4.8223376 -1.6505231 2 3207264260384 1 0
41.356686 -26.812899 0 9 3207264260384 1 0
31.66799 -25.248568 -0.47151044 4 3207264262688 1 0
8.585436 -5.567994 -1.5920014 69 3207264262688 1 0
10.3148575 -7.432014 -1.6182536 3 3207264264992 1 0
45.437817 -26.417137 0.3054742 11 3207264264992 1 0
36.989174 -26.659445 -0.26500002 7 3207264267296 1 0
11.859768 -7.6964293 -1.52292 5 3207264267296 1 0
13.230181 -10.5577345 -1.5800492 3 3207264269600 1 0
41.356724 -26.84711 1.147338 16 3207264269600 1 0
31.828348 -25.406721 0.47411802 5 3207264271904 1 0
17.837238 -11.5829 -1.487208 3 3207264271904 1 0
15.2382 -10.992832 -1.5338831 4 3207264274208 1 0
45.7668 -26.644043 1.5412165 8 3207264274208 1 0
40.96421 -29.560625 0.88176537 9 3207264276512 1 0
19.503447 -11.358114 -1.4464637 5 3207264276512 1 0
19.4955 -15.576057 -1.453243 6 3207264278816 1 0
40.8203 -26.532654 2.8353238 48 3207264278816 1 0
43.371063 -31.31665 2.179468 51 3207264281120 1 0
19.760738 -12.848306 -1.0979484 3 3207264281120 1 1
22.835625 -16.493818 -1.4762926 4 3207264283424 1 0
0 0 0 1 3207264283424 1 0
45.134785 -32.610146 4.5456705 47 3207264285728 1 0
21.077736 -12.29135 -0.9940718 2 3207264285728 1 1
20.391006 -16.31097 -0.911854 3 3207264288032 1 1
0 0 0 9 3207264288032 1 0
19.886623 -12.946623 -0.5521739 5 3207264290336 1 1
0 0 0 29 3207264290336 1 0
21.165497 -12.387948 -0.42807263 2 3207264311072 1 1
0 0 0 8 3207264311072 1 0
0 0 0 1 3207264313376 1 0
6.676957 -4.843382 -1.6497387 2 3207264315680 1 0
33.77294 -24.490978 -1.2141225 17 3207264313376 1 0
41.199215 -26.91553 0 9 3207264315680 1 0
31.6358 -25.404034 -0.4723486 4 3207264317984 1 0
8.562639 -5.5957665 -1.5913866 68 3207264317984 1 0
10.292063 -7.4703054 -1.6187587 3 3207264320288 1 0
45.386738 -26.599854 0.30575314 23 3207264320288 1 0
36.55603 -26.541643 -0.26255903 7 3207264322592 1 0
11.829501 -7.735604 -1.5224917 6 3207264322592 1 0
13.190143 -10.601357 -1.5796773 2 3207264324896 1 0
41.309612 -27.021955 1.1486408 16 3207264324896 1 0
0 0 0 21 3207264327200 1 0
17.823408 -11.662571 -1.4894402 3 3207264327200 1 0
15.20296 -11.0483 -1.5342085 4 3207264329504 1 0
45.149364 -26.496038 1.5235294 8 3207264329504 1 0
40.68932 -29.5788 0.87806547 9 3207264331808 1 0
19.577282 -11.492814 -1.4549061 5 3207264331808 1 0
19.444122 -15.646518 -1.4534755 6 3207264334112 1 0
40.503624 -26.528393 2.8197424 47 3207264334112 1 0
43.255016 -31.46315 2.1791422 51 3207264336416 1 0
19.722452 -12.921585 -1.0983206 3 3207264336416 1 1
22.771452 -16.56873 -1.475874 4 3207264338720 1 0
0 0 0 1 3207264338720 1 0
45.162506 -32.870724 4.5599904 48 3207264341024 1 0
21.110502 -12.409409 -0.997654 8 3207264341024 1 1
0 0 0 10 3207264343328 1 0
0 0 0 9 3207264343328 1 0
0 0 0 29 3207264345632 1 0
19.827934 -13.007187 -0.5518017 10 3207264345632 1 1
0 0 0 8 3207264366368 1 0
20.984343 -12.380464 -0.42528024 2 3207264366368 1 1
33.57783 -24.52804 -1.2101662 17 3207264368672 1 0
0 0 0 1 3207264368672 1 0
6.6664853 -4.8710938 -1.6513076 2 3207264370976 1 0
40.771687 -26.838053 0 9 3207264370976 1 0
31.803064 -25.719168 -0.47616687 9 3207264373280 1 0
8.549902 -5.629596 -1.5926164 26 3207264373280 1 0
10.27597 -7.512614 -1.6202738 3 3207264375584 1 0
45.081642 -26.629356 0.3043118 11 3207264375584 1 0
36.494156 -26.687683 -0.26276824 7 3207264377888 1 0
11.8063135 -7.778179 -1.52292 6 3207264377888 1 0
13.1663685 -10.656209 -1.5811645 2 3207264380192 1 0
41.344288 -27.246008 1.1521769 16 3207264380192 1 0
31.730528 -25.687998 0.47528213 5 3207264382496 1 0
15.178462 -11.108955 -1.5355103 4 3207264384800 1 0
17.800442 -11.733886 -1.4908353 3 3207264382496 1 0
45.00464 -26.61567 1.5216676 25 3207264384800 1 0
40.383183 -29.56414 0.8735977 9 3207264387104 1 0
19.535124 -11.556492 -1.4546503 5 3207264387104 1 0
19.397879 -15.716502 -1.4539406 6 3207264389408 1 0
40.168 -26.501005 2.8025334 46 3207264389408 1 0
43.13064 -31.592873 2.1781652 34 3207264391712 1 0
22.72605 -16.651234 -1.476502 4 3207264394016 1 0
0 0 0 1 3207264394016 1 0
45.1084 -33.059715 4.565523 48 3207264396320 1 0
20.887161 -12.371092 -0.9890241 2 3207264396320 1 1
20.019192 -16.237272 -0.9001278 3 3207264398624 1 1
0 0 0 9 3207264398624 1 0
0 0 0 29 3207264400928 1 0
19.8253 -13.098456 -0.5529183 2 3207264400928 1 1
19.806032 -13.070834 -1.1053934 3 3207264391712 1 1
0 0 0 8 3207264421664 1 0
20.914402 -12.427939 -0.42465195 2 3207264421664 1 1
33.63536 -24.733622 -1.2150534 17 3207264423968 1 0
6.6477766 -4.8899794 -1.6505231 2 3207264426272 1 0
39.045616 -25.880497 0 24 3207264426272 1 0
20.21533 -16.455666 -0.30345976 2 3207264428576 1 1
0 0 0 13 3207264428576 1 0
0 0 0 1 3207264423968 1 0
44.68262 -26.588646 0.30219626 11 3207264430880 1 0
10.251659 -7.5457544 -1.6202738 3 3207264430880 1 0
33.137875 -24.399 -0.23917188 6 3207264433184 1 0
11.780967 -7.8165164 -1.52292 7 3207264433184 1 0
13.140689 -10.706786 -1.5822798 2 3207264435488 1 0
41.29822 -27.40991 1.1533865 16 3207264435488 1 0
31.08456 -25.335014 0.466854 16 3207264437792 1 0
17.765015 -11.794669 -1.4911144 3 3207264437792 1 0
15.14475 -11.1615925 -1.5358357 4 3207264440096 1 0
47.21054 -28.131964 1.5993975 8 3207264440096 1 0
0 0 0 6 3207264442400 1 0
19.517012 -11.633898 -1.4561852 5 3207264442400 1 0
19.344965 -15.781586 -1.4539406 6 3207264444704 1 0
39.869213 -26.496565 2.7878823 46 3207264444704 1 0
43.02356 -31.738543 2.1781652 34 3207264447008 1 0
19.778357 -13.148796 -1.106324 3 3207264447008 1 1
22.69496 -16.747458 -1.4781767 4 3207264449312 1 0
0 0 0 1 3207264449312 1 0
45.1232 -33.308735 4.5785418 48 3207264451616 1 0
20.75544 -12.389301 -0.9847905 5 3207264451616 1 1
0 0 0 10 3207264453920 1 0
0 0 0 9 3207264453920 1 0
0 0 0 29 3207264456224 1 0
0 0 0 6 3207264456224 1 0
0 0 0 8 3207264476960 1 0
20.752068 -12.434619 -0.42227843 2 3207264476960 1 1
33.541447 -24.85411 -1.2149371 17 3207264479264 1 0
0 0 0 1 3207264479264 1 0
6.6298804 -4.914215 -1.6505231 2 3207264481568 1 0
42.409924 -28.333838 0 9 3207264481568 1 0
20.124315 -16.503845 -0.3029941 2 3207264483872 1 1
8.517709 -5.692426 -1.5938462 6 3207264483872 1 0
10.220968 -7.580617 -1.6197687 3 3207264486176 1 0
42.50025 -25.499723 0.28806168 10 3207264486176 1 0
32.872433 -24.388012 -0.23789325 5 3207264488480 1 0
11.749219 -7.857005 -1.5224917 7 3207264488480 1 0
13.141847 -10.787154 -1.5871129 2 3207264490784 1 0
42.358696 -28.335266 1.1858618 26 3207264490784 1 0
30.878414 -25.353287 0.46513113 15 3207264493088 1 0
17.7289 -11.863238 -1.4916724 3 3207264493088 1 0
15.117194 -11.225655 -1.5371376 4 3207264495392 1 0
0 0 0 43 3207264497696 1 0
19.471586 -11.702022 -1.4559294 5 3207264497696 1 0
19.309742 -15.868728 -1.4555686 6 3207264500000 1 0
39.564747 -26.499624 2.7732313 45 3207264500000 1 0
35.39063 -26.30417 1.7964936 19 3207264502304 1 0
46.598087 -27.995266 1.5820596 8 3207264495392 1 0
19.860548 -13.306357 -1.1135828 3 3207264502304 1 1
22.631687 -16.826168 -1.4779674 4 3207264504608 1 0
0 0 0 1 3207264504608 1 0
20.625458 -12.411815 -0.9807198 2 3207264506912 1 1
45.138336 -33.569565 4.592211 48 3207264506912 1 0
0 0 0 10 3207264509216 1 0
0 0 0 9 3207264509216 1 0
0 0 0 29 3207264511520 1 0
0 0 0 8 3207264532256 1 0
19.86231 -13.324287 -0.55654734 28 3207264511520 1 1
20.667456 -12.48217 -0.42144072 2 3207264532256 1 1
33.34252 -24.887093 -1.2108644 17 3207264534560 1 0
0 0 0 1 3207264534560 1 0
6.612758 -4.937232 -1.6505231 2 3207264536864 1 0
39.845707 -26.821495 0 8 3207264536864 1 0
0 0 0 28 3207264539168 1 0
8.50119 -5.724146 -1.5944611 5 3207264539168 1 0
10.194666 -7.615952 -1.6197687 3 3207264541472 1 0
44.941166 -27.176258 0.3052417 35 3207264541472 1 0
11.7253065 -7.899766 -1.52292 9 3207264543776 1 0
32.534866 -24.312263 -0.23605669 5 3207264543776 1 0
0 0 0 13 3207264546080 1 0
42.310513 -28.514633 1.1872576 26 3207264546080 1 0
0 0 0 21 3207264548384 1 0
17.701225 -11.933073 -1.4927886 5 3207264548384 1 0
15.088151 -11.284641 -1.538114 4 3207264550688 1 0
46.214417 -27.981098 1.5722852 8 3207264550688 1 0
38.486267 -28.792717 0.8389721 18 3207264552992 1 0
19.42456 -11.764511 -1.4554178 5 3207264552992 1 0
19.24616 -15.926996 -1.4548708 6 3207264555296 1 0
39.28195 -26.505156 2.759743 45 3207264555296 1 0
35.13433 -26.30018 1.7880266 19 3207264557600 1 0
19.828297 -13.382959 -1.1143273 3 3207264557600 1 1
0 0 0 1 3207264559904 1 0
22.580687 -16.907883 -1.478386 4 3207264559904 1 0
45.084698 -33.768078 4.5983944 24 3207264562208 1 0
20.398645 -12.369882 -0.97192705 5 3207264562208 1 1
0 0 0 10 3207264564512 1 0
0 0 0 9 3207264564512 1 0
0 0 0 29 3207264566816 1 0
19.86684 -13.424962 -0.55794317 49 3207264566816 1 1
0 0 0 8 3207264587552 1 0
20.492702 -12.469558 -0.41871813 2 3207264587552 1 1
33.22146 -24.968697 -1.209468 8 3207264589856 1 0
0 0 0 1 3207264589856 1 0
6.5994844 -4.96149 -1.6513076 2 3207264592160 1 0
41.607304 -28.208227 0 9 3207264592160 1 0
0 0 0 28 3207264594464 1 0
8.4821615 -5.7523055 -1.5944611 5 3207264594464 1 0
10.172525 -7.652102 -1.6202738 3 3207264596768 1 0
44.902035 -27.356356 0.30559042 35 3207264596768 1 0
32.300648 -24.30458 -0.2349408 5 3207264599072 1 0
11.692464 -7.934139 -1.5220633 7 3207264599072 1 0
10.552222 -8.781644 -1.2815129 20 3207264601376 1 0
42.29844 -28.710928 1.1895839 26 3207264601376 1 0
29.753479 -24.768044 0.45069617 15 3207264603680 1 0
17.67146 -11.998431 -1.4936256 5 3207264603680 1 0
15.069755 -11.349003 -1.5400667 4 3207264605984 1 0
45.90292 -28.000938 1.564838 8 3207264605984 1 0
38.150993 -28.739702 0.83373636 18 3207264608288 1 0
19.26994 -16.054632 -1.4606848 6 3207264610592 1 0
38.949436 -26.469181 2.742534 44 3207264610592 1 0
34.868195 -26.281828 1.7789081 18 3207264612896 1 0
19.392256 -11.833019 -1.4559294 5 3207264608288 1 0
22.527683 -16.985075 -1.4785955 4 3207264615200 1 0
19.78381 -13.448639 -1.1143273 3 3207264612896 1 1
34.911037 -26.329254 3.5696223 12 3207264617504 1 0
0 0 0 1 3207264615200 1 0
20.296124 -12.399952 -0.9689961 2 3207264617504 1 1
19.64112 -16.38228 -0.89314795 3 3207264619808 1 1
0 0 0 9 3207264619808 1 0
0 0 0 29 3207264622112 1 0
19.88833 -13.535768 -0.5598042 42 3207264622112 1 1
0 0 0 8 3207264643296 1 0
20.409363 -12.521578 -0.41795024 2 3207264643296 1 1
33.08491 -25.056736 -1.207839 8 3207264645600 1 0
0 0 0 1 3207264645600 1 0
6.5780563 -4.9833727 -1.6505231 2 3207264647904 1 0
37.388237 -25.549173 0 7 3207264647904 1 0
0 0 0 28 3207264650208 1 0
8.473947 -5.792462 -1.5969207 5 3207264650208 1 0
10.153673 -7.6968207 -1.6217891 3 3207264652512 1 0
43.96907 -27.011179 0.299918 22 3207264652512 1 0
32.098907 -24.33939 -0.23412713 5 3207264654816 1 0
11.66958 -7.981855 -1.52292 9 3207264654816 1 0
10.501269 -8.8053665 -1.2792822 36 3207264657120 1 0
29.743975 -24.94784 0.4519534 15 3207264659424 1 0
17.630043 -12.066271 -1.4939046 5 3207264659424 1 0
42.274174 -28.92406 1.1919103 26 3207264657120 1 0
15.033745 -11.409855 -1.5407177 4 3207264661728 1 0
45.335182 -27.886755 1.5490128 8 3207264661728 1 0
37.83009 -28.719803 0.8290591 9 3207264664032 1 0
19.222027 -16.13682 -1.461615 6 3207264666336 1 0
19.341177 -11.901098 -1.4554178 5 3207264664032 1 0
38.659153 -26.48369 2.7290456 43 3207264666336 1 0
34.619938 -26.298605 1.7712551 18 3207264668640 1 0
19.947544 -13.669452 -1.1264254 3 3207264668640 1 1
22.489233 -17.088823 -1.4802701 4 3207264670944 1 0
0 0 0 1 3207264670944 1 0
34.64358 -26.33246 3.552373 24 3207264673248 1 0
20.143877 -12.411181 -0.9639484 2 3207264673248 1 1
0 0 0 10 3207264675552 1 0
0 0 0 9 3207264675552 1 0
0 0 0 29 3207264677856 1 0
0 0 0 1 3207264677856 1 0
0 0 0 8 3207264698592 1 0
20.263481 -12.529643 -0.41585594 2 3207264698592 1 1
21.041426 -16.051287 -0.77020097 4 3207264700896 1 1
0 0 0 1 3207264700896 1 0
6.560694 -5.0062084 -1.6505231 2 3207264703200 1 0
38.930073 -26.801775 0 8 3207264703200 1 0
19.586584 -16.524864 -0.29833767 2 3207264705504 1 1
8.440782 -5.812855 -1.5944611 4 3207264705504 1 0
10.123816 -7.7295146 -1.621284 3 3207264707808 1 0
43.361767 -26.845287 0.2964076 22 3207264707808 1 0
31.960602 -24.408852 -0.23373193 5 3207264710112 1 0
11.638664 -8.019861 -1.5224917 9 3207264710112 1 0
10.431296 -8.808109 -1.2744491 22 3207264712416 1 0
39.072643 -26.93177 1.1042547 15 3207264712416 1 0
29.56326 -24.969995 0.4505099 10 3207264714720 1 0
17.60486 -12.138166 -1.4952998 5 3207264714720 1 0
15.010329 -11.473496 -1.5423449 4 3207264717024 1 0
45.290173 -28.073801 1.5507582 25 3207264717024 1 0
37.5504 -28.710747 0.82508 17 3207264719328 1 0
19.313871 -11.975691 -1.456441 5 3207264719328 1 0
19.16981 -16.205004 -1.4618475 6 3207264721632 1 0
38.377785 -26.484123 2.7155573 43 3207264721632 1 0
34.361805 -26.28782 1.7626252 18 3207264723936 1 0
20.03234 -13.828202 -1.1338704 3 3207264723936 1 1
0 0 0 1 3207264726240 1 0
34.395668 -26.328798 3.5361 36 3207264728544 1 0
20.054073 -12.450008 -0.9616688 2 3207264728544 1 1
22.418253 -17.155554 -1.4794328 4 3207264726240 1 0
19.370815 -16.393288 -0.886168 3 3207264730848 1 1
0 0 0 9 3207264730848 1 0
0 0 0 29 3207264733152 1 0
19.971897 -13.802784 -0.5649221 2 3207264733152 1 1
0 0 0 8 3207264753888 1 0
20.174295 -12.567165 -0.4148786 2 3207264753888 1 1
20.82942 -15.999348 -0.7643829 4 3207264756192 1 1
0 0 0 1 3207264756192 1 0
37.331802 -25.885126 0 22 3207264758496 1 0
6.547094 -5.0304217 -1.6513076 2 3207264758496 1 0
0 0 0 28 3207264760800 1 0
8.427827 -5.8455024 -1.595691 4 3207264760800 1 0
10.113631 -7.7754297 -1.6238093 4 3207264763104 1 0
43.441414 -27.096035 0.29757 33 3207264763104 1 0
0 0 0 38 3207264765408 1 0
11.621514 -8.065637 -1.5237768 9 3207264765408 1 0
0 0 0 56 3207264767712 1 0
38.79798 -26.935184 1.0990438 15 3207264767712 1 0
29.515581 -25.100489 0.4510687 5 3207264770016 1 0
17.56389 -12.197374 -1.4952998 3 3207264770016 1 0
14.977847 -11.528944 -1.5429958 4 3207264772320 1 0
45.06971 -28.148098 1.5464528 8 3207264772320 1 0
37.351692 -28.759483 0.82284606 17 3207264774624 1 0
19.273264 -12.040934 -1.456441 5 3207264774624 1 0
19.099579 -16.256931 -1.4606848 6 3207264776928 1 0
38.110752 -26.490952 2.7029994 42 3207264776928 1 0
34.107697 -26.277527 1.7541581 18 3207264779232 1 0
19.998383 -13.905278 -1.134615 3 3207264779232 1 1
21.027708 -16.205212 -1.391299 4 3207264781536 1 0
34.147797 -26.324255 3.5198271 35 3207264783840 1 0
0 0 0 1 3207264781536 1 0
19.964058 -12.488659 -0.9593892 2 3207264783840 1 1
0 0 0 10 3207264786144 1 0
0 0 0 9 3207264786144 1 0
0 0 0 29 3207264788448 1 0
20.00327 -13.925946 -0.56715536 8 3207264788448 1 1
0 0 0 4 3207264809184 1 0
20.03885 -12.580096 -0.41299376 2 3207264809184 1 1
20.773329 -16.07211 -0.7643829 4 3207264811488 1 1
0 0 0 1 3207264811488 1 0
6.526319 -5.050939 -1.6505231 2 3207264813792 1 0
38.38197 -26.812996 0 16 3207264813792 1 0
19.39694 -16.593649 -0.29717356 2 3207264816096 1 1
8.416963 -5.8818607 -1.5975356 4 3207264816096 1 0
10.067377 -7.796402 -1.6207789 3 3207264818400 1 0
43.389797 -27.276443 0.2978722 33 3207264818400 1 0
31.744493 -24.5914 -0.23338321 100 3207264820704 1 0
10.324947 -8.840958 -1.2688724 2 3207264823008 1 0
11.599513 -8.111135 -1.5246335 10 3207264820704 1 0
38.486275 -26.92086 1.0929023 15 3207264823008 1 0
29.350557 -25.139814 0.4499046 15 3207264825312 1 0
17.53039 -12.266364 -1.4961369 3 3207264825312 1 0
14.952592 -11.594239 -1.5446231 5 3207264827616 1 0
0 0 0 30 3207264827616 1 0
37.36927 -28.985273 0.8254988 26 3207264829920 1 0
19.233702 -12.111522 -1.4566969 5 3207264829920 1 0
19.056686 -16.337883 -1.4618475 3 3207264832224 1 0
37.770805 -26.454771 2.6855576 42 3207264832224 1 0
33.858944 -26.279072 1.7461795 9 3207264834528 1 0
23.878769 -16.730188 -1.3581505 4 3207264834528 1 0
20.856005 -16.192156 -1.3837627 4 3207264836832 1 0
45.139534 -31.636404 6.768136 21 3207264836832 1 0
33.90836 -26.334026 3.504856 35 3207264839136 1 0
19.834637 -12.506861 -0.95531845 2 3207264839136 1 1
0 0 0 10 3207264841440 1 0
0 0 0 9 3207264841440 1 0
0 0 0 29 3207264843744 1 0
20.110146 -14.1081 -0.5716219 49 3207264843744 1 1
0 0 0 4 3207264864480 1 0
19.955433 -12.6299305 -0.41222584 5 3207264864480 1 1
20.793234 -16.209444 -0.7672919 4 3207264866784 1 1
0 0 0 1 3207264866784 1 0
38.02217 -26.768723 0 8 3207264869088 1 0
6.520209 -5.0843787 -1.653661 2 3207264869088 1 0
19.318176 -16.648542 -0.2968942 2 3207264871392 1 1
8.392245 -5.910212 -1.5969207 3 3207264871392 1 0
10.0514765 -7.84272 -1.6227992 3 3207264873696 1 0
43.347767 -27.470432 0.29826742 33 3207264873696 1 0
0 0 0 9 3207264876000 1 0
11.592759 -8.1692095 -1.5276324 9 3207264876000 1 0
10.310956 -8.8939 -1.271103 3 3207264878304 1 0
38.215298 -26.937952 1.0879705 15 3207264878304 1 0
29.217108 -25.20915 0.4492527 92 3207264880608 1 0
17.485943 -12.329643 -1.4961369 3 3207264880608 1 0
14.923241 -11.657915 -1.545925 5 3207264882912 1 0
45.272255 -28.726952 1.5604162 43 3207264882912 1 0
37.311962 -29.156544 0.82654595 26 3207264885216 1 0
19.196718 -12.184958 -1.4572086 5 3207264885216 1 0
19.019026 -16.42451 -1.4634755 3 3207264887520 1 0
37.486298 -26.456741 2.6720693 41 3207264887520 1 0
33.59764 -26.26982 1.7375495 18 3207264889824 1 0
23.848011 -16.836432 -1.3598256 4 3207264889824 1 0
20.753887 -16.23222 -1.3808318 4 3207264892128 1 0
45.058483 -31.82061 6.7730107 42 3207264892128 1 0
33.672817 -26.344387 3.4902105 34 3207264894432 1 0
0 0 0 10 3207264896736 1 0
19.843822 -12.611904 -0.9579237 7 3207264894432 1 1
0 0 0 9 3207264896736 1 0
0 0 0 29 3207264899040 1 0
0 0 0 1 3207264899040 1 0
0 0 0 4 3207264919776 1 0
19.904482 -12.6952095 -0.41208622 5 3207264919776 1 1
20.500786 -16.096588 -0.7585648 4 3207264922080 1 1
0 0 0 1 3207264922080 1 0
6.493242 -5.099745 -1.6513076 2 3207264924384 1 0
37.870163 -26.859076 0 8 3207264924384 1 0
19.202913 -16.665644 -0.29600945 2 3207264926688 1 1
8.37814 -5.943862 -1.5981506 4 3207264926688 1 0
10.0336275 -7.884822 -1.6243144 3 3207264928992 1 0
44.890816 -28.666574 0.30956578 12 3207264928992 1 0
31.676434 -24.899677 -0.23417363 5 3207264931296 1 0
0 0 0 46 3207264933600 1 0
11.577443 -8.218413 -1.5293459 11 3207264931296 1 0
37.955925 -26.951447 1.0832249 15 3207264933600 1 0
29.166452 -25.34098 0.44981146 25 3207264935904 1 0
17.44668 -12.392029 -1.4964159 3 3207264935904 1 0
14.895671 -11.718931 -1.5472268 5 3207264938208 1 0
45.260967 -28.938177 1.5634416 51 3207264938208 1 0
37.29359 -29.348478 0.82836103 18 3207264940512 1 0
19.161596 -12.254941 -1.4577203 3 3207264940512 1 0
18.95675 -16.484177 -1.4630103 3 3207264942816 1 0
37.187355 -26.436634 2.6571858 40 3207264942816 1 0
33.357124 -26.265575 1.7297337 9 3207264945120 1 0
23.783937 -16.91304 -1.3594533 4 3207264945120 1 0
20.58869 -16.216253 -1.3735049 3 3207264947424 1 0
45.07286 -32.061226 6.791535 64 3207264947424 1 0
33.329494 -26.258745 3.4638484 34 3207264949728 1 0
19.794146 -12.674912 -0.9575981 5 3207264949728 1 1
0 0 0 9 3207264952032 1 0
0 0 0 10 3207264952032 1 0
0 0 0 29 3207264954336 1 0
34.720104 -24.718782 -0.9917542 14 3207264954336 1 0
0 0 0 4 3207264975072 1 0
19.963217 -12.826 -0.41418052 5 3207264975072 1 1
20.447176 -16.16463 -0.7585648 4 3207264977376 1 1
0 0 0 1 3207264977376 1 0
6.4731436 -5.1189103 -1.6505231 2 3207264979680 1 0
37.826065 -27.017609 0 8 3207264979680 1 0
18.996578 -16.598064 -0.29368123 2 3207264981984 1 1
8.355038 -5.9694967 -1.5975356 4 3207264981984 1 0
10.0071945 -7.9183426 -1.6243144 3 3207264984288 1 0
38.840435 -24.986202 0.26841742 9 3207264984288 1 0
31.664917 -25.062828 -0.23470832 5 3207264986592 1 0
11.54659 -8.254868 -1.5289174 10 3207264986592 1 0
10.151245 -8.877358 -1.2588345 43 3207264988896 1 0
37.741558 -26.990421 1.0796889 15 3207264988896 1 0
29.288685 -25.620749 0.4530244 15 3207264991200 1 0
17.42433 -12.464631 -1.49809 3 3207264991200 1 0
45.250458 -29.14703 1.566467 25 3207264993504 1 0
14.862292 -11.774077 -1.5478778 5 3207264993504 1 0
38.557648 -30.554935 0.85872823 75 3207264995808 1 0
19.130112 -12.326153 -1.4584877 4 3207264995808 1 0
18.90078 -16.548325 -1.4630103 3 3207264998112 1 0
36.893005 -26.416044 2.6425347 40 3207264998112 1 0
33.12054 -26.262 1.7220808 9 3207265000416 1 0
23.739355 -17.003021 -1.3601978 4 3207265000416 1 0
20.630398 -16.36318 -1.3799945 4 3207265002720 1 0
44.976395 -32.22369 6.7934847 43 3207265002720 1 0
33.07734 -26.243418 3.4469244 33 3207265005024 1 0
19.777668 -12.759684 -0.9589007 5 3207265005024 1 1
18.782366 -16.463963 -0.87220824 3 3207265007328 1 1
0 0 0 9 3207265007328 1 0
0 0 0 29 3207265009632 1 0
35.502903 -25.459782 -1.0165992 14 3207265009632 1 0
0 0 0 4 3207265030368 1 0
19.92168 -12.897779 -0.4142503 5 3207265030368 1 1
0 0 0 9 3207265032672 1 0
0 0 0 1 3207265032672 1 0
6.461297 -5.146456 -1.6520921 2 3207265034976 1 0
37.909702 -27.278526 0 8 3207265034976 1 0
0 0 0 28 3207265037280 1 0
8.334019 -5.9988065 -1.5975356 4 3207265037280 1 0
9.973057 -7.94857 -1.6233042 5 3207265039584 1 0
43.73641 -28.353945 0.3029402 11 3207265039584 1 0
31.626366 -25.21425 -0.23508029 5 3207265041888 1 0
11.527084 -8.302514 -1.5302026 10 3207265041888 1 0
10.080953 -8.87896 -1.2540014 38 3207265044192 1 0
41.146744 -29.645956 1.1800926 17 3207265044192 1 0
28.666569 -25.256311 0.4447825 15 3207265046496 1 0
17.3995 -12.54026 -1.4997642 3 3207265046496 1 0
14.845345 -11.846641 -1.5504814 5 3207265048800 1 0
43.708023 -28.373478 1.5165477 8 3207265048800 1 0
38.26433 -30.54465 0.85460943 74 3207265051104 1 0
19.092854 -12.398452 -1.4589994 4 3207265051104 1 0
18.868647 -16.63934 -1.4651034 3 3207265053408 1 0
36.61081 -26.411835 2.6290464 39 3207265053408 1 0
32.79547 -26.195513 1.7100314 9 3207265055712 1 0
23.675251 -17.085339 -1.3600117 4 3207265055712 1 0
22.185127 -17.72601 -1.4882252 4 3207265058016 1 0
44.957386 -32.454117 6.808109 43 3207265058016 1 0
32.83044 -26.239872 3.430977 33 3207265060320 1 0
19.748547 -12.841402 -0.95971483 5 3207265060320 1 1
18.87293 -16.663624 -0.8791881 3 3207265062624 1 1
0 0 0 9 3207265062624 1 0
0 0 0 29 3207265064928 1 0
34.603943 -25.004234 -0.9934291 14 3207265064928 1 0
0 0 0 4 3207265085664 1 0
19.884321 -12.977267 -0.41445974 2 3207265085664 1 1
0 0 0 9 3207265087968 1 0
0 0 0 1 3207265087968 1 0
6.448584 -5.174919 -1.653661 2 3207265090272 1 0
37.90054 -27.482487 0 8 3207265090272 1 0
0 0 0 28 3207265092576 1 0
8.318506 -6.033772 -1.5987655 3 3207265092576 1 0
9.947183 -7.9872646 -1.6238093 5 3207265094880 1 0
38.962 -25.460424 0.27050972 9 3207265094880 1 0
31.653164 -25.424036 -0.2359637 5 3207265097184 1 0
11.493662 -8.341953 -1.5297742 10 3207265097184 1 0
10.027877 -8.896908 -1.2513989 11 3207265099488 1 0
40.85142 -29.658514 1.1746955 25 3207265099488 1 0
29.218277 -25.930563 0.45479384 15 3207265101792 1 0
17.35729 -12.605411 -1.5000432 3 3207265101792 1 0
14.811838 -11.907605 -1.5514578 5 3207265104096 1 0
43.337734 -28.355818 1.5072387 8 3207265104096 1 0
0 0 0 21 3207265106400 1 0
19.05144 -12.469287 -1.4592552 4 3207265106400 1 0
18.808748 -16.707018 -1.4651034 3 3207265108704 1 0
36.32835 -26.40701 2.6155584 39 3207265108704 1 0
0 0 0 72 3207265111008 1 0
23.633236 -17.184208 -1.3611284 4 3207265111008 1 0
20.39142 -16.412708 -1.3718301 7 3207265113312 1 0
44.953354 -32.6965 6.8251705 44 3207265113312 1 0
32.590584 -26.239422 3.4156806 21 3207265115616 1 0
0 0 0 10 3207265117920 1 0
19.699226 -12.909644 -0.959552 2 3207265115616 1 1
0 0 0 9 3207265117920 1 0
0 0 0 29 3207265120224 1 0
35.31011 -25.70612 -1.0163201 14 3207265120224 1 0
0 0 0 4 3207265140960 1 0
19.862293 -13.06198 -0.4149484 2 3207265140960 1 1
0 0 0 9 3207265143264 1 0
0 0 0 1 3207265143264 1 0
6.4275064 -5.1948385 -1.6528765 2 3207265145568 1 0
36.486908 -26.651443 0 7 3207265145568 1 0
0 0 0 28 3207265147872 1 0
8.303908 -6.067255 -1.5999953 4 3207265147872 1 0
9.925646 -8.02664 -1.6248195 6 3207265150176 1 0
38.913727 -25.621536 0.27078867 9 3207265150176 1 0
31.701986 -25.64391 -0.23698659 5 3207265152480 1 0
11.461567 -8.379259 -1.5293459 16 3207265152480 1 0
0 0 0 56 3207265154784 1 0
40.490715 -29.610312 1.1672513 25 3207265154784 1 0
29.17961 -26.076221 0.45558542 15 3207265157088 1 0
17.358915 -12.698022 -1.5039495 3 3207265157088 1 0
42.946384 -28.310753 1.4969989 8 3207265159392 1 0
14.780174 -11.965901 -1.5524342 5 3207265159392 1 0
42.7886 -34.65107 0.9610691 12 3207265161696 1 0
19.008617 -12.534469 -1.4592552 4 3207265161696 1 0
18.754513 -16.773869 -1.4653358 3 3207265164000 1 0
36.054226 -26.396563 2.6023026 38 3207265164000 1 0
32.608307 -26.421787 1.7098687 36 3207265166304 1 0
23.58416 -17.271795 -1.3616868 4 3207265166304 1 0
22.160141 -17.960943 -1.4949243 4 3207265168608 1 0
44.97313 -32.9455 6.845157 44 3207265168608 1 0
19.69863 -13.005096 -0.9616688 2 3207265170912 1 1
0 0 0 10 3207265173216 1 0
0 0 0 9 3207265173216 1 0
32.361927 -26.23697 3.401035 21 3207265170912 1 0
0 0 0 29 3207265175520 1 0
35.219757 -25.823011 -1.016227 14 3207265175520 1 0
19.862213 -13.156486 -0.41585594 2 3207265196256 1 1
0 0 0 4 3207265196256 1 0
0 0 0 9 3207265198560 1 0
0 0 0 1 3207265198560 1 0
33.24985 -24.45722 0 18 3207265200864 1 0
0 0 0 11 3207265203168 1 0
6.407126 -5.213742 -1.6520921 3 3207265200864 1 0
8.289977 -6.0996237 -1.6012251 3 3207265203168 1 0
9.904893 -8.064809 -1.6258297 5 3207265205472 1 0
38.884468 -25.789152 0.27118388 9 3207265205472 1 0
31.035873 -25.277683 -0.23263928 5 3207265207776 1 0
11.439816 -8.422352 -1.5302026 11 3207265207776 1 0
9.916747 -8.919682 -1.2450787 2 3207265210080 1 0
40.191364 -29.59916 1.1614821 25 3207265210080 1 0
29.142193 -26.2198 0.45637703 15 3207265212384 1 0
17.316063 -12.756398 -1.5039495 3 3207265212384 1 0
14.755164 -12.028301 -1.5540614 5 3207265214688 1 0
42.517532 -28.23432 1.4853626 8 3207265214688 1 0
31.02936 -25.30242 0.69886416 7 3207265216992 1 0
18.979422 -12.607511 -1.4602785 4 3207265216992 1 0
18.703495 -16.842672 -1.465801 3 3207265219296 1 0
35.794224 -26.392992 2.589977 38 3207265219296 1 0
32.623672 -26.618282 1.7154047 27 3207265221600 1 0
23.621834 -17.422943 -1.3672706 4 3207265221600 1 0
22.04318 -17.990795 -1.4911561 4 3207265223904 1 0
44.962975 -33.173794 6.8607564 44 3207265223904 1 0
32.12093 -26.223652 3.3850875 31 3207265226208 1 0
19.690765 -13.096554 -0.9634599 2 3207265226208 1 1
0 0 0 9 3207265228512 1 0
18.40221 -16.590761 -0.8652283 3 3207265228512 1 1
0 0 0 29 3207265230816 1 0
35.127884 -25.94112 -1.0161339 14 3207265230816 1 0
0 0 0 4 3207265251552 1 0
19.922617 -13.296783 -0.41808984 2 3207265251552 1 1
0 0 0 9 3207265253856 1 0
0 0 0 1 3207265253856 1 0
6.385854 -5.2335887 -1.6513076 2 3207265256160 1 0
32.997154 -24.449305 0 6 3207265256160 1 0
9.913985 -8.972126 -0.15566456 11 3207265258464 1 0
8.262284 -6.123817 -1.5999953 4 3207265258464 1 0
9.876681 -8.099335 -1.6258297 5 3207265260768 1 0
38.12907 -25.480238 0.26653436 8 3207265260768 1 0
30.879412 -25.330055 -0.23212783 5 3207265263072 1 0
11.403959 -8.457495 -1.5293459 9 3207265263072 1 0
9.856033 -8.927506 -1.241361 3 3207265265376 1 0
40.06853 -29.724977 1.1609237 25 3207265265376 1 0
29.10088 -26.367022 0.4571686 15 3207265267680 1 0
17.274633 -12.819142 -1.5042286 3 3207265267680 1 0
14.716168 -12.082263 -1.5543869 5 3207265269984 1 0
42.222656 -28.251377 1.4784973 24 3207265269984 1 0
29.964191 -24.608486 0.6768043 20 3207265272288 1 0
18.94525 -12.680346 -1.461046 4 3207265272288 1 0
18.641632 -16.905176 -1.4655684 3 3207265274592 1 0
32.604668 -26.792896 1.7193127 27 3207265276896 1 0
35.525562 -26.386818 2.5771866 37 3207265274592 1 0
23.57691 -17.517208 -1.3682011 4 3207265276896 1 0
44.971176 -33.422905 6.8797684 67 3207265279200 1 0
22.038877 -18.115826 -1.4951336 4 3207265279200 1 0
32.023037 -26.330551 3.3844366 31 3207265281504 1 0
19.761133 -13.243082 -0.96915895 2 3207265281504 1 1
18.563202 -16.853743 -0.87555856 7 3207265283808 1 1
0 0 0 29 3207265286112 1 0
0 0 0 9 3207265283808 1 0
35.017868 -26.04926 -1.0155756 14 3207265286112 1 0
0 0 0 4 3207265306296 1 0
19.892675 -13.377405 -0.4184389 2 3207265306296 1 1
0 0 0 9 3207265308600 1 0
0 0 0 1 3207265308600 1 0
6.3766212 -5.263338 -1.653661 2 3207265310904 1 0
32.703247 -24.408821 0 5 3207265310904 1 0
9.921037 -9.041702 -0.1562699 11 3207265313208 1 0
8.244025 -6.154985 -1.6006103 3 3207265313208 1 0
9.84835 -8.133761 -1.6258297 6 3207265315512 1 0
37.708103 -25.389776 0.2642096 8 3207265315512 1 0
30.624285 -25.30012 -0.23087245 5 3207265317816 1 0
11.390298 -8.509151 -1.5314878 10 3207265317816 1 0
0 0 0 37 3207265320120 1 0
39.788345 -29.733006 1.1558058 16 3207265320120 1 0
27.699759 -25.274153 0.43654063 9 3207265322424 1 0
17.229782 -12.879364 -1.5042286 3 3207265322424 1 0
14.695411 -12.151342 -1.5566651 5 3207265324728 1 0
42.219925 -28.463408 1.4818718 24 3207265324728 1 0
18.894253 -12.741936 -1.4605343 4 3207265327032 1 0
29.81339 -24.6594 0.6753383 27 3207265327032 1 0
35.260582 -26.381483 2.5646286 37 3207265329336 1 0
18.255205 -16.671242 -1.4397547 6 3207265329336 1 0
29.68444 -24.567287 1.5698355 16 3207265331640 1 0
23.502823 -17.589823 -1.3674567 4 3207265331640 1 0
21.9632 -18.182455 -1.4942962 4 3207265333944 1 0
44.96229 -33.660576 6.8963423 68 3207265333944 1 0
29.597292 -24.509672 3.1370885 8 3207265336248 1 0
18.480656 -16.896858 -0.8744418 10 3207265338552 1 1
19.73466 -13.325399 -0.9701359 2 3207265336248 1 1
0 0 0 9 3207265338552 1 0
0 0 0 29 3207265340856 1 0
33.35864 -24.996336 -0.9699799 6 3207265340856 1 0
0 0 0 4 3207265361592 1 0
19.892212 -13.4781685 -0.41941622 2 3207265361592 1 1
0 0 0 9 3207265363896 1 0
0 0 0 1 3207265363896 1 0
