# .PCD v.7 - Point Cloud Data file format
VERSION .7
FIELDS x y z rgb timestamp_ns device_id active
SIZE 4 4 4 4 8 1 1
TYPE F F F F F U U
COUNT 1 1 1 1 1 1 1
WIDTH 986
HEIGHT 1
VIEWPOINT 0 0 0 1 0 0 0
POINTS 986               
DATA ascii
0 0 0 36 3198370302296 1 0
36.204903 -50.801147 3.632991 28 3198370302296 1 0
36.21478 -56.478954 2.7334125 29 3198370304600 1 0
18.186295 -25.526075 -1.4599606 34 3198370304600 1 0
16.46703 -25.689466 -1.5991775 20 3198370306904 1 0
0 0 0 1 3198370306904 1 0
0 0 0 8 3198370309208 1 0
21.386364 -27.12685 -1.4073321 11 3198370309208 1 0
15.23412 -26.553684 -1.0690414 43 3198370311512 1 0
9.522346 -13.377803 4.399924 4 3198370311512 1 0
17.643608 -27.551449 5.9650908 28 3198370313816 1 0
18.659195 -26.2221 -0.748887 45 3198370313816 1 0
0 0 0 4 3198370334552 1 0
28.587717 -36.38074 -0.80762756 39 3198370334552 1 0
16.896536 -26.469545 -0.91390824 48 3198370336856 1 0
3.470076 -4.891605 -1.6789154 2 3198370336856 1 0
4.5300913 -7.0989647 -1.6842552 3 3198370339160 1 0
29.527662 -41.63661 0 115 3198370339160 1 0
18.146023 -31.768257 -0.42592394 31 3198370341464 1 0
6.123994 -8.638033 -1.6473434 6 3198370341464 1 0
6.127567 -9.608481 -1.4505694 14 3198370343768 1 0
29.600225 -37.7144 0.27864638 19 3198370343768 1 0
29.3938 -46.10646 -0.31779543 30 3198370346072 1 0
6.757275 -9.537169 -1.2590328 37 3198370346072 1 0
8.896186 -15.590351 -1.6755956 2 3198370348376 1 0
29.319786 -41.394497 1.1803718 26 3198370348376 1 0
18.115646 -31.757963 0.42564458 57 3198370350680 1 0
10.742674 -16.866951 -1.6324968 30 3198370352984 1 0
13.035223 -18.40917 -1.5773333 4 3198370350680 1 0
29.561327 -37.70999 1.3944838 36 3198370352984 1 0
29.186861 -45.84067 0.9485732 34 3198370355288 1 0
14.800692 -18.886202 -1.5377951 4 3198370355288 1 0
13.31161 -23.359837 -1.5658001 7 3198370357592 1 0
44.202698 -69.46903 3.3546057 29 3198370359896 1 0
18.104004 -25.59919 -1.460519 24 3198370359896 1 0
16.368681 -25.733309 -1.5983402 35 3198370362200 1 0
23.302141 -32.95956 4.9561825 8 3198370362200 1 0
0 0 0 8 3198370364504 1 0
36.156498 -51.109776 3.6460142 28 3198370357592 1 0
21.2743 -27.179308 -1.4061923 16 3198370364504 1 0
15.259969 -26.815163 -1.0774173 45 3198370366808 1 0
9.57815 -13.556114 4.4475465 4 3198370366808 1 0
17.528334 -27.582977 5.9586334 28 3198370369112 1 0
18.530636 -26.234812 -0.7473982 45 3198370369112 1 0
0 0 0 4 3198370390296 1 0
28.573713 -36.625362 -0.8108388 32 3198370390296 1 0
16.425526 -25.930395 -0.8933121 46 3198370392600 1 0
3.4507978 -4.9005136 -1.677837 2 3198370392600 1 0
4.509584 -7.1212964 -1.6858243 3 3198370394904 1 0
29.516298 -41.928703 0 115 3198370394904 1 0
6.100817 -8.668921 -1.649188 6 3198370397208 1 0
18.211203 -32.140728 -0.43006817 11 3198370397208 1 0
0 0 0 15 3198370399512 1 0
29.644062 -38.04065 0.28029698 30 3198370399512 1 0
29.43111 -46.518703 -0.31993422 30 3198370401816 1 0
6.724291 -9.560454 -1.2590328 9 3198370401816 1 0
29.30343 -41.675236 1.1854897 26 3198370404120 1 0
8.8777075 -15.6833105 -1.6822877 2 3198370404120 1 0
18.14419 -32.063763 0.42890406 14 3198370406424 1 0
12.983296 -18.47022 -1.5787286 4 3198370406424 1 0
10.688975 -16.910465 -1.6331477 18 3198370408728 1 0
29.542229 -37.95322 1.3997202 22 3198370408728 1 0
29.168543 -46.160137 0.9531108 35 3198370411032 1 0
14.799655 -19.018696 -1.5444467 4 3198370411032 1 0
13.267063 -23.46777 -1.5699861 7 3198370413336 1 0
41.32143 -65.432495 3.1528604 29 3198370415640 1 0
36.112415 -51.419323 3.65927 28 3198370413336 1 0
18.057917 -25.71965 -1.4638691 14 3198370415640 1 0
23.043856 -32.830704 4.924984 7 3198370417944 1 0
16.30233 -25.822647 -1.6004336 35 3198370417944 1 0
0 0 0 8 3198370420248 1 0
21.16225 -27.226156 -1.4048897 16 3198370420248 1 0
15.086462 -26.720518 -1.0715542 35 3198370422552 1 0
9.634222 -13.733996 4.495169 3 3198370422552 1 0
17.409767 -27.602152 5.950024 28 3198370424856 1 0
18.395893 -26.231842 -0.7455371 40 3198370424856 1 0
0 0 0 4 3198370445592 1 0
28.59418 -36.903275 -0.81488776 56 3198370445592 1 0
16.32436 -25.961147 -0.8924976 51 3198370447896 1 0
3.4411142 -4.9214253 -1.681072 1 3198370447896 1 0
4.4879274 -7.139598 -1.6866087 5 3198370450200 1 0
29.484192 -42.18087 0 112 3198370450200 1 0
18.264547 -32.48723 -0.43388644 7 3198370452504 1 0
6.074111 -8.692476 -1.649803 6 3198370452504 1 0
6.0366936 -9.609648 -1.4445084 3 3198370454808 1 0
29.619461 -38.27246 0.28127337 30 3198370454808 1 0
29.315409 -46.68147 -0.32037592 30 3198370457112 1 0
0 0 0 4 3198370457112 1 0
8.828866 -15.719994 -1.6830312 2 3198370459416 1 0
29.300592 -41.97019 1.1910728 26 3198370459416 1 0
18.218231 -32.44902 0.43323454 14 3198370461720 1 0
12.918749 -18.51056 -1.5784495 4 3198370461720 1 0
10.638209 -16.956568 -1.634124 7 3198370464024 1 0
29.572937 -38.25831 1.4072837 15 3198370464024 1 0
29.16103 -46.495678 0.9579975 35 3198370466328 1 0
14.737698 -19.071793 -1.5447025 4 3198370466328 1 0
13.183552 -23.505629 -1.5695211 7 3198370468632 1 0
36.11839 -51.80018 3.6776419 28 3198370468632 1 0
41.026806 -65.457306 3.147324 29 3198370470936 1 0
17.997883 -25.820164 -1.4661026 9 3198370470936 1 0
16.21011 -25.87121 -1.6000148 20 3198370473240 1 0
23.031858 -33.05226 4.946433 24 3198370473240 1 0
0 0 0 8 3198370475544 1 0
21.064384 -27.291847 -1.404564 16 3198370475544 1 0
15.071231 -26.907948 -1.0769985 54 3198370477848 1 0
9.498903 -13.64002 4.4537582 1 3198370477848 1 0
17.285892 -27.614923 5.939979 39 3198370480152 1 0
18.26024 -26.229061 -0.74367607 40 3198370480152 1 0
0 0 0 4 3198370500888 1 0
28.538345 -37.09796 -0.81698203 24 3198370500888 1 0
16.208052 -25.977383 -0.89110124 51 3198370503192 1 0
3.4216824 -4.9302673 -1.6799936 2 3198370503192 1 0
4.46495 -7.158613 -1.6873932 3 3198370505496 1 0
0 0 0 19 3198370505496 1 0
21.18317 -37.990353 -0.5063871 10 3198370507800 1 0
6.0480466 -8.720254 -1.6510328 7 3198370507800 1 0
5.992338 -9.613998 -1.4419831 3 3198370510104 1 0
29.664902 -38.611195 0.2829937 30 3198370510104 1 0
29.417105 -47.212326 -0.32330513 30 3198370512408 1 0
6.628909 -9.563995 -1.2534639 1 3198370512408 1 0
8.773252 -15.7511 -1.6830312 2 3198370514712 1 0
29.281893 -42.26084 1.1963768 27 3198370514712 1 0
28.987686 -52.06188 0.69371545 21 3198370517016 1 0
12.869017 -18.579157 -1.5804026 4 3198370517016 1 0
0 0 0 13 3198370519320 1 0
29.134954 -46.8232 0.96260494 36 3198370521624 1 0
14.679502 -19.13675 -1.5457258 4 3198370521624 1 0
13.157938 -23.65715 -1.5764977 7 3198370523928 1 0
36.013103 -52.043484 3.6857815 28 3198370523928 1 0
10.601141 -17.031445 -1.6377041 5 3198370519320 1 0
40.710514 -65.471016 3.1409738 29 3198370526232 1 0
17.901028 -25.87769 -1.4657304 9 3198370526232 1 0
16.102678 -25.905294 -1.5985495 35 3198370528536 1 0
23.012812 -33.278137 4.9678817 16 3198370528536 1 0
0 0 0 8 3198370530840 1 0
14.939531 -26.899012 -1.0744857 45 3198370533144 1 0
20.95668 -27.354502 -1.4039127 16 3198370530840 1 0
0 0 0 9 3198370533144 1 0
18.12479 -26.235401 -0.7420011 40 3198370535448 1 0
0 0 0 4 3198370556184 1 0
28.51382 -37.348537 -0.8201933 16 3198370556184 1 0
16.083464 -25.988897 -0.8894722 51 3198370558488 1 0
17.169765 -27.650227 5.9342394 33 3198370535448 1 0
3.403625 -4.9427505 -1.6799936 2 3198370558488 1 0
4.4346595 -7.168194 -1.6858243 3 3198370560792 1 0
0 0 0 7 3198370560792 1 0
20.980757 -37.951763 -0.5048505 15 3198370563096 1 0
6.018476 -8.745487 -1.6516477 7 3198370563096 1 0
5.9552546 -9.632349 -1.441478 3 3198370565400 1 0
29.652859 -38.887383 0.28422582 30 3198370565400 1 0
29.399101 -47.56715 -0.32500222 30 3198370567704 1 0
6.589652 -9.581434 -1.2526071 2 3198370567704 1 0
8.729629 -15.807173 -1.6856337 2 3198370570008 1 0
29.264587 -42.564323 1.20196 27 3198370570008 1 0
28.940447 -52.421925 0.69711465 21 3198370572312 1 0
12.860547 -18.711046 -1.5876573 4 3198370572312 1 0
10.554301 -17.093319 -1.6399823 3 3198370574616 1 0
29.511597 -38.74886 1.4175235 22 3198370574616 1 0
29.125866 -47.186424 0.96791047 36 3198370576920 1 0
14.6153555 -19.19582 -1.5462375 4 3198370576920 1 0
0 0 0 3 3198370579224 1 0
13.086365 -23.728745 -1.5781256 7 3198370579224 1 0
40.418873 -65.524704 3.1365774 58 3198370581528 1 0
17.81492 -25.951586 -1.4662888 14 3198370581528 1 0
16.02666 -25.989944 -1.6002243 25 3198370583832 1 0
0 0 0 8 3198370586136 1 0
19.799236 -26.035748 -1.3325936 15 3198370586136 1 0
14.745232 -26.773493 -1.0673662 43 3198370588440 1 0
22.913816 -33.38972 4.972269 8 3198370583832 1 0
0 0 0 9 3198370588440 1 0
17.052755 -27.680954 5.927782 28 3198370590744 1 0
0 0 0 4 3198370611480 1 0
17.981632 -26.227129 -0.73995394 39 3198370590744 1 0
19.8265 -26.15835 -0.5729276 42 3198370611480 1 0
3.3885603 -4.9577565 -1.681072 2 3198370613784 1 0
15.950993 -25.976622 -0.8871449 56 3198370613784 1 0
4.4097157 -7.183566 -1.6858243 3 3198370616088 1 0
17.92909 -26.239592 0 61 3198370616088 1 0
17.15301 -31.283607 -0.41535383 11 3198370618392 1 0
5.9858737 -8.763048 -1.6510328 7 3198370618392 1 0
0 0 0 43 3198370620696 1 0
19.80748 -26.16328 0.19072376 38 3198370620696 1 0
29.380997 -47.9071 -0.32662955 20 3198370623000 1 0
6.5587583 -9.607424 -1.2530354 2 3198370623000 1 0
8.675089 -15.837171 -1.6856337 2 3198370625304 1 0
29.252947 -42.863125 1.2075431 27 3198370625304 1 0
18.436264 -33.66813 0.4468779 5 3198370627608 1 0
12.791613 -18.74858 -1.5870993 4 3198370627608 1 0
10.503898 -17.143042 -1.6412841 3 3198370629912 1 0
29.494177 -39.00301 1.4231089 22 3198370629912 1 0
29.129105 -47.555336 0.97342545 37 3198370632216 1 0
13.001352 -23.766327 -1.5776604 7 3198370634520 1 0
14.55915 -19.258505 -1.5472608 4 3198370632216 1 0
0 0 0 3 3198370634520 1 0
40.09917 -65.50538 3.1290872 58 3198370636824 1 0
17.737555 -26.028704 -1.4672194 14 3198370636824 1 0
15.906839 -25.99323 -1.597084 39 3198370639128 1 0
22.793339 -33.457672 4.9708066 8 3198370639128 1 0
0 0 0 8 3198370641432 1 0
19.722744 -26.118784 -1.3334076 30 3198370641432 1 0
14.719582 -26.942585 -1.0721126 39 3198370643736 1 0
0 0 0 9 3198370643736 1 0
16.94263 -27.711603 5.9220424 33 3198370646040 1 0
17.87259 -26.258032 -0.7391165 52 3198370646040 1 0
0 0 0 4 3198370666776 1 0
15.858142 -26.019361 -0.8867958 46 3198370669080 1 0
29.658777 -39.401432 -0.8608225 17 3198370666776 1 0
3.3741918 -4.972203 -1.6821502 2 3198370669080 1 0
4.387701 -7.201627 -1.6866087 3 3198370671384 1 0
29.468878 -43.43956 0 40 3198370671384 1 0
0 0 0 72 3198370673688 1 0
5.960835 -8.789652 -1.6522627 7 3198370673688 1 0
5.876889 -9.652497 -1.4384476 51 3198370675992 1 0
29.612276 -39.389713 0.2864111 82 3198370675992 1 0
16.202217 -26.620485 -0.18112248 45 3198370678296 1 0
6.508313 -9.603258 -1.2496084 17 3198370678296 1 0
8.62304 -15.870103 -1.6860054 2 3198370680600 1 0
29.243717 -43.164387 1.2132193 27 3198370680600 1 0
12.734169 -18.802103 -1.5879364 4 3198370682904 1 0
18.349716 -33.78367 0.44757637 5 3198370682904 1 0
10.444993 -17.178995 -1.6412841 3 3198370685208 1 0
29.482561 -39.267082 1.4290434 22 3198370685208 1 0
29.149881 -47.95963 0.97963846 37 3198370687512 1 0
14.490282 -19.305384 -1.5470049 4 3198370687512 1 0
12.936145 -23.84278 -1.5797535 7 3198370689816 1 0
0 0 0 3 3198370689816 1 0
17.66264 -26.113373 -1.4685223 9 3198370692120 1 0
39.78201 -65.49749 3.1220856 58 3198370692120 1 0
15.737229 -25.91885 -1.589129 34 3198370694424 1 0
22.663069 -33.517296 4.9678817 8 3198370694424 1 0
0 0 0 8 3198370696728 1 0
19.638264 -26.19735 -1.3338962 10 3198370696728 1 0
14.457085 -26.68492 -1.0598279 48 3198370699032 1 0
0 0 0 9 3198370699032 1 0
16.818054 -27.72757 5.912715 38 3198370701336 1 0
17.755053 -26.284584 -0.7380929 48 3198370701336 1 0
0 0 0 4 3198370722072 1 0
29.473475 -39.455402 -0.8596357 8 3198370722072 1 0
15.78768 -26.118256 -0.8881922 41 3198370724376 1 0
3.3516788 -4.9781218 -1.6799936 2 3198370724376 1 0
4.36341 -7.220954 -1.6873932 3 3198370726680 1 0
29.428474 -43.72272 0 20 3198370726680 1 0
16.654446 -30.88545 -0.4085089 54 3198370728984 1 0
5.926565 -8.808032 -1.6516477 7 3198370728984 1 0
5.8212414 -9.639835 -1.4333969 53 3198370731288 1 0
29.614765 -39.692688 0.28782922 103 3198370731288 1 0
0 0 0 19 3198370733592 1 0
6.4822984 -9.640014 -1.2513219 28 3198370733592 1 0
8.573064 -15.915253 -1.6874925 2 3198370735896 1 0
29.232216 -43.48573 1.2192677 28 3198370735896 1 0
18.297657 -33.98007 0.44929925 5 3198370738200 1 0
10.393255 -17.23363 -1.6429114 3 3198370740504 1 0
29.474522 -39.552708 1.4355596 23 3198370740504 1 0
12.672807 -18.85794 -1.5887735 4 3198370738200 1 0
29.129854 -48.317707 0.9848044 25 3198370742808 1 0
14.425464 -19.363823 -1.5475166 4 3198370742808 1 0
12.850408 -23.889097 -1.5797535 7 3198370745112 1 0
0 0 0 3 3198370745112 1 0
39.449993 -65.4788 3.1144326 29 3198370747416 1 0
17.577812 -26.189798 -1.4692668 14 3198370747416 1 0
22.529728 -33.57839 4.964957 8 3198370749720 1 0
15.603175 -25.906553 -1.5849421 19 3198370749720 1 0
0 0 0 8 3198370752024 1 0
20.582426 -27.662113 -1.4047269 11 3198370752024 1 0
14.496217 -26.986301 -1.0697393 39 3198370754328 1 0
0 0 0 9 3198370754328 1 0
16.695 -27.74674 5.9041057 38 3198370756632 1 0
17.639202 -26.314339 -0.7371624 43 3198370756632 1 0
0 0 0 4 3198370777368 1 0
19.315641 -26.046501 -0.56601644 4 3198370777368 1 0
15.661455 -26.114914 -0.886214 41 3198370779672 1 0
3.3364217 -4.9929934 -1.681072 2 3198370779672 1 0
4.3381777 -7.236141 -1.6873932 3 3198370781976 1 0
25.549559 -38.24725 0 70 3198370781976 1 0
14.41527 -26.957754 -0.3558912 30 3198370784280 1 0
5.900173 -8.835239 -1.6528776 8 3198370784280 1 0
5.781439 -9.649885 -1.4318817 55 3198370786584 1 0
29.592688 -39.95332 0.28896835 103 3198370786584 1 0
18.9266 -31.601091 -0.21408765 85 3198370788888 1 0
6.4375706 -9.646042 -1.24918 14 3198370788888 1 0
8.515581 -15.941568 -1.6871207 2 3198370791192 1 0
29.208967 -43.78044 1.2246648 28 3198370791192 1 0
18.275019 -34.22367 0.451674 5 3198370793496 1 0
12.611331 -18.9087 -1.5893315 4 3198370793496 1 0
10.341223 -17.283487 -1.6442133 3 3198370795800 1 0
29.455173 -39.81607 1.4413778 23 3198370795800 1 0
18.897438 -31.594086 0.6425976 100 3198370798104 1 0
14.362531 -19.420477 -1.5480282 4 3198370798104 1 0
12.76882 -23.937332 -1.579986 7 3198370800408 1 0
0 0 0 3 3198370800408 1 0
0 0 0 13 3198370802712 1 0
17.499577 -26.27095 -1.4703835 10 3198370802712 1 0
22.423384 -33.673347 4.9673944 8 3198370805016 1 0
15.514698 -25.96429 -1.5851514 34 3198370805016 1 0
0 0 0 59 3198370807320 1 0
20.492867 -27.743435 -1.4052153 16 3198370807320 1 0
14.349305 -26.937948 -1.0658306 39 3198370809624 1 0
0 0 0 9 3198370809624 1 0
16.577875 -27.771057 5.8969307 33 3198370811928 1 0
17.527306 -26.345787 -0.7363249 39 3198370811928 1 0
0 0 0 4 3198370832664 1 0
19.21275 -26.097664 -0.5656674 4 3198370832664 1 0
15.521326 -26.086843 -0.88342136 46 3198370834968 1 0
4.312998 -7.2511773 -1.6873932 3 3198370837272 1 0
29.430391 -44.390087 0 41 3198370837272 1 0
16.461584 -31.04301 -0.40906766 36 3198370839576 1 0
5.871673 -8.858948 -1.6534925 8 3198370839576 1 0
5.7439456 -9.663018 -1.4308715 42 3198370841880 1 0
29.591646 -40.24242 0.2903167 99 3198370841880 1 0
3.31688 -5.001375 -1.6799936 2 3198370834968 1 0
18.790762 -31.621578 -0.21378544 90 3198370844184 1 0
6.4086046 -9.674853 -1.2500367 12 3198370844184 1 0
8.468037 -15.984904 -1.6886078 2 3198370846488 1 0
18.245167 -34.45246 0.45386255 5 3198370848792 1 0
29.201393 -44.097588 1.2307131 28 3198370846488 1 0
12.54181 -18.945314 -1.5887735 4 3198370848792 1 0
10.292012 -17.336021 -1.6458405 3 3198370851096 1 0
29.457977 -40.107067 1.4482431 23 3198370851096 1 0
18.760534 -31.61048 0.6416203 100 3198370853400 1 0
14.29829 -19.472776 -1.5482842 4 3198370853400 1 0
12.698133 -24.002012 -1.5813813 7 3198370855704 1 0
0 0 0 3 3198370855704 1 0
18.747265 -31.608019 1.4972137 65 3198370858008 1 0
17.423096 -26.350481 -1.4715003 10 3198370858008 1 0
15.446614 -26.051302 -1.5872449 43 3198370860312 1 0
22.297705 -33.73291 4.964957 8 3198370860312 1 0
18.73255 -31.60311 2.9990945 32 3198370862616 1 0
20.403255 -27.819317 -1.405541 16 3198370862616 1 0
14.24673 -26.965214 -1.064993 43 3198370864920 1 0
16.46582 -27.796488 5.8904734 33 3198370867224 1 0
0 0 0 9 3198370864920 1 0
17.407263 -26.358189 -0.7350222 35 3198370867224 1 0
0 0 0 4 3198370887960 1 0
15.406271 -26.089972 -0.88179225 45 3198370890264 1 0
0 0 0 65 3198370887960 1 0
3.3002765 -5.0123467 -1.6799936 2 3198370890264 1 0
4.290922 -7.2688174 -1.6881776 5 3198370892568 1 0
29.384192 -44.64113 0 41 3198370892568 1 0
16.325033 -31.033712 -0.4082295 76 3198370894872 1 0
5.8400908 -8.875069 -1.6528776 8 3198370894872 1 0
0 0 0 22 3198370897176 1 0
29.601929 -40.53738 0.2917348 30 3198370897176 1 0
18.659384 -31.638927 -0.21348321 95 3198370899480 1 0
6.374301 -9.692729 -1.2496084 6 3198370899480 1 0
8.409425 -16.002321 -1.6874925 2 3198370901784 1 0
29.189005 -44.39801 1.2363894 19 3198370901784 1 0
18.15872 -34.565887 0.45456102 5 3198370904088 1 0
12.481108 -18.990135 -1.5890524 4 3198370904088 1 0
10.238516 -17.376926 -1.6464915 3 3198370906392 1 0
29.442623 -40.366047 1.4540613 23 3198370906392 1 0
18.63937 -31.644949 0.6410618 100 3198370908696 1 0
14.240693 -19.52976 -1.5490516 4 3198370908696 1 0
12.624037 -24.054598 -1.582079 7 3198370911000 1 0
0 0 0 3 3198370911000 1 0
18.628155 -31.645903 1.496074 72 3198370913304 1 0
17.36193 -26.448196 -1.4737338 10 3198370913304 1 0
15.313545 -26.0232 -1.58243 47 3198370915608 1 0
22.13344 -33.727005 4.9532576 8 3198370915608 1 0
18.605412 -31.627256 2.9955144 32 3198370917912 1 0
19.023813 -26.119667 -1.3164735 10 3198370917912 1 0
0 0 0 9 3198370920216 1 0
14.008774 -26.72905 -1.0538253 38 3198370920216 1 0
16.359592 -27.82719 5.8854513 38 3198370922520 1 0
17.297834 -26.382326 -0.73409164 35 3198370922520 1 0
0 0 0 4 3198370943256 1 0
0 0 0 7 3198370943256 1 0
15.301285 -26.109982 -0.880745 45 3198370945560 1 0
3.2836003 -5.0232873 -1.6799936 2 3198370945560 1 0
4.2706537 -7.2898374 -1.6897466 4 3198370947864 1 0
29.419146 -45.02002 0 31 3198370947864 1 0
16.236155 -31.1164 -0.40860203 43 3198370950168 1 0
5.816919 -8.90444 -1.6547223 7 3198370950168 1 0
5.669426 -9.683945 -1.4283462 3 3198370952472 1 0
0 0 0 10 3198370952472 1 0
18.537046 -31.673687 -0.21329723 95 3198370954776 1 0
6.3504667 -9.727365 -1.2513219 2 3198370954776 1 0
8.362976 -16.044611 -1.6889796 2 3198370957080 1 0
29.19048 -44.726894 1.24281 29 3198370957080 1 0
18.084743 -34.708416 0.455632 5 3198370959384 1 0
10.193908 -17.435467 -1.6487697 3 3198370961688 1 0
29.442274 -40.652985 1.4608103 24 3198370961688 1 0
18.508036 -31.666363 0.6402241 100 3198370963992 1 0
12.419277 -19.035395 -1.5893315 4 3198370959384 1 0
14.183934 -19.590736 -1.5500749 4 3198370963992 1 0
12.546135 -24.104324 -1.5825442 7 3198370966296 1 0
0 0 0 3 3198370966296 1 0
18.500416 -31.674473 1.4944457 72 3198370968600 1 0
15.214819 -26.057919 -1.5813832 47 3198370970904 1 0
22.007692 -33.785503 4.95082 8 3198370970904 1 0
17.278553 -26.51705 -1.4742922 15 3198370968600 1 0
18.473318 -31.649212 2.9916089 40 3198370973208 1 0
20.232054 -27.978605 -1.4066808 16 3198370973208 1 0
13.832529 -26.61361 -1.0474037 63 3198370975512 1 0
16.236425 -27.835474 5.8754063 38 3198370977816 1 0
17.185556 -26.407904 -0.73316115 43 3198370977816 1 0
0 0 0 9 3198370975512 1 0
0 0 0 4 3198370998552 1 0
28.932304 -40.145157 -0.8637545 8 3198370998552 1 0
15.189955 -26.128668 -0.8795814 50 3198371000856 1 0
3.2702384 -5.0411816 -1.6821502 2 3198371000856 1 0
29.40546 -45.34394 0 31 3198371003160 1 0
17.485636 -33.798157 -0.44301307 28 3198371005464 1 0
4.2432103 -7.301309 -1.6889621 4 3198371003160 1 0
5.6236315 -9.683087 -1.4253157 3 3198371007768 1 0
5.783651 -8.921373 -1.6541073 8 3198371005464 1 0
18.40428 -31.70015 -0.21304151 90 3198371010072 1 0
29.576502 -41.089394 0.29424557 93 3198371007768 1 0
6.309986 -9.739459 -1.2500367 4 3198371010072 1 0
8.308748 -16.077244 -1.6893514 2 3198371012376 1 0
29.16678 -45.03326 1.2484862 29 3198371012376 1 0
0 0 0 39 3198371014680 1 0
10.1409855 -17.48474 -1.6500715 3 3198371016984 1 0
12.3592615 -19.088678 -1.5901686 4 3198371014680 1 0
29.416885 -40.91783 1.4666283 24 3198371016984 1 0
18.377327 -31.696177 0.639526 100 3198371019288 1 0
14.115463 -19.64013 -1.5500749 4 3198371019288 1 0
12.50587 -24.233137 -1.5881255 7 3198371021592 1 0
0 0 0 3 3198371021592 1 0
18.367699 -31.700817 1.4926546 72 3198371023896 1 0
17.135984 -26.500029 -1.4700112 15 3198371023896 1 0
15.121765 -26.107414 -1.5811739 47 3198371026200 1 0
18.342752 -31.679003 2.9883544 48 3198371028504 1 0
21.891779 -33.86545 4.951308 8 3198371026200 1 0
20.150581 -28.071785 -1.4078206 16 3198371028504 1 0
13.8036375 -26.786104 -1.0522896 42 3198371030808 1 0
0 0 0 9 3198371030808 1 0
16.119453 -27.85792 5.868232 38 3198371033112 1 0
17.069407 -26.43078 -0.73213756 48 3198371033112 1 0
26.53015 -37.084263 -0.79589957 7 3198371054296 1 0
0 0 0 4 3198371054296 1 0
15.078492 -26.147005 -0.8784178 50 3198371056600 1 0
3.2484148 -5.046112 -1.6799936 2 3198371056600 1 0
4.2195506 -7.3195357 -1.6897466 5 3198371058904 1 0
29.389206 -45.668736 0 31 3198371058904 1 0
17.350386 -33.827335 -0.442594 52 3198371061208 1 0
5.756556 -8.948281 -1.6553372 8 3198371061208 1 0
5.585553 -9.695945 -1.4243056 3 3198371063512 1 0
29.57819 -41.39828 0.29571018 55 3198371063512 1 0
18.272398 -31.730202 -0.21280903 85 3198371065816 1 0
6.277746 -9.764999 -1.2504652 4 3198371065816 1 0
8.293642 -16.188034 -1.6979022 2 3198371068120 1 0
20.418255 -39.86859 0.52147394 47 3198371070424 1 0
29.119862 -45.310993 1.253325 29 3198371068120 1 0
10.084835 -17.530985 -1.651048 3 3198371072728 1 0
12.29158 -19.13233 -1.5901686 4 3198371070424 1 0
29.413157 -41.220505 1.4737265 24 3198371072728 1 0
14.050168 -19.696701 -1.5505866 4 3198371075032 1 0
18.242565 -31.72319 0.63875806 100 3198371075032 1 0
12.432169 -24.302431 -1.5897534 7 3198371077336 1 0
0 0 0 3 3198371077336 1 0
18.22452 -31.714222 1.4902121 65 3198371079640 1 0
17.10814 -26.6653 -1.4757811 15 3198371079640 1 0
15.008361 -26.126715 -1.5790805 42 3198371081944 1 0
21.75761 -33.92351 4.948383 8 3198371081944 1 0
20.047491 -28.140594 -1.4076577 16 3198371084248 1 0
13.83643 -27.088282 -1.062201 43 3198371086552 1 0
0 0 0 9 3198371086552 1 0
18.209206 -31.709988 2.9850998 39 3198371084248 1 0
16.003399 -27.88846 5.862492 33 3198371088856 1 0
16.948263 -26.451649 -0.7310209 43 3198371088856 1 0
0 0 0 4 3198371109592 1 0
29.605045 -41.704575 -0.89272547 18 3198371109592 1 0
15.018473 -26.264463 -0.8805123 45 3198371111896 1 0
4.192802 -7.334891 -1.6897466 4 3198371114200 1 0
29.37941 -46.021847 0 32 3198371114200 1 0
3.2257886 -5.051468 -1.677837 2 3198371111896 1 0
17.212526 -33.8618 -0.44222146 52 3198371116504 1 0
5.7260423 -8.9725275 -1.6559521 8 3198371116504 1 0
5.5522294 -9.719636 -1.4248106 10 3198371118808 1 0
29.547768 -41.675232 0.29691905 43 3198371118808 1 0
18.198788 -31.869242 -0.21329723 35 3198371121112 1 0
6.2465463 -9.794422 -1.2513219 7 3198371121112 1 0
8.236765 -16.221516 -1.698274 2 3198371123416 1 0
29.091011 -45.628586 1.2591872 20 3198371123416 1 0
0 0 0 21 3198371125720 1 0
12.228785 -19.186724 -1.5910057 4 3198371125720 1 0
10.027461 -17.577635 -1.6520243 3 3198371128024 1 0
29.3983 -41.515587 1.4804754 24 3198371128024 1 0
18.163914 -31.851189 0.64001465 36 3198371130328 1 0
14.043754 -19.838375 -1.5577499 6 3198371130328 1 0
12.361035 -24.378992 -1.5918463 7 3198371132632 1 0
50.42805 -79.196846 5.467859 28 3198371132632 1 0
18.136427 -31.824497 1.4923289 29 3198371134936 1 0
0 0 0 100 3198371134936 1 0
14.889081 -26.135124 -1.576359 28 3198371137240 1 0
21.627571 -33.987743 4.946433 8 3198371137240 1 0
18.11954 -31.816378 2.9890053 16 3198371139544 1 0
19.935347 -28.19568 -1.4068437 16 3198371139544 1 0
13.732593 -27.12315 -1.0616426 39 3198371141848 1 0
0 0 0 9 3198371141848 1 0
15.888553 -27.917833 5.856752 33 3198371144152 1 0
16.834784 -26.481379 -0.7301834 39 3198371144152 1 0
0 0 0 94 3198371164888 1 0
0 0 0 4 3198371164888 1 0
14.865741 -26.208805 -0.8769051 40 3198371167192 1 0
3.2184818 -5.078942 -1.6832286 2 3198371167192 1 0
4.1672797 -7.3494215 -1.6897466 5 3198371169496 1 0
29.360537 -46.34671 0 32 3198371169496 1 0
17.07696 -33.885586 -0.44175583 48 3198371171800 1 0
5.694884 -8.992336 -1.6559521 9 3198371171800 1 0
29.539158 -41.970253 0.29829067 28 3198371174104 1 0
5.512682 -9.72844 -1.4232954 56 3198371174104 1 0
18.285744 -32.27995 -0.215622 20 3198371176408 1 0
6.223311 -9.832744 -1.2534639 11 3198371176408 1 0
8.1808 -16.249811 -1.698274 2 3198371178712 1 0
29.074675 -45.951626 1.2653288 30 3198371178712 1 0
20.005257 -39.750816 0.51807475 60 3198371181016 1 0
12.164848 -19.232046 -1.5912846 4 3198371181016 1 0
9.978848 -17.632769 -1.653977 3 3198371183320 1 0
29.388992 -41.805965 1.4872245 24 3198371183320 1 0
18.25952 -32.275234 0.64727485 25 3198371185624 1 0
13.97572 -19.886362 -1.5577499 6 3198371185624 1 0
12.2776375 -24.421099 -1.5918463 7 3198371187928 1 0
0 0 0 3 3198371187928 1 0
18.23235 -32.247997 1.5092632 22 3198371190232 1 0
16.383387 -25.933071 -1.4288777 14 3198371190232 1 0
14.758772 -26.11262 -1.5719628 28 3198371192536 1 0
21.505411 -34.051083 4.9449706 8 3198371192536 1 0
18.209461 -32.228302 3.0218766 16 3198371194840 1 0
19.81192 -28.223965 -1.4048897 16 3198371194840 1 0
13.633424 -27.155241 -1.0610843 39 3198371197144 1 0
0 0 0 9 3198371197144 1 0
15.778577 -27.943989 5.851012 22 3198371199448 1 0
16.730202 -26.514482 -0.72953206 30 3198371199448 1 0
0 0 0 4 3198371220184 1 0
29.602503 -42.30818 -0.90131205 27 3198371220184 1 0
14.753063 -26.212769 -0.8753924 45 3198371222488 1 0
3.1954317 -5.0798287 -1.6799936 2 3198371222488 1 0
4.1466246 -7.370097 -1.6913155 5 3198371224792 1 0
29.35506 -46.68127 0 32 3198371224792 1 0
16.949453 -33.913776 -0.4413833 36 3198371227096 1 0
5.660629 -9.004602 -1.6547223 8 3198371227096 1 0
5.4684396 -9.726074 -1.420265 58 3198371229400 1 0
0 0 0 5 3198371229400 1 0
29.236746 -52.01769 -0.34680852 21 3198371231704 1 0
6.1818495 -9.840081 -1.2517503 14 3198371231704 1 0
8.129717 -16.28433 -1.6990175 2 3198371234008 1 0
29.06262 -46.275944 1.2715633 30 3198371234008 1 0
19.87666 -39.828686 0.51821446 13 3198371236312 1 0
12.106389 -19.283035 -1.5921217 4 3198371236312 1 0
9.931005 -17.687197 -1.6559298 3 3198371238616 1 0
29.380486 -42.09506 1.4939735 24 3198371238616 1 0
18.261854 -32.535587 0.651254 6 3198371240920 1 0
13.910678 -19.93678 -1.5580057 6 3198371240920 1 0
12.200152 -24.473286 -1.5925441 7 3198371243224 1 0
0 0 0 3 3198371243224 1 0
28.774641 -51.30028 2.396356 53 3198371245528 1 0
16.82375 -26.83149 -1.4752227 10 3198371245528 1 0
14.76359 -26.329939 -1.5820113 47 3198371247832 1 0
21.38729 -34.120712 4.944483 8 3198371247832 1 0
18.251482 -32.561478 3.0472622 8 3198371250136 1 0
13.253721 -26.62551 -1.038609 37 3198371252440 1 0
18.248531 -26.186243 -1.3003534 9 3198371250136 1 0
0 0 0 9 3198371252440 1 0
15.661616 -27.960106 5.84312 21 3198371254744 1 0
16.269995 -25.981903 -0.71334094 76 3198371254744 1 0
0 0 0 4 3198371275480 1 0
29.589241 -42.605064 -0.90543085 27 3198371275480 1 0
14.63419 -26.21523 -0.87376326 50 3198371277784 1 0
3.2572243 -5.218389 -1.7220474 2 3198371277784 1 0
4.120873 -7.3845267 -1.6913155 3 3198371280088 1 0
29.316868 -46.983673 0 32 3198371280088 1 0
16.820314 -33.951233 -0.44110394 40 3198371282392 1 0
5.6312547 -9.02766 -1.6553372 8 3198371282392 1 0
5.428658 -9.734707 -1.4187498 54 3198371284696 1 0
18.178785 -26.207867 0.1853768 9 3198371284696 1 0
29.185484 -52.353508 -0.3483661 31 3198371287000 1 0
8.078124 -16.323318 -1.7001328 2 3198371289304 1 0
29.048956 -46.614677 1.2780769 30 3198371289304 1 0
0 0 0 43 3198371291608 1 0
6.1432557 -9.854851 -1.2508935 12 3198371287000 1 0
12.034785 -19.318403 -1.5915637 4 3198371291608 1 0
9.867265 -17.718271 -1.6556042 3 3198371293912 1 0
29.369982 -42.394558 1.5009552 24 3198371293912 1 0
31.882343 -57.269505 1.14411 18 3198371296216 1 0
12.119958 -24.526464 -1.5932417 7 3198371298520 1 0
13.845547 -19.991781 -1.5585173 6 3198371296216 1 0
0 0 0 3 3198371298520 1 0
28.552649 -51.323574 2.3927739 79 3198371300824 1 0
0 0 0 42 3198371300824 1 0
14.6230545 -26.294039 -1.5767777 23 3198371303128 1 0
0 0 0 8 3198371305432 1 0
18.145645 -26.233347 -1.2995392 19 3198371305432 1 0
21.270153 -34.198532 4.9449706 8 3198371303128 1 0
13.148318 -26.646517 -1.0376319 49 3198371307736 1 0
0 0 0 9 3198371307736 1 0
16.136992 -25.970606 -0.7114799 61 3198371310040 1 0
15.544811 -27.980206 5.835945 21 3198371310040 1 0
0 0 0 4 3198371330776 1 0
18.045544 -26.178051 -0.55498654 13 3198371330776 1 0
14.528844 -26.241774 -0.87294877 50 3198371333080 1 0
3.1659377 -5.1118603 -1.6832286 2 3198371333080 1 0
4.096863 -7.4023576 -1.6920999 6 3198371335384 1 0
29.341505 -47.39223 0 33 3198371335384 1 0
5.6015906 -9.050745 -1.6559521 8 3198371337688 1 0
16.685091 -33.97779 -0.44068485 48 3198371337688 1 0
18.029722 -26.189322 0.1847956 45 3198371339992 1 0
18.563513 -33.57752 -0.22299151 5 3198371342296 1 0
6.1021833 -9.866309 -1.2496084 12 3198371342296 1 0
5.3886 -9.743337 -1.4172345 55 3198371339992 1 0
8.0151205 -16.34104 -1.6990175 2 3198371344600 1 0
29.018614 -46.93474 1.2840323 31 3198371344600 1 0
0 0 0 21 3198371346904 1 0
0 0 0 17 3198371346904 1 0
9.81396 -17.770628 -1.6572316 3 3198371349208 1 0
29.357525 -42.699497 1.5080533 24 3198371349208 1 0
31.371153 -56.825817 1.1330103 18 3198371351512 1 0
13.787932 -20.060629 -1.5600523 6 3198371351512 1 0
12.083417 -24.673498 -1.5999858 7 3198371353816 1 0
40.740955 -65.98455 4.516239 28 3198371353816 1 0
28.353764 -51.3972 2.3914714 79 3198371356120 1 0
16.105007 -26.092777 -1.4283193 57 3198371356120 1 0
14.526954 -26.342691 -1.5765684 42 3198371358424 1 0
21.078861 -34.162918 4.9288836 7 3198371358424 1 0
0 0 0 8 3198371360728 1 0
17.983624 -26.19938 -1.2946544 39 3198371360728 1 0
13.02441 -26.63612 -1.0353982 49 3198371363032 1 0
0 0 0 9 3198371363032 1 0
15.4288 -28.008408 5.8302054 21 3198371365336 1 0
16.026613 -26.001293 -0.71073544 61 3198371365336 1 0
0 0 0 4 3198371386072 1 0
17.935928 -26.224209 -0.5545677 9 3198371386072 1 0
14.40409 -26.242064 -0.8712033 48 3198371388376 1 0
3.1492712 -5.126666 -1.6843069 2 3198371388376 1 0
4.071807 -7.420644 -1.6928844 6 3198371390680 1 0
29.323885 -47.750843 0 33 3198371390680 1 0
16.549679 -34.012817 -0.4403589 52 3198371392984 1 0
5.347697 -9.752273 -1.4157193 39 3198371395288 1 0
17.912579 -26.221155 0.18456313 31 3198371395288 1 0
5.5708437 -9.074341 -1.656567 8 3198371392984 1 0
0 0 0 47 3198371397592 1 0
6.0708594 -9.894947 -1.2504652 7 3198371397592 1 0
7.9653077 -16.387522 -1.7008765 2 3198371399896 1 0
29.017761 -47.31097 1.2914765 31 3198371399896 1 0
11.913913 -19.430635 -1.5937959 27 3198371402200 1 0
9.758493 -17.81933 -1.6585335 3 3198371404504 1 0
25.071629 -51.599552 0.66787225 10 3198371402200 1 0
29.343273 -43.00488 1.5151514 24 3198371404504 1 0
30.970385 -56.571495 1.1257501 35 3198371406808 1 0
13.723695 -20.119127 -1.5608197 6 3198371406808 1 0
39.88268 -65.105995 4.446472 28 3198371409112 1 0
28.125477 -51.408615 2.3874006 79 3198371411416 1 0
15.996754 -26.121809 -1.4268304 66 3198371411416 1 0
14.440662 -26.403753 -1.5771964 61 3198371413720 1 0
20.816448 -34.00265 4.895248 7 3198371413720 1 0
0 0 0 8 3198371416024 1 0
17.865438 -26.222101 -1.2927004 43 3198371416024 1 0
12.909463 -26.634281 -1.0335835 57 3198371418328 1 0
0 0 0 9 3198371418328 1 0
11.998241 -24.719467 -1.6002184 7 3198371409112 1 0
15.311408 -28.023438 5.8223133 21 3198371420632 1 0
15.9076805 -26.008621 -0.7094327 66 3198371420632 1 0
0 0 0 4 3198371441368 1 0
29.525675 -43.47835 -0.9173683 18 3198371441368 1 0
14.328271 -26.310858 -0.8719015 43 3198371443672 1 0
3.132216 -5.137104 -1.6843069 2 3198371443672 1 0
4.045193 -7.43072 -1.6920999 4 3198371445976 1 0
16.173918 -26.535301 0 8 3198371445976 1 0
5.540523 -9.092885 -1.656567 8 3198371448280 1 0
16.418674 -34.031845 -0.43989325 52 3198371448280 1 0
0 0 0 22 3198371450584 1 0
17.800066 -26.244516 0.18430741 22 3198371450584 1 0
18.280188 -33.61427 -0.22238706 47 3198371452888 1 0
6.0438576 -9.925434 -1.2517503 4 3198371452888 1 0
7.9136624 -16.421368 -1.70162 2 3198371455192 1 0
29.035385 -47.69854 1.2993859 31 3198371455192 1 0
24.856089 -51.597195 0.66675466 30 3198371457496 1 0
11.852571 -19.477457 -1.5943539 27 3198371457496 1 0
9.700213 -17.85566 -1.6588589 3 3198371459800 1 0
29.33478 -43.305576 1.5222495 25 3198371459800 1 0
30.38 -55.941357 1.1111598 51 3198371462104 1 0
13.666773 -20.181946 -1.562099 6 3198371462104 1 0
11.914402 -24.759985 -1.6002184 7 3198371464408 1 0
39.578842 -65.104294 4.43717 28 3198371464408 1 0
27.925941 -51.45817 2.3852837 52 3198371466712 1 0
15.8871975 -26.14184 -1.4249691 61 3198371466712 1 0
14.341193 -26.435192 -1.5761497 33 3198371469016 1 0
20.787182 -34.21581 4.915722 7 3198371469016 1 0
0 0 0 8 3198371471320 1 0
17.75127 -26.246464 -1.2909093 42 3198371471320 1 0
12.832204 -26.707075 -1.0347003 45 3198371473624 1 0
0 0 0 9 3198371473624 1 0
15.2040825 -28.05496 5.8180084 21 3198371475928 1 0
15.79153 -26.018515 -0.70822304 66 3198371475928 1 0
25.803997 -38.284817 -0.80588233 7 3198371496664 1 0
14.355845 -26.582453 -0.8792323 45 3198371498968 1 0
3.1162212 -5.1513247 -1.6853851 2 3198371498968 1 0
4.0228486 -7.451756 -1.693669 5 3198371501272 1 0
0 0 0 4 3198371496664 1 0
29.350733 -48.53548 0 33 3198371501272 1 0
16.292137 -34.07487 -0.43970698 28 3198371503576 1 0
5.5085506 -9.11229 -1.656567 10 3198371503576 1 0
5.269319 -9.767801 -1.4126889 3 3198371505880 1 0
17.683012 -26.270506 0.18405168 31 3198371505880 1 0
18.140633 -33.639805 -0.22213134 47 3198371508184 1 0
6.0108695 -9.950093 -1.2521787 3 3198371508184 1 0
7.853859 -16.44564 -1.7012482 2 3198371510488 1 0
29.036135 -48.08156 1.3070163 32 3198371510488 1 0
24.614613 -51.562176 0.6651715 30 3198371512792 1 0
11.791764 -19.532976 -1.5954701 29 3198371512792 1 0
9.646239 -17.907522 -1.6604862 3 3198371515096 1 0
29.314749 -43.608505 1.5292312 25 3198371515096 1 0
30.129679 -55.95396 1.109275 51 3198371517400 1 0
11.831254 -24.813097 -1.600916 7 3198371519704 1 0
39.330105 -65.21756 4.4353094 28 3198371519704 1 0
27.71362 -51.504765 2.3828413 52 3198371522008 1 0
15.81232 -26.229198 -1.4266442 28 3198371522008 1 0
14.157583 -26.320993 -1.5663105 37 3198371524312 1 0
13.592691 -20.227106 -1.5618432 6 3198371517400 1 0
20.77324 -34.47019 4.9415584 7 3198371524312 1 0
0 0 0 8 3198371526616 1 0
12.928628 -27.157257 -1.0503353 42 3198371528920 1 0
17.634787 -26.276752 -1.289281 38 3198371526616 1 0
0 0 0 9 3198371528920 1 0
15.095544 -28.095642 5.8151383 21 3198371531224 1 0
15.73283 -26.133434 -0.70980495 57 3198371531224 1 0
0 0 0 4 3198371551960 1 0
29.560602 -44.207153 -0.9282586 18 3198371551960 1 0
14.094723 -26.32791 -0.8691088 48 3198371554264 1 0
3.099414 -5.165947 -1.6864635 2 3198371554264 1 0
3.9921339 -7.4593596 -1.6920999 3 3198371556568 1 0
18.947138 -31.589506 0 66 3198371556568 1 0
15.083764 -31.8416 -0.41018522 100 3198371558872 1 0
5.4777455 -9.13545 -1.6571819 13 3198371558872 1 0
5.22498 -9.769096 -1.4101635 3 3198371561176 1 0
17.560024 -26.290365 0.18374947 36 3198371561176 1 0
14.411055 -26.9527 -0.17763533 28 3198371563480 1 0
5.9774923 -9.974817 -1.2526071 7 3198371563480 1 0
7.805908 -16.494894 -1.7034789 2 3198371565784 1 0
0 0 0 8 3198371568088 1 0
11.729234 -19.584543 -1.5963072 29 3198371568088 1 0
18.933693 -31.604591 0.85729325 16 3198371565784 1 0
9.591185 -17.95515 -1.661788 5 3198371570392 1 0
29.302145 -43.920105 1.536562 25 3198371570392 1 0
29.965544 -56.114586 1.1103919 51 3198371572696 1 0
13.52909 -20.284098 -1.5626106 6 3198371572696 1 0
0 0 0 21 3198371575000 1 0
27.510698 -51.550022 2.3805618 52 3198371577304 1 0
15.55624 -26.005457 -1.4115682 9 3198371577304 1 0
14.020915 -26.280916 -1.5610769 23 3198371579608 1 0
11.754183 -24.871784 -1.6020789 7 3198371575000 1 0
20.61505 -34.47254 4.9318085 7 3198371579608 1 0
17.528101 -26.309626 -1.2879784 33 3198371581912 1 0
31.132214 -58.372868 5.400648 28 3198371581912 1 0
12.881675 -27.294535 -1.0539649 38 3198371584216 1 0
0 0 0 9 3198371584216 1 0
14.979466 -28.104202 5.806529 26 3198371586520 1 0
15.698838 -26.275059 -0.7122243 45 3198371586520 1 0
0 0 0 4 3198371607256 1 0
29.490168 -44.40308 -0.93042266 28 3198371607256 1 0
13.984912 -26.323034 -0.86747974 53 3198371609560 1 0
3.0810478 -5.172439 -1.6853851 2 3198371609560 1 0
3.9774437 -7.489416 -1.6960223 4 3198371611864 1 0
18.833683 -31.629349 0 97 3198371611864 1 0
15.099918 -32.14355 -0.4134447 78 3198371614168 1 0
5.4643927 -9.18026 -1.6621011 17 3198371614168 1 0
5.1912646 -9.782562 -1.4096584 3 3198371616472 1 0
17.45217 -26.3141 0.18351698 36 3198371616472 1 0
17.86877 -33.685417 -0.22161989 42 3198371618776 1 0
5.950772 -10.004665 -1.2538923 10 3198371618776 1 0
7.7528577 -16.524294 -1.7038506 2 3198371621080 1 0
18.798128 -31.615646 0.8558974 80 3198371621080 1 0
15.062362 -32.116993 0.41297907 27 3198371623384 1 0
11.682002 -19.654541 -1.5988184 29 3198371623384 1 0
9.538011 -18.001503 -1.6630899 3 3198371625688 1 0
29.29066 -44.225407 1.5437765 25 3198371625688 1 0
29.84178 -56.34348 1.112905 51 3198371627992 1 0
13.523883 -20.426548 -1.5700297 7 3198371627992 1 0
11.670436 -24.9156 -1.6023114 7 3198371630296 1 0
18.76955 -31.61362 2.1411438 63 3198371630296 1 0
27.296568 -51.577827 2.377468 51 3198371632600 1 0
15.527307 -26.162231 -1.4171519 46 3198371632600 1 0
13.944036 -26.357944 -1.5627517 37 3198371634904 1 0
0 0 0 22 3198371634904 1 0
30.695461 -58.04507 5.3602915 28 3198371637208 1 0
12.766103 -27.300245 -1.0524292 38 3198371639512 1 0
17.41996 -26.34782 -1.2868385 28 3198371637208 1 0
0 0 0 9 3198371639512 1 0
15.476286 -26.114328 -0.706362 49 3198371641816 1 0
14.86227 -28.126305 5.8000717 26 3198371641816 1 0
0 0 0 4 3198371662552 1 0
29.477844 -44.75647 -0.935449 9 3198371662552 1 0
3.0592058 -5.1809144 -1.6843069 2 3198371664856 1 0
13.872562 -26.355309 -0.86678153 58 3198371664856 1 0
18.677532 -31.642872 0 92 3198371667160 1 0
14.956144 -32.157772 -0.41288593 50 3198371669464 1 0
5.41906 -9.184154 -1.6590266 19 3198371669464 1 0
3.9413517 -7.4907484 -1.6928844 4 3198371667160 1 0
5.155511 -9.805936 -1.4101635 8 3198371671768 1 0
17.33122 -26.35084 0.18330775 36 3198371671768 1 0
17.72813 -33.732536 -0.22148041 52 3198371674072 1 0
5.9082727 -10.02059 -1.2530354 10 3198371674072 1 0
7.69103 -16.557554 -1.7042224 2 3198371676376 1 0
18.65629 -31.653143 0.85496694 75 3198371676376 1 0
14.922086 -32.138313 0.41251343 23 3198371678680 1 0
9.466967 -18.034464 -1.6627644 3 3198371680984 1 0
29.27428 -44.571484 1.5519218 25 3198371680984 1 0
30.024754 -57.219055 1.1279141 35 3198371683288 1 0
13.451924 -20.488337 -1.5707972 7 3198371683288 1 0
11.636831 -19.75082 -1.6030037 9 3198371678680 1 0
11.579721 -24.971096 -1.6030091 7 3198371685592 1 0
18.62372 -31.644161 2.138353 63 3198371685592 1 0
27.085331 -51.65748 2.3763282 77 3198371687896 1 0
13.866833 -26.457287 -1.5654731 46 3198371690200 1 0
15.412554 -26.197552 -1.4158491 55 3198371687896 1 0
18.598736 -31.624853 4.5047784 54 3198371690200 1 0
30.457558 -58.134254 5.357688 28 3198371692504 1 0
17.290174 -26.371063 -1.2847217 38 3198371692504 1 0
12.4260645 -26.841187 -1.0328856 49 3198371694808 1 0
0 0 0 9 3198371694808 1 0
14.743213 -28.162247 5.795767 21 3198371697112 1 0
15.347543 -26.125288 -0.70505923 66 3198371697112 1 0
0 0 0 4 3198371717296 1 0
29.549004 -45.207256 -0.9427092 28 3198371717296 1 0
13.766448 -26.374815 -0.8658506 48 3198371719600 1 0
3.0432005 -5.1947966 -1.6853851 2 3198371719600 1 0
3.92106 -7.514665 -1.6952379 4 3198371721904 1 0
18.546572 -31.668827 0 97 3198371721904 1 0
12.59124 -27.315645 -0.3501638 36 3198371724208 1 0
5.3817806 -9.192311 -1.6571819 32 3198371724208 1 0
17.220339 -26.375679 0.18307528 31 3198371726512 1 0
17.605944 -33.77392 -0.22136417 15 3198371728816 1 0
5.126063 -9.830313 -1.4111737 52 3198371726512 1 0
5.884761 -10.057461 -1.2551774 14 3198371728816 1 0
7.6460757 -16.604671 -1.7064531 2 3198371731120 1 0
14.806332 -32.16539 0.41223404 27 3198371733424 1 0
18.52901 -31.676865 0.85394335 69 3198371731120 1 0
11.567819 -19.782076 -1.6024457 2 3198371733424 1 0
9.415527 -18.079353 -1.6640662 3 3198371735728 1 0
29.579437 -56.815517 1.118071 52 3198371738032 1 0
13.394421 -20.54504 -1.5718205 7 3198371738032 1 0
29.25559 -44.860867 1.5586708 25 3198371735728 1 0
18.502228 -31.669111 2.1360276 55 3198371740336 1 0
26.884512 -51.672188 2.3730717 77 3198371742640 1 0
15.3112755 -26.215237 -1.414174 78 3198371742640 1 0
13.765214 -26.46528 -1.5633796 50 3198371744944 1 0
11.511438 -25.033417 -1.604637 7 3198371740336 1 0
18.483276 -31.655699 4.500879 54 3198371744944 1 0
30.302216 -58.27829 5.362244 28 3198371747248 1 0
17.192743 -26.401306 -1.283582 42 3198371747248 1 0
0 0 0 9 3198371749552 1 0
12.306541 -26.799452 -1.0298144 41 3198371749552 1 0
14.637169 -28.168736 5.787874 26 3198371751856 1 0
15.241481 -26.12714 -0.70384955 61 3198371751856 1 0
0 0 0 4 3198371772592 1 0
29.46781 -45.39379 -0.9446639 19 3198371772592 1 0
3.02679 -5.2043753 -1.6853851 2 3198371774896 1 0
3.8972137 -7.52706 -1.6952379 5 3198371777200 1 0
13.668426 -26.38973 -0.8649198 53 3198371774896 1 0
18.425962 -31.692894 0 97 3198371777200 1 0
14.709027 -32.179222 -0.4119081 54 3198371779504 1 0
5.069054 -9.797325 -1.4041027 51 3198371781808 1 0
17.114096 -26.397081 0.1828428 18 3198371781808 1 0
17.475243 -33.7877 -0.22108519 15 3198371784112 1 0
5.8563976 -10.083202 -1.2560341 8 3198371784112 1 0
5.3485017 -9.202572 -1.6559521 29 3198371779504 1 0
7.5891137 -16.622028 -1.7057096 2 3198371786416 1 0
14.686982 -32.180496 0.41181496 37 3198371788720 1 0
18.408564 -31.705402 0.8531059 75 3198371786416 1 0
11.511609 -19.833296 -1.6035618 4 3198371788720 1 0
9.360235 -18.117018 -1.6647171 3 3198371791024 1 0
29.237495 -45.153957 1.5655361 25 3198371791024 1 0
20.466698 -39.628044 0.77851695 82 3198371793328 1 0
13.331453 -20.595465 -1.5723321 7 3198371793328 1 0
11.4290905 -25.07112 -1.604637 10 3198371795632 1 0
18.377998 -31.695211 2.133702 63 3198371795632 1 0
20.547642 -39.813168 1.8253144 57 3198371797936 1 0
15.186569 -26.199963 -1.4106375 60 3198371797936 1 0
13.675545 -26.507233 -1.5631703 46 3198371800240 1 0
0 0 0 25 3198371802544 1 0
18.348343 -31.665289 4.4935665 54 3198371800240 1 0
17.085186 -26.428215 -1.2821165 42 3198371802544 1 0
12.316187 -27.058773 -1.0381902 41 3198371804848 1 0
0 0 0 9 3198371804848 1 0
14.529827 -28.193268 5.782852 26 3198371807152 1 0
15.147604 -26.167816 -0.7035704 61 3198371807152 1 0
0 0 0 4 3198371827888 1 0
29.488947 -45.775433 -0.95045805 28 3198371827888 1 0
13.565267 -26.415941 -0.8642216 53 3198371830192 1 0
3.0105298 -5.2182455 -1.6864635 2 3198371830192 1 0
3.8709157 -7.540618 -1.6952379 5 3198371832496 1 0
18.297235 -31.725834 0 97 3198371832496 1 0
14.58506 -32.204865 -0.41158214 65 3198371834800 1 0
5.3222685 -9.231459 -1.6577969 21 3198371834800 1 0
5.031202 -9.8078985 -1.4030925 51 3198371837104 1 0
16.995876 -26.416294 0.18256383 13 3198371837104 1 0
17.340769 -33.81646 -0.22087596 26 3198371839408 1 0
5.8132234 -10.0898 -1.2543206 6 3198371839408 1 0
7.5392528 -16.666561 -1.7075684 2 3198371841712 1 0
18.27782 -31.734816 0.85217535 75 3198371841712 1 0
14.564674 -32.2097 0.41153556 41 3198371844016 1 0
11.456244 -19.897564 -1.605515 4 3198371844016 1 0
9.346013 -18.245384 -1.6735045 4 3198371846320 1 0
29.209387 -45.457565 1.5725179 25 3198371846320 1 0
20.30455 -39.652966 0.7776094 74 3198371848624 1 0
13.263796 -20.648592 -1.5728438 7 3198371848624 1 0
11.344794 -25.11814 -1.6051021 7 3198371850928 1 0
18.249332 -31.728016 2.131609 63 3198371850928 1 0
20.392157 -39.852627 1.823849 77 3198371853232 1 0
15.0810795 -26.228567 -1.4093347 64 3198371853232 1 0
13.588391 -26.565477 -1.5637984 23 3198371855536 1 0
18.217915 -31.694723 4.488692 54 3198371855536 1 0
20.369772 -39.837452 3.6526139 39 3198371857840 1 0
16.969091 -26.45069 -1.2803254 42 3198371857840 1 0
12.344912 -27.374912 -1.04866 42 3198371860144 1 0
0 0 0 9 3198371860144 1 0
14.420583 -28.22279 5.7785473 26 3198371862448 1 0
15.034265 -26.182386 -0.70254683 61 3198371862448 1 0
0 0 0 4 3198371883184 1 0
29.47331 -46.10386 -0.9551353 29 3198371883184 1 0
13.537894 -26.5916 -0.86841065 39 3198371885488 1 0
2.9883938 -5.2220798 -1.6843069 2 3198371885488 1 0
3.8443506 -7.554196 -1.6952379 4 3198371887792 1 0
18.169567 -31.762262 0 82 3198371887792 1 0
14.458051 -32.227016 -0.4112096 65 3198371890096 1 0
5.287647 -9.24678 -1.6571819 20 3198371890096 1 0
4.992767 -9.818618 -1.4020823 50 3198371892400 1 0
16.8805 -26.442728 0.18233135 9 3198371892400 1 0
17.205658 -33.84951 -0.22068998 57 3198371894704 1 0
5.773287 -10.103544 -1.2534639 6 3198371894704 1 0
7.4909725 -16.71887 -1.7101709 2 3198371897008 1 0
18.140358 -31.75834 0.8510587 75 3198371897008 1 0
11.386668 -19.942057 -1.6057941 4 3198371899312 1 0
14.437424 -32.236263 0.4112096 27 3198371899312 1 0
9.283751 -18.286087 -1.6741554 4 3198371901616 1 0
29.176336 -45.768288 1.579616 25 3198371901616 1 0
20.144522 -39.69414 0.7769811 74 3198371903920 1 0
13.203945 -20.720057 -1.5746347 7 3198371903920 1 0
11.30067 -25.264936 -1.6118462 7 3198371906224 1 0
18.108126 -31.74907 2.1285858 38 3198371906224 1 0
20.224842 -39.884033 1.821895 77 3198371908528 1 0
15.0604315 -26.415352 -1.4164073 23 3198371908528 1 0
13.413274 -26.461897 -1.5547966 9 3198371910832 1 0
18.081966 -31.72679 4.483817 47 3198371910832 1 0
20.20322 -39.873016 3.6490338 39 3198371913136 1 0
16.85019 -26.479235 -1.2786971 38 3198371913136 1 0
12.235547 -27.402079 -1.0479621 38 3198371915440 1 0
0 0 0 9 3198371915440 1 0
14.296258 -28.23746 5.770655 21 3198371917744 1 0
14.960796 -26.279667 -0.70366347 57 3198371917744 1 0
29.428823 -46.426117 -0.9594635 29 3198371938480 1 0
0 0 0 4 3198371938480 1 0
13.37345 -26.518044 -0.8643379 48 3198371940784 1 0
2.9703732 -5.23678 -1.6853851 2 3198371940784 1 0
3.813991 -7.565177 -1.6944534 5 3198371943088 1 0
18.197304 -32.09171 0 25 3198371943088 1 0
14.330524 -32.266422 -0.41102338 68 3198371945392 1 0
5.260708 -9.280311 -1.6596415 18 3198371945392 1 0
4.9543886 -9.833596 -1.4015772 48 3198371947696 1 0
29.389235 -46.417393 0.31930655 25 3198371947696 1 0
17.0607 -33.873547 -0.22043426 42 3198371950000 1 0
5.730041 -10.114423 -1.2521787 2 3198371950000 1 0
18.132223 -32.015995 0.8561766 16 3198371952304 1 0
7.429644 -16.746214 -1.7101709 2 3198371952304 1 0
14.30552 -32.25564 0.41079053 23 3198371954608 1 0
11.314081 -19.983328 -1.6057941 4 3198371954608 1 0
9.21594 -18.315893 -1.6738299 6 3198371956912 1 0
29.149971 -46.09288 1.5871795 26 3198371956912 1 0
19.982601 -39.72666 0.7762132 74 3198371959216 1 0
13.129726 -20.767166 -1.5746347 7 3198371959216 1 0
11.217408 -25.319485 -1.6127764 7 3198371961520 1 0
18.150658 -32.087715 2.1469579 16 3198371961520 1 0
20.066385 -39.919262 1.8202667 77 3198371963824 1 0
15.679345 -27.727262 -1.4837844 10 3198371963824 1 0
14.0310755 -27.921965 -1.6376967 10 3198371966128 1 0
18.05317 -31.934872 4.504291 13 3198371966128 1 0
20.040022 -39.892838 3.6444774 39 3198371968432 1 0
16.737087 -26.50361 -1.2770689 42 3198371968432 1 0
12.12201 -27.400047 -1.046287 37 3198371970736 1 0
0 0 0 9 3198371970736 1 0
14.18948 -28.26485 5.7663503 21 3198371973040 1 0
14.822105 -26.243383 -0.70133716 61 3198371973040 1 0
0 0 0 4 3198371993776 1 0
29.382963 -46.677418 -0.96274453 29 3198371993776 1 0
2.9557202 -5.249485 -1.6864635 2 3198371996080 1 0
13.257485 -26.495758 -0.8622434 48 3198371996080 1 0
3.7917397 -7.5807395 -1.6952379 5 3198371998384 1 0
18.277925 -32.473423 0 15 3198371998384 1 0
13.802152 -31.345512 -0.39873037 24 3198372000688 1 0
5.2272453 -9.290131 -1.6584117 17 3198372000688 1 0
0 0 0 30 3198372002992 1 0
29.351263 -46.687286 0.32051542 37 3198372002992 1 0
16.94637 -33.917473 -0.22036453 47 3198372005296 1 0
7.451777 -13.252703 -1.6377281 2 3198372005296 1 0
7.407602 -16.84303 -1.7176064 2 3198372007600 1 0
18.21686 -32.409027 0.8651097 16 3198372007600 1 0
