# .PCD v.7 - Point Cloud Data file format
VERSION .7
FIELDS x y z rgb timestamp_ns device_id active
SIZE 4 4 4 4 8 1 1
TYPE F F F F F U U
COUNT 1 1 1 1 1 1 1
WIDTH 1024
HEIGHT 1
VIEWPOINT 0 0 0 1 0 0 0
POINTS 1024               
DATA ascii
27.065386 8.64721 -1.3235313 4 3200250203896 1 0
26.236607 6.9859247 -1.42291 4 3200250206200 1 0
49.503006 15.807945 6.3805914 48 3200250206200 1 0
0 0 0 8 3200250208504 1 0
30.172953 11.282205 -1.3124027 5 3200250208504 1 0
32.90859 7.0509853 -1.1752754 5 3200250210808 1 0
49.45708 15.777428 13.90997 24 3200250210808 1 0
49.73285 13.218947 9.382426 14 3200250213112 1 0
41.36063 13.187931 -1.0101786 65 3200250213112 1 0
0 0 0 8 3200250233296 1 0
44.58994 16.59171 -0.8304553 16 3200250233296 1 0
39.7773 10.510855 -1.1973664 8 3200250235600 1 0
0 0 0 1 3200250235600 1 0
8.187595 2.1622367 -1.693669 1 3200250237904 1 0
0 0 0 58 3200250237904 1 0
58.35949 12.388724 -0.6945536 18 3200250240208 1 0
10.135259 3.2121732 -1.6541073 2 3200250240208 1 0
12.4541 3.2850897 -1.6394666 3 3200250242512 1 0
44.34315 16.470516 0.27492675 19 3200250242512 1 0
50.2697 13.252109 -0.30214977 28 3200250244816 1 0
13.838967 4.381562 -1.5636169 3 3200250244816 1 0
16.10702 3.4119017 -1.5369232 2 3200250247120 1 0
0 0 0 3 3200250247120 1 0
83.21831 17.615238 0.99028367 57 3200250249424 1 0
20.201849 6.3896523 -1.4816275 5 3200250249424 1 0
17.816156 4.688386 -1.5039409 3 3200250251728 1 0
42.68143 15.8250475 1.324783 13 3200250251728 1 0
50.25512 13.217001 0.9070365 21 3200250254032 1 0
21.657162 8.026271 -1.4802333 4 3200250254032 1 0
23.215582 4.9035764 -1.3818482 2 3200250256336 1 0
49.913372 15.763169 3.048345 58 3200250256336 1 0
50.402767 13.240157 2.123129 44 3200250258640 1 0
27.095406 8.552682 -1.3235313 4 3200250258640 1 0
26.245378 6.890242 -1.4220726 4 3200250260944 1 0
49.508663 15.619522 6.374254 47 3200250260944 1 0
50.23489 13.180439 4.23974 19 3200250263248 1 0
30.178415 11.164332 -1.3109373 5 3200250263248 1 0
32.8665 6.9220643 -1.1729022 5 3200250265552 1 0
49.475006 15.5930805 13.899618 24 3200250265552 1 0
49.748238 13.037286 9.376687 14 3200250267856 1 0
41.303432 13.011035 -1.0076662 29 3200250267856 1 0
0 0 0 8 3200250288592 1 0
42.703445 15.720271 -0.79429394 23 3200250288592 1 0
39.426834 10.271146 -1.1857302 8 3200250290896 1 0
0 0 0 1 3200250290896 1 0
8.187501 2.1316671 -1.6920999 2 3200250293200 1 0
41.289577 12.9340925 0 89 3200250293200 1 0
0 0 0 28 3200250295504 1 0
10.150182 3.177956 -1.6547223 3 3200250295504 1 0
12.45781 3.2395995 -1.6384565 3 3200250297808 1 0
42.69209 15.687893 0.26434907 25 3200250297808 1 0
56.06457 14.570643 -0.33667254 20 3200250300112 1 0
13.838995 4.32848 -1.5619034 3 3200250300112 1 0
16.126629 3.3572803 -1.5376667 2 3200250302416 1 0
0 0 0 1 3200250302416 1 0
85.02969 17.688784 1.0110979 28 3200250304720 1 0
20.216413 6.3167157 -1.4810694 5 3200250304720 1 0
17.824696 4.624165 -1.50329 3 3200250307024 1 0
0 0 0 13 3200250307024 1 0
55.085983 14.28211 0.9933212 25 3200250309328 1 0
21.587603 7.914897 -1.4735817 4 3200250309328 1 0
23.209099 4.8176394 -1.3804529 5 3200250311632 1 0
49.94903 15.582897 3.0471823 58 3200250311632 1 0
50.440937 13.062135 2.1228032 14 3200250313936 1 0
27.109837 8.453291 -1.3227868 4 3200250313936 1 0
26.257668 6.795584 -1.4214445 4 3200250316240 1 0
49.536354 15.43834 6.370842 47 3200250316240 1 0
67.0202 17.334684 5.651251 28 3200250318544 1 0
30.104605 11.0177145 -1.3060524 4 3200250318544 1 0
32.847404 6.7983847 -1.1713667 5 3200250320848 1 0
49.403706 15.381235 13.864419 36 3200250320848 1 0
49.648663 12.82615 9.349422 13 3200250323152 1 0
40.951492 12.743209 -0.9979887 14 3200250323152 1 0
0 0 0 8 3200250343888 1 0
42.694176 15.547848 -0.79310715 38 3200250343888 1 0
39.435337 10.126496 -1.1849157 8 3200250346192 1 0
0 0 0 1 3200250346192 1 0
8.187294 2.1011243 -1.690531 2 3200250348496 1 0
41.410896 12.813535 0 55 3200250348496 1 0
57.202473 11.726376 -0.6797927 8 3200250350800 1 0
10.149885 3.1390026 -1.6528776 2 3200250350800 1 0
12.4651985 3.1951087 -1.6379514 3 3200250353104 1 0
42.633812 15.497779 0.26365164 100 3200250353104 1 0
56.04922 14.357978 -0.33627734 20 3200250355408 1 0
13.84642 4.277798 -1.5610466 3 3200250355408 1 0
16.126545 3.298573 -1.5365514 2 3200250357712 1 0
46.267326 14.286742 1.1267735 16 3200250357712 1 0
85.16146 17.406282 1.0119361 85 3200250360016 1 0
20.211649 6.2378716 -1.4791163 5 3200250360016 1 0
17.829142 4.5589542 -1.5023136 3 3200250362320 1 0
42.62925 15.468049 1.3197794 46 3200250362320 1 0
55.10838 14.082807 0.9928325 12 3200250364624 1 0
21.600088 7.8340497 -1.4725584 4 3200250364624 1 0
23.22186 4.7357974 -1.3802204 5 3200250366928 1 0
49.96496 15.396688 3.0448568 58 3200250366928 1 0
67.641556 17.264668 2.8441362 29 3200250369232 1 0
27.100994 8.346848 -1.3209256 4 3200250369232 1 0
26.192205 6.681178 -1.4166297 4 3200250371536 1 0
49.54061 15.250148 6.364505 47 3200250371536 1 0
67.68296 17.254269 5.702022 28 3200250373840 1 0
30.101543 10.897596 -1.3042613 4 3200250373840 1 0
32.882687 6.686074 -1.1717855 5 3200250376144 1 0
49.48664 15.217775 13.872701 36 3200250376144 1 0
49.788467 12.67704 9.367359 14 3200250378448 1 0
40.91545 12.575512 -0.9960346 14 3200250378448 1 0
0 0 0 8 3200250399184 1 0
42.748188 15.398723 -0.79310715 23 3200250399184 1 0
39.4782 9.990742 -1.1851484 8 3200250401488 1 0
0 0 0 1 3200250401488 1 0
8.190776 2.0715709 -1.6897466 1 3200250403792 1 0
0 0 0 3 3200250403792 1 0
56.68627 11.414515 -0.6731806 8 3200250406096 1 0
10.14944 3.10009 -1.6510328 4 3200250406096 1 0
12.464734 3.148662 -1.6364362 3 3200250408400 1 0
42.691414 15.350218 0.2636749 43 3200250408400 1 0
56.08736 14.159306 -0.33620757 10 3200250410704 1 0
13.853661 4.227118 -1.5601898 3 3200250410704 1 0
46.64204 14.224304 1.1346829 16 3200250413008 1 0
16.114532 3.237554 -1.5343207 2 3200250413008 1 0
87.02166 17.470264 1.0333091 57 3200250415312 1 0
20.244751 6.170772 -1.4799533 5 3200250415312 1 0
17.829483 4.4927945 -1.5010118 3 3200250417616 1 0
53.40809 13.449873 0.96134835 24 3200250419920 1 0
42.69051 15.321853 1.3200121 39 3200250417616 1 0
21.612272 7.753212 -1.4715351 4 3200250419920 1 0
23.234335 4.653925 -1.3799878 5 3200250422224 1 0
49.9993 15.216371 3.043694 58 3200250422224 1 0
27.122318 8.249871 -1.3205533 4 3200250424528 1 0
26.20762 6.587762 -1.416211 8 3200250426832 1 0
49.551758 15.064423 6.3591423 47 3200250426832 1 0
68.83706 17.314093 2.8918452 29 3200250424528 1 0
68.97623 17.327763 5.8058434 28 3200250429136 1 0
0 0 0 8 3200250429136 1 0
32.894066 6.5689025 -1.1713667 5 3200250431440 1 0
49.454426 15.019118 13.848889 36 3200250431440 1 0
49.71791 12.47444 9.345836 13 3200250433744 1 0
42.990982 13.049367 -1.0454456 23 3200250433744 1 0
0 0 0 8 3200250454480 1 0
42.861958 15.270886 -0.7942241 15 3200250454480 1 0
39.50493 9.851516 -1.1849157 8 3200250456784 1 0
0 0 0 1 3200250456784 1 0
8.18648 2.04036 -1.6873932 2 3200250459088 1 0
44.367184 13.391018 0 24 3200250459088 1 0
10.156281 3.0639446 -1.6504179 4 3200250461392 1 0
12.460067 3.1020243 -1.6344159 3 3200250463696 1 0
56.992092 11.271817 -0.67634696 8 3200250461392 1 0
42.74762 15.20493 0.26369816 77 3200250463696 1 0
55.075756 13.703855 -0.329861 10 3200250466000 1 0
13.852797 4.175152 -1.5584762 3 3200250466000 1 0
16.117643 3.1811488 -1.5335771 2 3200250468304 1 0
87.07645 17.174488 1.0332625 57 3200250470608 1 0
20.246443 6.0963783 -1.4785582 5 3200250470608 1 0
43.96014 13.2430525 1.0683365 22 3200250468304 1 0
17.80972 4.4239573 -1.4980826 3 3200250472912 1 0
0 0 0 113 3200250472912 1 0
54.66402 13.571016 0.98312896 37 3200250475216 1 0
21.630676 7.677886 -1.4710234 6 3200250475216 1 0
23.238018 4.5738616 -1.3792901 2 3200250477520 1 0
50.026978 15.042129 3.0422988 58 3200250477520 1 0
69.82923 17.31656 2.931087 29 3200250479824 1 0
27.138166 8.15604 -1.3199949 4 3200250479824 1 0
26.20218 6.4940915 -1.4147456 4 3200250482128 1 0
75.99093 18.823448 6.3910165 28 3200250484432 1 0
49.567223 14.889741 6.354755 46 3200250482128 1 0
30.046783 10.647502 -1.2987251 34 3200250484432 1 0
32.87233 6.452274 -1.1698312 5 3200250486736 1 0
49.466522 14.845373 13.838536 36 3200250486736 1 0
49.777565 12.316397 9.349422 27 3200250489040 1 0
43.03346 12.908609 -1.0454456 46 3200250489040 1 0
0 0 0 8 3200250509776 1 0
42.834286 15.109548 -0.7928279 23 3200250509776 1 0
39.341698 9.679025 -1.1790975 8 3200250512080 1 0
0 0 0 1 3200250512080 1 0
8.204334 2.0172024 -1.6897466 2 3200250514384 1 0
43.18285 12.88431 0 60 3200250514384 1 0
10.154627 3.0281906 -1.6485732 4 3200250516688 1 0
57.286835 11.140621 -0.6794202 8 3200250516688 1 0
12.469929 3.062139 -1.6344159 3 3200250518992 1 0
0 0 0 86 3200250518992 1 0
68.58377 16.830984 -0.41043735 60 3200250521296 1 0
13.850899 4.1260614 -1.5567627 3 3200250521296 1 0
16.12392 3.1283321 -1.5332054 2 3200250523600 1 0
43.903023 13.071374 1.0659171 22 3200250523600 1 0
87.31624 16.927752 1.035451 28 3200250525904 1 0
20.25081 6.0261264 -1.4774421 5 3200250525904 1 0
17.808548 4.362117 -1.4967809 3 3200250528208 1 0
42.017902 14.766622 1.2961578 222 3200250528208 1 0
21.629322 7.597798 -1.4692326 6 3200250530512 1 0
72.58161 17.76732 1.3043231 25 3200250530512 1 0
23.162754 4.480012 -1.3739413 2 3200250532816 1 0
50.05701 14.871921 3.041136 39 3200250532816 1 0
70.93426 17.342194 2.975051 29 3200250535120 1 0
27.176437 8.069809 -1.3205533 4 3200250535120 1 0
26.339983 6.435609 -1.4210259 12 3200250537424 1 0
49.585876 14.716251 6.3508554 46 3200250537424 1 0
76.24685 18.617527 6.4072895 28 3200250539728 1 0
29.972706 10.509018 -1.294003 24 3200250539728 1 0
32.87803 6.339246 -1.1692728 5 3200250542032 1 0
49.482567 14.66993 13.829219 24 3200250542032 1 0
0 0 0 1 3200250544336 1 0
0 0 0 29 3200250544336 1 0
0 0 0 8 3200250565072 1 0
42.88299 14.958619 -0.7927581 15 3200250565072 1 0
39.363586 9.538813 -1.1787485 8 3200250567376 1 0
0 0 0 1 3200250567376 1 0
8.203702 1.9867053 -1.6881776 1 3200250569680 1 0
43.166172 12.715411 0 90 3200250569680 1 0
56.963924 10.871601 -0.67513627 17 3200250571984 1 0
10.157552 2.9904933 -1.6473434 3 3200250571984 1 0
12.472828 3.0167265 -1.6334057 3 3200250574288 1 0
0 0 0 223 3200250574288 1 0
68.78985 16.62719 -0.41132075 60 3200250576592 1 0
13.853771 4.0743213 -1.5554775 3 3200250576592 1 0
16.126919 3.0705404 -1.5324618 2 3200250578896 1 0
43.89467 12.902256 1.0646143 14 3200250578896 1 0
87.55554 16.657244 1.037593 28 3200250581200 1 0
20.260239 5.9520273 -1.476605 5 3200250581200 1 0
17.81204 4.297122 -1.4958044 3 3200250583504 1 0
42.04275 14.610674 1.2953433 221 3200250583504 1 0
73.74349 17.779133 1.3240792 25 3200250585808 1 0
21.64817 7.5196314 -1.4687209 4 3200250585808 1 0
23.123327 4.388707 -1.3706856 2 3200250588112 1 0
50.07413 14.686984 3.039043 58 3200250588112 1 0
72.04348 17.347095 3.0190148 29 3200250590416 1 0
27.100914 7.9445477 -1.3155279 4 3200250590416 1 0
49.610275 14.53526 6.347443 46 3200250592720 1 0
0 0 0 59 3200250592720 1 0
76.175705 18.318638 6.3958983 28 3200250595024 1 0
30.05452 10.42004 -1.295957 9 3200250595024 1 0
32.880318 6.2207255 -1.1685747 5 3200250597328 1 0
49.470436 14.478665 13.81162 36 3200250597328 1 0
0 0 0 29 3200250599632 1 0
42.575867 12.454088 -1.032232 7 3200250599632 1 0
0 0 0 8 3200250620368 1 0
39.213856 9.35773 -1.1732794 8 3200250622672 1 0
42.84799 14.778845 -0.7911525 15 3200250620368 1 0
0 0 0 1 3200250622672 1 0
8.210587 1.9580569 -1.6881776 2 3200250624976 1 0
43.16804 12.55237 0 75 3200250624976 1 0
56.521893 10.58289 -0.6694554 8 3200250627280 1 0
10.167929 2.9550188 -1.6473434 4 3200250627280 1 0
12.475562 2.9713311 -1.6323956 3 3200250629584 1 0
42.06436 14.481184 0.25856042 217 3200250629584 1 0
68.851364 16.387894 -0.411344 20 3200250631888 1 0
13.8679085 4.025938 -1.5554775 3 3200250631888 1 0
46.266796 13.424235 1.1210042 24 3200250634192 1 0
16.125793 3.0120344 -1.5313464 2 3200250634192 1 0
75.216064 14.03781 0.8907757 25 3200250636496 1 0
20.273226 5.879047 -1.476047 5 3200250636496 1 0
17.815294 4.232156 -1.4948281 3 3200250638800 1 0
42.078373 14.4586315 1.2948779 220 3200250638800 1 0
74.984146 17.801521 1.3452315 26 3200250641104 1 0
21.659185 7.4388328 -1.4676976 6 3200250641104 1 0
23.16206 4.3123503 -1.3720809 2 3200250643408 1 0
50.113586 14.508771 3.0383453 58 3200250643408 1 0
73.243034 17.365667 3.0667236 29 3200250645712 1 0
27.101612 7.842125 -1.3142251 4 3200250645712 1 0
49.61113 14.347661 6.3411055 46 3200250648016 1 0
26.205473 6.209201 -1.411396 41 3200250648016 1 0
76.27798 18.06181 6.399153 28 3200250650320 1 0
29.9357 10.2619295 -1.289281 4 3200250650320 1 0
32.8979 6.1051846 -1.1684351 5 3200250652624 1 0
49.524384 14.306965 13.8126545 36 3200250652624 1 0
0 0 0 29 3200250654928 1 0
42.546085 12.284319 -1.030464 7 3200250654928 1 0
0 0 0 8 3200250675664 1 0
39.238564 9.218677 -1.1730467 8 3200250677968 1 0
42.88796 14.625315 -0.7909431 15 3200250675664 1 0
0 0 0 1 3200250677968 1 0
8.202126 1.9256792 -1.6850398 1 3200250680272 1 0
45.691677 13.112666 0 17 3200250680272 1 0
0 0 0 28 3200250682576 1 0
10.170648 2.9171066 -1.6461135 2 3200250682576 1 0
12.478217 2.9255905 -1.6313854 3 3200250684880 1 0
0 0 0 3 3200250684880 1 0
75.49818 17.688824 -0.45067903 26 3200250687184 1 0
13.866729 3.9726195 -1.553764 3 3200250687184 1 0
16.136337 2.9550226 -1.5313464 2 3200250689488 1 0
46.383152 13.280445 1.1226791 24 3200250689488 1 0
75.06466 13.734626 0.8884009 25 3200250691792 1 0
20.290083 5.8061132 -1.475768 5 3200250691792 1 0
17.818556 4.1661825 -1.4938518 3 3200250694096 1 0
41.936337 14.243631 1.2889434 221 3200250694096 1 0
75.98166 17.753145 1.3619858 27 3200250696400 1 0
21.681723 7.3604803 -1.4674418 6 3200250696400 1 0
23.145853 4.2240524 -1.3702204 2 3200250698704 1 0
46.78992 13.365991 2.8339283 15 3200250698704 1 0
74.49168 17.381018 3.1163867 29 3200250701008 1 0
27.114073 7.740917 -1.3134806 4 3200250701008 1 0
0 0 0 17 3200250703312 1 0
49.63542 14.162439 6.337693 46 3200250703312 1 0
76.1714 17.748415 6.384833 28 3200250705616 1 0
29.93823 10.142997 -1.2878156 4 3200250705616 1 0
32.844894 5.97337 -1.1657828 5 3200250707920 1 0
49.608906 14.138489 13.821972 36 3200250707920 1 0
0 0 0 29 3200250710224 1 0
42.382347 12.07193 -1.0254393 7 3200250710224 1 0
0 0 0 8 3200250730960 1 0
41.88764 14.113028 -0.771536 22 3200250730960 1 0
39.291435 9.079871 -1.1736284 8 3200250733264 1 0
0 0 0 1 3200250733264 1 0
8.209073 1.8958427 -1.6850398 2 3200250735568 1 0
46.558846 13.178482 0 17 3200250735568 1 0
10.177341 2.879178 -1.6454986 4 3200250737872 1 0
0 0 0 28 3200250737872 1 0
12.480955 2.878779 -1.6303753 3 3200250740176 1 0
0 0 0 229 3200250740176 1 0
75.89254 17.493853 -0.45265508 26 3200250742480 1 0
13.86943 3.9195335 -1.5524788 3 3200250742480 1 0
16.142887 2.8965657 -1.5309747 2 3200250744784 1 0
46.588158 13.158972 1.1264943 24 3200250744784 1 0
20.302963 5.731607 -1.47521 5 3200250747088 1 0
17.802147 4.0957704 -1.491248 3 3200250749392 1 0
42.035896 14.1112585 1.290456 221 3200250749392 1 0
74.96745 13.440939 0.88667804 25 3200250747088 1 0
76.04003 17.483597 1.361916 54 3200250751696 1 0
21.594067 7.24571 -1.4597669 4 3200250751696 1 0
23.140923 4.139044 -1.3690577 2 3200250754000 1 0
46.682938 13.157887 2.8246262 15 3200250754000 1 0
27.133348 7.6436625 -1.3131083 4 3200250756304 1 0
75.701256 17.38368 3.164421 29 3200250756304 1 0
26.163055 6.004155 -1.4067905 4 3200250758608 1 0
49.65016 13.979409 6.333306 46 3200250758608 1 0
29.965729 10.036328 -1.2874899 4 3200250760912 1 0
32.83389 5.8540263 -1.164666 5 3200250763216 1 0
49.542248 13.934251 13.789879 24 3200250763216 1 0
0 0 0 29 3200250765520 1 0
0 0 0 8 3200250760912 1 0
42.26972 11.882478 -1.0217171 14 3200250765520 1 0
0 0 0 8 3200250786256 1 0
39.270714 8.937705 -1.1721158 8 3200250788560 1 0
0 0 0 1 3200250788560 1 0
0 0 0 92 3200250786256 1 0
8.2153425 1.8684906 -1.6850398 1 3200250790864 1 0
46.53314 13.003959 0 17 3200250790864 1 0
0 0 0 28 3200250793168 1 0
10.171668 2.8409379 -1.643039 4 3200250793168 1 0
12.486647 2.8361325 -1.6298702 3 3200250795472 1 0
42.133995 14.0133915 0.25807223 225 3200250795472 1 0
69.670616 15.813857 -0.41522637 41 3200250797776 1 0
13.859508 3.8666022 -1.5499085 3 3200250797776 1 0
16.066235 2.8271284 -1.5227956 2 3200250800080 1 0
46.5281 12.973373 1.1239818 24 3200250800080 1 0
20.199146 5.628937 -1.466281 5 3200250802384 1 0
17.819754 4.036558 -1.4915736 3 3200250804688 1 0
42.140194 13.988232 1.2922015 207 3200250804688 1 0
93.85793 16.501833 1.1094418 28 3200250802384 1 0
76.12602 17.232544 1.3624047 27 3200250806992 1 0
21.595713 7.1651044 -1.4582319 3 3200250806992 1 0
23.139084 4.05784 -1.3681275 2 3200250809296 1 0
46.64262 12.976065 2.81951 15 3200250809296 1 0
76.04443 17.19082 3.1763077 29 3200250811600 1 0
27.151451 7.5493298 -1.312736 8 3200250811600 1 0
26.140478 5.905395 -1.4044877 4 3200250813904 1 0
49.666847 13.801846 6.3294063 46 3200250813904 1 0
75.97682 17.15231 6.358471 28 3200250816208 1 0
29.942873 9.915221 -1.2850474 4 3200250816208 1 0
32.81039 5.734198 -1.1631304 5 3200250818512 1 0
49.5598 13.75657 13.781596 12 3200250818512 1 0
0 0 0 29 3200250820816 1 0
0 0 0 22 3200250820816 1 0
0 0 0 8 3200250841552 1 0
42.241043 13.912661 -0.776283 91 3200250841552 1 0
39.340687 8.809307 -1.1732794 8 3200250843856 1 0
0 0 0 1 3200250843856 1 0
8.214159 1.8380892 -1.6834708 1 3200250846160 1 0
48.841797 13.465502 0 28 3200250846160 1 0
56.65626 9.791327 -0.6693623 17 3200250848464 1 0
10.185333 2.8064647 -1.6436539 4 3200250848464 1 0
12.488726 2.790798 -1.6288601 3 3200250850768 1 0
42.23205 13.88247 0.25837442 223 3200250850768 1 0
69.69807 15.564463 -0.41506362 20 3200250853072 1 0
13.87292 3.8181999 -1.5499085 3 3200250853072 1 0
16.083855 2.7723827 -1.5235392 2 3200250855376 1 0
46.754322 12.860728 1.1283554 48 3200250855376 1 0
93.879486 16.167997 1.1090227 85 3200250857680 1 0
20.207129 5.555221 -1.465444 5 3200250857680 1 0
17.806498 3.9682605 -1.4892954 3 3200250859984 1 0
42.241955 13.858499 1.2938306 222 3200250859984 1 0
76.36138 17.00583 1.3655461 27 3200250862288 1 0
21.605421 7.0847025 -1.4572086 3 3200250862288 1 0
23.1413 3.9750166 -1.3674297 5 3200250864592 1 0
46.864773 12.861787 2.8302076 31 3200250864592 1 0
76.29904 16.968655 3.1844492 29 3200250866896 1 0
26.133636 5.808046 -1.4030223 8 3200250869200 1 0
27.20461 7.461906 -1.3140389 12 3200250866896 1 0
49.707066 13.626292 6.328431 15 3200250869200 1 0
76.10629 16.902555 6.364329 28 3200250871504 1 0
29.889936 9.782049 -1.2813023 4 3200250871504 1 0
32.86173 5.625029 -1.1642472 5 3200250873808 1 0
49.529263 13.562062 13.759855 24 3200250873808 1 0
0 0 0 29 3200250876112 1 0
0 0 0 1 3200250876112 1 0
0 0 0 8 3200250897296 1 0
0 0 0 14 3200250897296 1 0
39.34783 8.666482 -1.1725812 8 3200250899600 1 0
0 0 0 1 3200250899600 1 0
8.216721 1.8084426 -1.6826863 1 3200250901904 1 0
50.19718 13.650033 0 50 3200250901904 1 0
56.48129 9.556897 -0.6668944 17 3200250904208 1 0
10.195128 2.7706716 -1.6436539 4 3200250904208 1 0
12.498471 2.7468235 -1.6288601 3 3200250906512 1 0
42.33772 13.752274 0.25872314 115 3200250906512 1 0
13.8824625 3.7682045 -1.5494801 3 3200250908816 1 0
16.0857 2.714195 -1.5227956 2 3200250911120 1 0
47.10824 12.779161 1.1357995 16 3200250911120 1 0
93.829666 15.817465 1.1077654 57 3200250913424 1 0
20.211271 5.4794455 -1.4643279 5 3200250913424 1 0
69.87755 15.345996 -0.41580755 20 3200250908816 1 0
17.81268 3.9033365 -1.4886444 3 3200250915728 1 0
42.33651 13.723296 1.2952269 117 3200250915728 1 0
79.79687 17.473316 1.4258616 29 3200250918032 1 0
21.622883 7.005366 -1.4566969 5 3200250918032 1 0
23.064745 3.8773043 -1.3620809 5 3200250920336 1 0
46.779247 12.659243 2.8223007 31 3200250920336 1 0
0 0 0 18 3200250922640 1 0
79.76382 17.44055 3.326436 29 3200250922640 1 0
26.11913 5.7068305 -1.4011382 4 3200250924944 1 0
49.78233 13.455609 6.3318434 46 3200250924944 1 0
77.45953 16.911924 6.472381 28 3200250927248 1 0
29.871576 9.657613 -1.2790228 4 3200250927248 1 0
32.85018 5.501656 -1.1631304 5 3200250929552 1 0
49.581394 13.38505 13.760891 24 3200250929552 1 0
0 0 0 29 3200250931856 1 0
42.369167 11.431087 -1.0211588 7 3200250931856 1 0
41.23534 13.255098 -0.75603825 66 3200250952592 1 0
39.39484 8.526163 -1.1730467 8 3200250954896 1 0
0 0 0 1 3200250954896 1 0
0 0 0 8 3200250952592 1 0
8.219409 1.7777247 -1.6819019 1 3200250957200 1 0
0 0 0 7 3200250957200 1 0
50.300476 8.323808 -0.59355557 47 3200250959504 1 1
10.193643 2.730663 -1.6418092 4 3200250959504 1 0
12.500541 2.7000482 -1.6278499 3 3200250961808 1 0
0 0 0 12 3200250961808 1 0
69.943954 15.097396 -0.41587728 20 3200250964112 1 0
13.884385 3.7152238 -1.5481949 3 3200250964112 1 0
16.07173 2.6527328 -1.5205649 2 3200250966416 1 0
47.346817 12.662188 1.1404521 16 3200250966416 1 0
100.219444 16.52758 1.1825012 57 3200250968720 1 0
20.226814 5.4063597 -1.4640489 5 3200250968720 1 0
0 0 0 6 3200250971024 1 0
17.806932 3.8359 -1.4870172 3 3200250971024 1 0
83.16583 17.903238 1.4849205 29 3200250973328 1 0
21.6361 6.92525 -1.4559294 5 3200250973328 1 0
23.058548 3.792858 -1.3609182 5 3200250975632 1 0
50.249626 13.408747 3.0288105 57 3200250975632 1 0
79.6877 17.131454 3.3207371 29 3200250977936 1 0
27.129324 7.235247 -1.3078969 66 3200250977936 1 0
26.131079 5.613945 -1.4007195 4 3200250980240 1 0
49.72925 13.255168 6.319169 30 3200250980240 1 0
0 0 0 8 3200250982544 1 0
32.90059 5.393083 -1.1642472 5 3200250984848 1 0
49.62743 13.21334 13.760891 24 3200250984848 1 0
29.882124 9.54642 -1.2780458 4 3200250982544 1 0
0 0 0 29 3200250987152 1 0
0 0 0 8 3200251007888 1 0
42.354218 11.270575 -1.0198561 7 3200250987152 1 0
39.26256 8.361333 -1.1682758 8 3200251010192 1 0
41.2562 13.111016 -0.7556194 29 3200251007888 1 0
0 0 0 1 3200251010192 1 0
8.221422 1.7496419 -1.6811174 1 3200251012496 1 0
50.190323 13.274132 0 30 3200251012496 1 0
49.71978 8.0584135 -0.58638465 6 3200251014800 1 1
12.482256 2.652806 -1.6243144 3 3200251017104 1 0
41.291904 13.097241 0.2517721 61 3200251017104 1 0
10.19882 2.6958346 -1.6411942 6 3200251014800 1 0
0 0 0 9 3200251019408 1 0
13.888938 3.6671307 -1.5473381 3 3200251019408 1 0
16.080439 2.5994225 -1.5205649 3 3200251021712 1 0
48.14639 12.705094 1.1586905 16 3200251021712 1 0
100.33293 16.204716 1.1831996 28 3200251024016 1 0
20.229197 5.3351855 -1.4629328 5 3200251024016 1 0
17.803953 3.7735226 -1.4857153 3 3200251026320 1 0
0 0 0 6 3200251026320 1 0
21.643724 6.848647 -1.4549061 5 3200251028624 1 0
84.05813 17.803865 1.49979 29 3200251028624 1 0
23.07494 3.7170072 -1.3611507 2 3200251030928 1 0
50.18569 13.213571 3.0222988 38 3200251030928 1 0
83.13028 17.583342 3.4617472 29 3200251033232 1 0
27.083614 7.1269403 -1.3045466 64 3200251033232 1 0
49.742218 13.0821085 6.3152695 30 3200251035536 1 0
26.161276 5.5297384 -1.4013475 4 3200251035536 1 0
29.818336 9.417184 -1.273975 4 3200251037840 1 0
32.890663 5.279516 -1.16327 5 3200251040144 1 0
49.65229 13.043789 13.755714 24 3200251040144 1 0
0 0 0 29 3200251042448 1 0
77.76765 16.42661 6.488654 28 3200251037840 1 0
42.19023 11.077254 -1.0150174 7 3200251042448 1 0
0 0 0 8 3200251063184 1 0
40.92171 12.855468 -0.74870825 14 3200251063184 1 1
39.27448 8.227523 -1.1678104 8 3200251065488 1 0
0 0 0 1 3200251065488 1 0
8.219525 1.7206421 -1.6795485 1 3200251067792 1 0
51.058655 13.32199 0 30 3200251067792 1 0
50.050575 7.940665 -0.5899701 6 3200251070096 1 1
10.203938 2.6607795 -1.6405793 3 3200251070096 1 0
12.483293 2.6094115 -1.6233042 3 3200251072400 1 0
41.324036 12.955448 0.25170237 38 3200251072400 1 0
0 0 0 9 3200251074704 1 0
13.885759 3.616538 -1.5456246 3 3200251074704 1 0
16.08908 2.5453815 -1.5205649 3 3200251077008 1 0
48.173325 12.539233 1.1583183 8 3200251077008 1 0
50.635937 8.003337 0.59681505 8 3200251079312 1 1
20.239323 5.2650337 -1.4623747 5 3200251079312 1 0
17.812683 3.712612 -1.4853898 3 3200251081616 1 0
50.018845 15.649393 1.5252749 16 3200251081616 1 0
0 0 0 6 3200251083920 1 0
21.65914 6.7730355 -1.4543945 5 3200251083920 1 0
23.067682 3.63568 -1.359988 5 3200251086224 1 0
50.1838 13.031379 3.0195081 57 3200251086224 1 0
70.27284 14.614639 2.9242482 29 3200251088528 1 0
0 0 0 4 3200251088528 1 0
26.089993 5.421976 -1.3965327 4 3200251090832 1 0
49.748024 12.902774 6.310395 30 3200251090832 1 0
0 0 0 8 3200251093136 1 0
29.831207 9.309476 -1.2731609 4 3200251093136 1 0
32.908516 5.1670675 -1.16327 5 3200251095440 1 0
49.6704 12.867222 13.748467 23 3200251095440 1 0
0 0 0 29 3200251097744 1 0
42.220184 10.930675 -1.0148312 7 3200251097744 1 0
0 0 0 8 3200251118480 1 0
43.76236 13.5802 -0.79980886 15 3200251118480 1 0
39.318626 8.093604 -1.1682758 8 3200251120784 1 0
0 0 0 1 3200251120784 1 0
8.229323 1.6927304 -1.6803329 1 3200251123088 1 0
56.09834 14.427959 0 34 3200251123088 1 0
50.386284 7.8137164 -0.5936021 60 3200251125392 1 1
10.209335 2.6241608 -1.6399645 4 3200251125392 1 0
12.492325 2.565821 -1.6233042 3 3200251127696 1 0
43.638626 13.513976 0.26551145 17 3200251127696 1 0
70.15641 14.398917 -0.41624925 21 3200251130000 1 0
16.078188 2.4861617 -1.5187061 3 3200251132304 1 0
52.48148 13.46519 1.2607691 30 3200251132304 1 0
13.882891 3.56409 -1.5439111 3 3200251130000 1 0
104.319435 16.115324 1.2288793 28 3200251134608 1 0
20.249847 5.192371 -1.4618167 5 3200251134608 1 0
17.813816 3.648012 -1.4844135 3 3200251136912 1 0
46.616024 14.406298 1.4199672 15 3200251136912 1 0
0 0 0 21 3200251139216 1 0
21.575857 6.6644034 -1.4472312 5 3200251139216 1 0
23.068392 3.5533128 -1.3592904 5 3200251141520 1 0
50.20964 12.851175 3.0183454 57 3200251141520 1 0
70.2177 14.347649 2.9198518 29 3200251143824 1 0
26.09702 5.3284745 -1.3959047 4 3200251146128 1 0
27.170763 6.9501557 -1.3064078 4 3200251143824 1 0
49.773525 12.724126 6.307957 15 3200251146128 1 0
93.293274 19.034433 7.772911 28 3200251148432 1 0
33.00538 5.0642896 -1.166062 5 3200251150736 1 0
49.71501 12.693762 13.748467 23 3200251150736 1 0
0 0 0 29 3200251153040 1 0
41.781487 10.661617 -1.0033858 7 3200251153040 1 0
0 0 0 8 3200251173776 1 0
29.840605 9.198225 -1.2721839 4 3200251148432 1 0
43.97392 13.477753 -0.80281067 15 3200251173776 1 0
0 0 0 1 3200251176080 1 0
8.231338 1.6632175 -1.6795485 1 3200251178384 1 0
56.094078 14.218293 0 34 3200251178384 1 0
56.882977 8.617975 -0.6697814 8 3200251180688 1 0
10.206939 2.5855958 -1.6381197 4 3200251180688 1 0
39.311367 7.949175 -1.1672286 8 3200251176080 1 0
12.485647 2.51906 -1.621284 3 3200251182992 1 0
43.597557 13.334659 0.26497677 26 3200251182992 1 0
13.887536 3.513657 -1.5430542 3 3200251185296 1 0
16.078892 2.4288335 -1.5179626 3 3200251187600 1 0
70.17096 14.146823 -0.41604003 21 3200251185296 1 0
52.37696 13.243682 1.25714 10 3200251187600 1 0
105.32424 15.894323 1.2400547 28 3200251189904 1 0
20.155659 5.0933037 -1.4537249 5 3200251189904 1 0
17.826443 3.5858078 -1.4844135 3 3200251192208 1 0
43.912643 13.403097 1.3361864 13 3200251192208 1 0
21.572262 6.580896 -1.4454404 5 3200251194512 1 0
87.022 17.4914 1.5493548 87 3200251194512 1 0
23.068808 3.470985 -1.3585926 5 3200251196816 1 0
50.242577 12.672902 3.0176477 38 3200251196816 1 0
79.620926 15.979691 3.3085248 29 3200251199120 1 0
27.140615 6.8415966 -1.3038021 4 3200251199120 1 0
49.81764 12.550306 6.307957 45 3200251201424 1 0
94.09405 18.855932 7.834097 28 3200251203728 1 0
26.080212 5.2302775 -1.3940206 4 3200251201424 1 0
29.81518 9.076547 -1.2697415 4 3200251203728 1 0
33.04262 4.9520106 -1.16676 5 3200251206032 1 0
49.616634 12.484321 13.709127 23 3200251206032 1 0
0 0 0 29 3200251208336 1 0
0 0 0 8 3200251229072 1 0
42.887646 12.98122 -0.78214705 22 3200251229072 1 0
39.338875 7.811904 -1.1672286 8 3200251231376 1 0
0 0 0 1 3200251231376 1 0
8.233246 1.6337112 -1.678764 1 3200251233680 1 0
0 0 0 60 3200251208336 1 0
57.17954 14.281196 0 23 3200251233680 1 0
57.288597 8.47497 -0.67420495 8 3200251235984 1 0
10.212067 2.548994 -1.6375048 4 3200251235984 1 0
43.63618 13.18008 0.26493028 87 3200251238288 1 0
70.16498 13.890919 -0.41571456 20 3200251240592 1 0
13.899716 3.4651592 -1.5430542 3 3200251240592 1 0
12.490472 2.4746902 -1.6207789 3 3200251238288 1 0
16.091213 2.3732738 -1.5183343 3 3200251242896 1 0
105.303894 15.515498 1.2391701 28 3200251245200 1 0
20.161697 5.0200243 -1.4528879 5 3200251245200 1 0
54.863583 13.668857 1.3156701 21 3200251242896 1 0
17.795828 3.515062 -1.4808334 3 3200251247504 1 0
43.825172 13.209347 1.3321137 20 3200251247504 1 0
87.04721 17.180561 1.5487266 29 3200251249808 1 0
21.595102 6.505554 -1.4454404 5 3200251249808 1 0
23.076834 3.3898585 -1.35836 5 3200251252112 1 0
86.977615 17.14054 3.6117127 29 3200251254416 1 0
69.42297 17.253332 4.16601 28 3200251252112 1 0
27.152699 6.743927 -1.3032438 4 3200251254416 1 0
26.098309 5.139209 -1.3940206 4 3200251256720 1 0
49.791786 12.3591175 6.2991824 29 3200251256720 1 0
0 0 0 8 3200251259024 1 0
29.842854 8.971267 -1.2695787 4 3200251259024 1 0
33.063663 4.837219 -1.1668996 5 3200251261328 1 0
0 0 0 9 3200251261328 1 0
0 0 0 29 3200251263632 1 0
41.668583 10.32351 -0.99891925 64 3200251263632 1 0
0 0 0 8 3200251284368 1 0
39.373753 7.6760683 -1.1674613 8 3200251286672 1 0
42.767925 12.782189 -0.77914524 15 3200251284368 1 0
8.235048 1.6042119 -1.6779796 1 3200251288976 1 0
0 0 0 1 3200251286672 1 0
68.582405 16.875072 0 20 3200251288976 1 0
57.278244 8.269229 -0.6737393 17 3200251291280 1 0
10.20555 2.5095568 -1.6350452 4 3200251291280 1 0
12.491243 2.4295602 -1.6197687 3 3200251293584 1 0
43.156788 12.871066 0.26174533 75 3200251293584 1 0
69.91856 13.588679 -0.41397098 20 3200251295888 1 0
13.904003 3.414722 -1.5421975 3 3200251295888 1 0
16.087572 2.3153887 -1.517219 3 3200251298192 1 0
69.78923 17.128965 1.6721545 21 3200251298192 1 0
20.175222 4.9486656 -1.4526088 3 3200251300496 1 0
111.010895 15.960657 1.305664 28 3200251300496 1 0
17.800161 3.451404 -1.4801825 3 3200251302800 1 0
43.84036 13.047164 1.3311828 20 3200251302800 1 0
87.39328 16.932137 1.5538226 29 3200251305104 1 0
21.594723 6.4233055 -1.4439054 5 3200251305104 1 0
23.064808 3.305885 -1.3569647 5 3200251307408 1 0
69.94046 17.122948 4.1934514 28 3200251307408 1 0
87.539185 16.933987 3.6325548 29 3200251309712 1 0
26.112167 5.047319 -1.3938112 4 3200251312016 1 0
27.172194 6.6481557 -1.3030576 4 3200251309712 1 0
49.80763 12.178636 6.29577 29 3200251312016 1 0
0 0 0 8 3200251314320 1 0
29.85483 8.861355 -1.2687645 4 3200251314320 1 0
33.08826 4.7229056 -1.1671788 5 3200251316624 1 0
0 0 0 9 3200251316624 1 0
0 0 0 29 3200251318928 1 0
41.708252 10.178945 -0.9990123 57 3200251318928 1 0
0 0 0 8 3200251339664 1 0
39.17254 7.495002 -1.1607124 8 3200251341968 1 0
0 0 0 1 3200251341968 1 0
8.236746 1.5747199 -1.6771951 1 3200251344272 1 0
69.70217 16.89278 0 43 3200251344272 1 0
56.53443 7.9604897 -0.66465926 17 3200251346576 1 0
43.3915 12.803737 -0.7896865 23 3200251339664 1 0
10.214248 2.4739172 -1.6350452 4 3200251346576 1 0
12.487955 2.3837109 -1.6182536 3 3200251348880 1 0
43.11704 12.695486 0.2612339 58 3200251348880 1 0
13.900376 3.3624268 -1.540484 3 3200251351184 1 0
69.97342 13.346034 -0.41401747 20 3200251351184 1 0
16.091614 2.2586648 -1.5168473 3 3200251353488 1 0
72.97371 17.640717 1.7469687 24 3200251353488 1 0
0 0 0 21 3200251355792 1 0
20.180738 4.8753996 -1.4517717 3 3200251355792 1 0
17.80035 3.3870132 -1.4792061 3 3200251358096 1 0
46.5556 13.678516 1.4121709 22 3200251358096 1 0
87.50293 16.636684 1.5547302 29 3200251360400 1 0
21.613182 6.3467617 -1.4436495 5 3200251360400 1 0
23.068298 3.2242484 -1.3564997 5 3200251362704 1 0
73.73815 17.780113 4.4174027 28 3200251362704 1 0
87.46033 16.602226 3.6268559 29 3200251365008 1 0
27.175812 6.5485864 -1.302127 4 3200251365008 1 0
26.09823 4.950185 -1.3921365 4 3200251367312 1 0
49.811237 11.995405 6.2908955 14 3200251367312 1 0
97.36511 18.453068 8.089907 28 3200251369616 1 0
29.797365 8.731239 -1.2650194 4 3200251369616 1 0
33.076828 4.60352 -1.1662016 5 3200251371920 1 0
0 0 0 9 3200251371920 1 0
0 0 0 29 3200251374224 1 0
42.027367 10.101516 -1.0058051 7 3200251374224 1 0
0 0 0 8 3200251394960 1 0
45.248318 13.180115 -0.8226366 16 3200251394960 1 0
39.426384 7.401003 -1.1674613 8 3200251397264 1 0
0 0 0 1 3200251397264 1 0
8.222917 1.5423433 -1.6732727 1 3200251399568 1 0
74.301186 17.733019 0 25 3200251399568 1 0
48.394997 6.642198 -0.5686902 6 3200251401872 1 0
10.218976 2.437331 -1.6344303 4 3200251401872 1 0
12.4883995 2.3386445 -1.6172434 3 3200251404176 1 0
43.18798 12.552717 0.26139662 25 3200251404176 1 0
74.73762 13.984514 -0.44191468 49 3200251406480 1 0
13.900422 3.3111203 -1.5391988 3 3200251406480 1 0
16.083616 2.2003214 -1.5153601 3 3200251408784 1 0
74.22914 17.670185 1.775536 25 3200251408784 1 0
20.182106 4.801232 -1.4506556 3 3200251411088 1 0
111.468346 15.232929 1.3097615 28 3200251411088 1 0
17.812065 3.3248577 -1.4792061 3 3200251413392 1 0
46.203697 13.400099 1.4000692 14 3200251413392 1 0
87.5644 16.331875 1.5548 29 3200251415696 1 0
21.61987 6.266834 -1.4426262 5 3200251415696 1 0
23.075455 3.1431663 -1.3562671 5 3200251418000 1 0
81.61683 19.378653 4.885306 28 3200251418000 1 0
80.63389 15.0149765 3.3415792 29 3200251420304 1 0
27.1052 6.4315457 -1.29766 4 3200251420304 1 0
26.099642 4.856132 -1.391299 4 3200251422608 1 0
49.96097 11.847108 6.304545 45 3200251422608 1 0
98.769424 18.3623 8.201214 28 3200251424912 1 0
29.804625 8.620511 -1.2640425 4 3200251424912 1 0
33.108543 4.490181 -1.16676 5 3200251427216 1 0
0 0 0 9 3200251427216 1 0
41.67323 9.862654 -0.9964999 7 3200251429520 1 0
0 0 0 29 3200251429520 1 0
0 0 0 8 3200251450256 1 0
45.52083 13.087287 -0.8267554 16 3200251450256 1 0
39.2475 7.225689 -1.1614105 8 3200251452560 1 0
0 0 0 1 3200251452560 1 0
8.235966 1.5150498 -1.6748416 1 3200251454864 1 0
49.805447 6.658737 -0.5849877 19 3200251457168 1 0
10.219727 2.399838 -1.6332004 4 3200251457168 1 0
12.496487 2.2950375 -1.6172434 3 3200251459472 1 0
75.682686 17.783733 0 26 3200251454864 1 0
46.507347 13.341624 0.28120363 20 3200251459472 1 0
75.403656 13.836893 -0.44556454 25 3200251461776 1 0
13.900279 3.2598546 -1.5379136 3 3200251461776 1 0
16.043825 2.1378534 -1.5108988 3 3200251464080 1 0
70.25289 16.464731 1.6790404 22 3200251464080 1 0
20.190971 4.7289343 -1.4500976 3 3200251466384 1 0
17.807877 3.2597904 -1.4779043 3 3200251468688 1 0
111.45344 14.834768 1.30897 28 3200251466384 1 0
46.277096 13.246438 1.4008838 14 3200251468688 1 0
21.633938 6.189132 -1.4421146 5 3200251470992 1 0
0 0 0 87 3200251470992 1 0
23.074411 3.0610235 -1.3555694 5 3200251473296 1 0
81.33013 19.010925 4.864143 28 3200251473296 1 0
80.70154 14.736292 3.3422306 29 3200251475600 1 0
27.100248 6.330529 -1.2963572 4 3200251475600 1 0
26.096786 4.761413 -1.3902524 4 3200251477904 1 0
50.017487 11.6762495 6.3064947 15 3200251477904 1 0
99.69971 18.175436 8.27314 28 3200251480208 1 0
29.819162 8.5120325 -1.2633911 4 3200251480208 1 0
33.124016 4.3745832 -1.16676 5 3200251482512 1 0
0 0 0 9 3200251482512 1 0
41.5633 9.683555 -0.99305695 7 3200251484816 1 0
0 0 0 8 3200251505552 1 0
45.643185 12.950143 -0.8281516 16 3200251505552 1 0
93.532265 17.02299 17.333488 29 3200251484816 1 0
39.241005 7.082964 -1.1604795 8 3200251507856 1 0
0 0 0 1 3200251507856 1 0
8.229624 1.4842032 -1.6724882 1 3200251510160 1 0
75.62739 17.492401 0 79 3200251510160 1 0
52.850693 6.8781767 -0.62046975 7 3200251512464 1 1
10.228042 2.36415 -1.6332004 5 3200251512464 1 0
12.496612 2.2499964 -1.6162332 3 3200251514768 1 0
46.495907 13.162859 0.2808549 20 3200251514768 1 0
78.46703 14.116091 -0.46337226 28 3200251517072 1 0
13.911573 3.2113137 -1.5379136 3 3200251517072 1 0
16.039341 2.0803 -1.5097834 3 3200251519376 1 0
70.33331 16.224796 1.6795987 22 3200251519376 1 0
105.356346 13.649121 1.2367952 28 3200251521680 1 0
20.19569 4.6557364 -1.4492605 3 3200251521680 1 0
17.815222 3.1969051 -1.4775789 3 3200251523984 1 0
46.476963 13.128295 1.4055382 29 3200251523984 1 0
93.62845 16.787376 1.6603521 58 3200251526288 1 0
21.651567 6.1124935 -1.4418588 5 3200251526288 1 0
23.088915 2.9809713 -1.3558019 5 3200251528592 1 0
81.232544 18.68931 4.854376 28 3200251528592 1 0
0 0 0 14 3200251530896 1 0
26.042469 4.6576304 -1.3864841 4 3200251533200 1 0
27.110498 6.233207 -1.2957988 4 3200251530896 1 0
49.941856 11.474913 6.2918706 14 3200251533200 1 0
100.688736 17.992817 8.349948 28 3200251535504 1 0
29.821764 8.400307 -1.2622514 4 3200251535504 1 0
0 0 0 9 3200251537808 1 0
33.00031 4.2410975 -1.161874 5 3200251537808 1 0
0 0 0 29 3200251540112 1 0
41.550076 9.527687 -0.9919403 7 3200251540112 1 0
0 0 0 8 3200251560296 1 0
46.346684 12.975112 -0.840089 16 3200251560296 1 0
39.273365 6.947337 -1.1607124 8 3200251562600 1 0
8.230892 1.4547848 -1.6717038 1 3200251564904 1 0
0 0 0 1 3200251562600 1 0
75.54368 17.195457 0 52 3200251564904 1 0
54.255264 6.868465 -0.6366741 23 3200251567208 1 0
10.224669 2.325803 -1.6313556 4 3200251567208 1 0
12.488759 2.2036035 -1.614213 3 3200251569512 1 0
46.560833 13.005857 0.28097117 30 3200251569512 1 0
78.84278 13.899745 -0.4653018 28 3200251571816 1 0
13.907186 3.1592097 -1.5362 3 3200251571816 1 0
16.054407 2.0252967 -1.510527 3 3200251574120 1 0
75.997284 17.25221 1.8134083 26 3200251574120 1 0
105.33192 13.272275 1.235957 28 3200251576424 1 0
20.207928 4.584329 -1.4489815 3 3200251576424 1 0
17.810568 3.131937 -1.476277 3 3200251578728 1 0
46.607243 12.989595 1.4080982 22 3200251578728 1 0
93.82434 16.484673 1.6627954 58 3200251581032 1 0
21.553564 6.003673 -1.433928 5 3200251581032 1 0
23.00805 2.8889155 -1.3504531 5 3200251583336 1 0
84.01864 14.736646 3.475262 29 3200251585640 1 0
27.10871 6.1332455 -1.294682 4 3200251585640 1 0
26.01529 4.559112 -1.3841814 4 3200251587944 1 0
76.77558 17.381931 4.5843782 28 3200251583336 1 0
49.923523 11.28738 6.2845583 44 3200251587944 1 0
102.16465 17.888777 8.467113 28 3200251590248 1 0
33.05458 4.1308365 -1.16327 5 3200251592552 1 0
0 0 0 9 3200251592552 1 0
93.14102 16.28084 17.2395 29 3200251594856 1 0
29.808548 8.284387 -1.2604603 4 3200251590248 1 0
41.45045 9.352666 -0.9887765 13 3200251594856 1 0
0 0 0 4 3200251615592 1 0
46.900562 12.9538 -0.8493039 16 3200251615592 1 0
39.29738 6.810205 -1.1607124 8 3200251617896 1 0
0 0 0 1 3200251617896 1 0
8.23592 1.4260447 -1.6717038 1 3200251620200 1 0
75.653984 16.94302 0 52 3200251620200 1 0
55.76758 6.8622184 -0.65413576 8 3200251622504 1 0
10.225012 2.2883716 -1.6301259 5 3200251622504 1 0
12.492465 2.1593204 -1.6137079 3 3200251624808 1 0
48.17542 13.275752 0.29043296 10 3200251624808 1 0
80.715775 13.939617 -0.4760655 28 3200251627112 1 0
13.906486 3.108043 -1.5349149 3 3200251627112 1 0
16.053473 1.9682746 -1.5097834 3 3200251629416 1 0
76.06485 16.98857 1.8135945 26 3200251629416 1 0
105.429214 12.910838 1.2365624 28 3200251631720 1 0
20.20823 4.510286 -1.4478654 3 3200251631720 1 0
17.817463 3.0690708 -1.4759516 3 3200251634024 1 0
47.08794 12.946605 1.4212471 7 3200251634024 1 0
21.57824 5.929458 -1.4341838 5 3200251636328 1 0
93.81431 16.145533 1.6616087 58 3200251636328 1 0
22.998177 2.8061666 -1.3492904 5 3200251638632 1 0
76.24333 16.98187 4.5490294 28 3200251638632 1 0
27.10655 6.0333724 -1.2935653 4 3200251640936 1 0
0 0 0 14 3200251640936 1 0
26.027107 4.4675984 -1.383972 4 3200251643240 1 0
49.912235 11.10184 6.278221 14 3200251643240 1 0
103.4603 17.743649 8.569306 28 3200251645544 1 0
29.841137 8.181341 -1.2606231 4 3200251645544 1 0
33.096577 4.018802 -1.1642472 5 3200251647848 1 0
0 0 0 9 3200251647848 1 0
93.177895 15.952297 17.235912 29 3200251650152 1 0
0 0 0 16 3200251650152 1 0
0 0 0 4 3200251670888 1 0
47.559032 12.957164 -0.86040366 17 3200251670888 1 0
39.364223 6.680635 -1.1619923 8 3200251673192 1 0
0 0 0 1 3200251673192 1 0
0 0 0 85 3200251675496 1 0
75.56398 16.647234 0 26 3200251675496 1 0
56.09288 6.7048063 -0.6576746 8 3200251677800 1 0
10.229028 2.2520392 -1.629511 5 3200251677800 1 0
12.495953 2.1154017 -1.6132028 3 3200251680104 1 0
50.13171 13.628314 0.30194053 23 3200251680104 1 0
80.98431 13.698075 -0.47736734 28 3200251682408 1 0
13.905485 3.0574253 -1.5336298 3 3200251682408 1 0
16.060162 1.9129262 -1.5097834 3 3200251684712 1 0
76.31434 16.768324 1.818154 26 3200251684712 1 0
0 0 0 21 3200251687016 1 0
17.812168 3.0052416 -1.4746497 3 3200251689320 1 0
47.058784 12.765012 1.4190363 15 3200251689320 1 0
93.80596 15.813468 1.6604917 58 3200251691624 1 0
21.575306 5.8492465 -1.4326489 3 3200251691624 1 0
22.991772 2.7256637 -1.3483602 5 3200251693928 1 0
20.130087 4.4202085 -1.4411688 3 3200251687016 1 0
76.30873 16.722885 4.5494947 28 3200251693928 1 0
86.87723 14.620758 3.5892422 29 3200251696232 1 0
26.018526 4.375018 -1.382716 4 3200251698536 1 0
27.013779 5.9160967 -1.2881676 4 3200251696232 1 0
49.895435 10.920022 6.2713966 43 3200251698536 1 0
88.7488 14.910512 7.346561 28 3200251700840 1 0
29.783875 8.05699 -1.2570409 4 3200251700840 1 0
33.090157 3.904278 -1.1635492 5 3200251703144 1 0
0 0 0 9 3200251703144 1 0
93.20802 15.633213 17.231607 29 3200251705448 1 0
41.60751 9.088071 -0.9910098 21 3200251705448 1 0
48.231277 12.968655 -0.8717826 25 3200251726184 1 0
39.374374 6.5478077 -1.1616431 8 3200251728488 1 0
0 0 0 1 3200251728488 1 0
8.257044 1.3718807 -1.6740572 17 3200251730792 1 0
0 0 0 4 3200251726184 1 0
72.276665 15.670788 0 23 3200251730792 1 0
55.81697 6.482926 -0.6541823 8 3200251733096 1 0
10.236488 2.2178829 -1.629511 5 3200251733096 1 0
12.491216 2.0716407 -1.6116877 3 3200251735400 1 0
50.1577 13.455355 0.3018243 23 3200251735400 1 0
49.89483 8.267491 -0.29394335 9 3200251737704 1 1
13.915657 3.0107903 -1.5336298 3 3200251737704 1 0
16.062542 1.8584995 -1.5094117 3 3200251740008 1 0
70.63632 15.272113 1.6816459 22 3200251740008 1 0
120.438324 13.9174385 1.411458 28 3200251742312 1 0
20.133154 4.349877 -1.4403317 3 3200251742312 1 0
17.80254 2.9418712 -1.4730225 3 3200251744616 1 0
47.29857 12.658869 1.4249707 15 3200251744616 1 0
21.579536 5.772129 -1.4316256 5 3200251746920 1 0
100.22375 16.547009 1.7730947 11 3200251746920 1 0
23.02468 2.6504726 -1.3497555 5 3200251749224 1 0
90.57017 14.926132 3.7396965 29 3200251751528 1 0
80.850136 17.431189 4.8167014 28 3200251749224 1 0
27.010279 5.8192716 -1.2870508 4 3200251751528 1 0
26.033266 4.286442 -1.382716 4 3200251753832 1 0
49.912903 10.745967 6.268959 43 3200251753832 1 0
90.21927 14.841349 7.4640512 28 3200251756136 1 0
29.795734 7.9512386 -1.2563895 4 3200251756136 1 0
33.13905 3.795249 -1.1648057 5 3200251758440 1 0
0 0 0 9 3200251758440 1 0
93.17171 15.299199 17.215105 29 3200251760744 1 0
41.779144 8.975741 -0.9943597 14 3200251760744 1 0
0 0 0 4 3200251781480 1 0
47.30207 12.541917 -0.8541906 8 3200251781480 1 0
39.36542 6.4051886 -1.1607124 8 3200251783784 1 0
8.238553 1.3392737 -1.6693504 15 3200251786088 1 0
72.42873 15.439248 0 23 3200251786088 1 0
51.669895 5.8185377 -0.6053363 7 3200251788392 1 1
10.232571 2.179667 -1.6276662 5 3200251788392 1 0
12.494454 2.02739 -1.6111826 3 3200251790696 1 0
0 0 0 1 3200251783784 1 0
49.887848 8.087515 -0.2937341 9 3200251793000 1 1
13.922193 2.9613698 -1.5332013 3 3200251793000 1 0
16.045185 1.7997558 -1.507181 3 3200251795304 1 0
70.72832 15.033767 1.6825764 22 3200251795304 1 0
50.28557 13.30167 0.3023125 34 3200251790696 1 0
51.14859 5.729701 0.5991898 8 3200251797608 1 1
20.132603 4.2762566 -1.4392155 3 3200251797608 1 0
17.800894 2.877802 -1.472046 3 3200251799912 1 0
47.172367 12.448798 1.4198508 15 3200251799912 1 0
21.587975 5.693713 -1.430858 5 3200251802216 1 0
100.201935 16.184307 1.7716985 29 3200251802216 1 0
23.037758 2.570528 -1.3499881 5 3200251804520 1 0
80.77767 17.120712 4.8087945 28 3200251804520 1 0
92.219734 14.867523 3.8056421 29 3200251806824 1 0
26.995247 5.7175016 -1.2853757 4 3200251806824 1 0
26.044127 4.194907 -1.3825066 4 3200251809128 1 0
49.93069 10.567563 6.2665215 29 3200251809128 1 0
92.037834 14.810729 7.610182 28 3200251811432 1 0
29.773062 7.8339624 -1.2542727 4 3200251811432 1 0
33.175938 3.682195 -1.1656432 5 3200251813736 1 0
0 0 0 9 3200251813736 1 0
93.17792 14.966388 17.206497 29 3200251816040 1 0
41.372005 8.737305 -0.9839378 6 3200251816040 1 0
0 0 0 4 3200251836776 1 0
47.326214 12.371668 -0.85384154 17 3200251836776 1 0
39.399384 6.2696238 -1.1610614 8 3200251839080 1 0
0 0 0 1 3200251839080 1 0
8.239305 1.3098917 -1.6685659 16 3200251841384 1 0
73.51965 15.4037 0 24 3200251841384 1 0
51.777367 5.6476817 -0.60636073 7 3200251843688 1 1
10.23238 2.1423154 -1.6264365 6 3200251843688 1 0
64.14543 16.72856 0.38528338 47 3200251845992 1 0
12.485779 1.9812764 -1.6091622 3 3200251845992 1 0
0 0 0 47 3200251848296 1 0
13.916873 2.909499 -1.5314878 3 3200251848296 1 0
16.055328 1.7441669 -1.5075527 3 3200251850600 1 0
70.73339 14.776975 1.6814598 22 3200251850600 1 0
20.143501 4.205139 -1.4389366 3 3200251852904 1 0
17.799017 2.81378 -1.4710697 3 3200251855208 1 0
48.148083 12.526681 1.4478941 7 3200251855208 1 0
105.270905 16.626192 1.860287 29 3200251857512 1 0
51.11261 5.5450845 0.5985379 8 3200251852904 1 1
21.592264 5.614304 -1.4298347 3 3200251857512 1 0
23.034681 2.4888089 -1.3492904 5 3200251859816 1 0
81.485886 16.97382 4.847399 28 3200251859816 1 0
94.02396 14.821848 3.8779383 29 3200251862120 1 0
26.999393 5.619979 -1.2846313 4 3200251862120 1 0
26.046772 4.1021066 -1.3818786 4 3200251864424 1 0
75.99457 15.806892 9.53067 28 3200251864424 1 0
93.8612 14.768211 7.756638 28 3200251866728 1 0
29.823437 7.7360086 -1.2552497 4 3200251866728 1 0
0 0 0 9 3200251869032 1 0
33.192562 3.566794 -1.1657828 5 3200251869032 1 0
93.21404 14.638602 17.203627 29 3200251871336 1 0
41.359184 8.583898 -0.9829142 6 3200251871336 1 0
0 0 0 4 3200251892072 1 0
48.97248 12.61956 -0.8827427 8 3200251892072 1 0
39.448685 6.136358 -1.161876 8 3200251894376 1 0
0 0 0 1 3200251894376 1 0
8.243827 1.2811232 -1.6685659 15 3200251896680 1 0
72.29968 14.884832 0 23 3200251896680 1 0
54.14357 5.7146053 -0.6338337 7 3200251898984 1 0
12.476934 1.935248 -1.607142 3 3200251901288 1 0
10.235924 2.1057882 -1.6258215 6 3200251898984 1 0
67.88759 17.45162 0.4073919 29 3200251901288 1 0
0 0 0 9 3200251903592 1 0
13.911362 2.857701 -1.5297742 3 3200251903592 1 0
16.053396 1.68728 -1.5068092 3 3200251905896 1 0
85.10205 17.468943 2.0215669 28 3200251905896 1 0
0 0 0 21 3200251908200 1 0
20.130695 4.129187 -1.4369833 3 3200251908200 1 0
17.808731 2.751633 -1.4710697 4 3200251910504 1 0
48.15666 12.349598 1.4468468 7 3200251910504 1 0
105.20182 16.239101 1.858053 58 3200251912808 1 0
21.507326 5.5121408 -1.4229274 3 3200251912808 1 0
22.991596 2.4029913 -1.3462672 5 3200251915112 1 0
76.267166 15.609165 4.533681 28 3200251915112 1 0
96.01066 14.791749 3.9577246 29 3200251917416 1 0
26.999273 5.521696 -1.2837006 4 3200251917416 1 0
26.029348 4.0063 -1.3802038 4 3200251919720 1 0
105.76727 21.614733 13.254997 28 3200251919720 1 0
95.87845 14.74283 7.9190416 28 3200251922024 1 0
29.811539 7.6219583 -1.2536215 4 3200251922024 1 0
33.200832 3.4504952 -1.1656432 5 3200251924328 1 0
0 0 0 9 3200251924328 1 0
93.249016 14.310748 17.200756 29 3200251926632 1 0
41.26351 8.413908 -0.97993654 6 3200251926632 1 0
0 0 0 4 3200251947368 1 0
48.989098 12.441646 -0.88225406 8 3200251947368 1 0
39.446148 5.995014 -1.1611778 8 3200251949672 1 0
0 0 0 1 3200251949672 1 0
8.248248 1.2523391 -1.6685659 16 3200251951976 1 0
72.25318 14.612546 0 23 3200251951976 1 0
0 0 0 28 3200251954280 1 0
10.239338 2.0692625 -1.6252066 7 3200251954280 1 0
12.483614 1.8916836 -1.607142 3 3200251956584 1 0
68.801125 17.430656 0.41250637 60 3200251956584 1 0
78.24318 11.84481 -0.4599316 27 3200251958888 1 0
13.913456 2.8075507 -1.5289174 3 3200251958888 1 0
86.914764 17.525091 2.0631614 28 3200251961192 1 0
16.039377 1.6292206 -1.5049504 3 3200251961192 1 0
0 0 0 21 3200251963496 1 0
20.109781 4.0517993 -1.4344721 3 3200251963496 1 0
17.8064 2.687667 -1.4700933 3 3200251965800 1 0
69.388016 17.536392 2.0828822 29 3200251965800 1 0
105.30927 15.879533 1.8589605 29 3200251968104 1 0
21.518696 5.4350777 -1.4224157 3 3200251968104 1 0
22.987926 2.3215172 -1.3455695 8 3200251970408 1 0
84.61297 17.009745 5.0262346 28 3200251970408 1 0
97.776955 14.71465 4.0283923 29 3200251972712 1 0
