# .PCD v.7 - Point Cloud Data file format
VERSION .7
FIELDS x y z rgb timestamp_ns device_id active
SIZE 4 4 4 4 8 1 1
TYPE F F F F F U U
COUNT 1 1 1 1 1 1 1
WIDTH 977
HEIGHT 1
VIEWPOINT 0 0 0 1 0 0 0
POINTS 977               
DATA ascii
28.351828 -33.522156 0 42 3203169037568 1 0
9.801765 -14.200513 -0.20087853 100 3203169039872 1 1
6.788138 -8.028412 -1.63566 5 3203169039872 1 0
7.180655 -9.389643 -1.5046122 3 3203169042176 1 0
28.458769 -30.511175 0.24249628 27 3203169042176 1 0
10.886006 -14.239163 -0.104172744 1 3203169044480 1 1
0 0 0 8 3203169044480 1 0
10.0500145 -14.573768 -1.6525456 2 3203169046784 1 0
28.293686 -33.492912 1.0202283 21 3203169046784 1 0
9.788962 -14.199627 0.2007854 78 3203169049088 1 1
14.404698 -17.056726 -1.5611498 4 3203169049088 1 0
10.887463 -14.253954 -1.4642351 6 3203169051392 1 0
28.394026 -30.477291 1.2122607 44 3203169051392 1 0
10.949063 -14.338925 0.31491122 1 3203169053696 1 1
16.174112 -17.365868 -1.5209103 4 3203169053696 1 0
9.803121 -14.233451 -1.0065027 1 3203169056000 1 1
27.646875 -32.765892 2.4967222 34 3203169056000 1 0
11.041744 -14.469025 0.7415238 68 3203169058304 1 1
19.976484 -23.68226 -1.4432093 9 3203169058304 1 0
11.157222 -14.624755 -0.9640283 7 3203169060608 1 1
31.549837 -37.413593 6.009134 35 3203169060608 1 0
10.944788 -14.350628 1.4733479 2 3203169062912 1 1
23.207132 -24.946184 -1.3881183 16 3203169062912 1 0
9.760145 -14.188718 -0.60138816 92 3203169065216 1 1
0 0 0 9 3203169065216 1 0
21.84955 -25.933393 -0.7890857 48 3203169067520 1 0
0 0 0 4 3203169088256 1 0
20.534048 -26.940159 6.1760287 30 3203169067520 1 0
23.949749 -25.827185 -0.6148134 37 3203169088256 1 0
10.799008 -14.210853 -0.5194406 78 3203169090560 1 1
3.8526604 -4.586272 -1.6767588 2 3203169090560 1 0
5.065724 -6.6682043 -1.6748416 4 3203169092864 1 0
28.29638 -33.694435 0 49 3203169092864 1 0
9.729531 -14.201645 -0.20041288 100 3203169095168 1 1
6.7626133 -8.055085 -1.6362749 5 3203169095168 1 0
7.1262407 -9.386208 -1.5000665 23 3203169097472 1 0
28.455378 -30.721842 0.2433797 28 3203169097472 1 0
10.870091 -14.321682 -0.10449821 1 3203169099776 1 1
7.8094172 -9.307451 -1.308726 3 3203169099776 1 0
10.003581 -14.615333 -1.6532891 2 3203169102080 1 0
28.26655 -33.698704 1.0234851 42 3203169102080 1 0
9.723526 -14.210604 0.20045945 81 3203169104384 1 1
14.352763 -17.116076 -1.5619869 4 3203169104384 1 0
10.828005 -14.279164 -1.4629332 10 3203169106688 1 0
28.396078 -30.693617 1.2169152 39 3203169106688 1 0
10.9013605 -14.380244 0.31498104 1 3203169108992 1 1
16.105263 -17.413427 -1.5201428 4 3203169108992 1 0
9.746616 -14.257693 -1.005805 1 3203169111296 1 1
27.64517 -32.99688 2.5069547 23 3203169111296 1 0
19.90909 -23.770227 -1.444326 9 3203169113600 1 0
10.807047 -14.268761 -0.9380697 4 3203169115904 1 1
31.574524 -37.70918 6.03887 36 3203169115904 1 0
0 0 0 8 3203169118208 1 0
0 0 0 19 3203169118208 1 0
10.950141 -14.453323 0.7387557 74 3203169113600 1 1
9.699288 -14.206193 -0.6006901 95 3203169120512 1 1
20.406641 -26.96774 6.165984 30 3203169122816 1 0
0 0 0 9 3203169120512 1 0
21.69218 -25.929758 -0.78666633 43 3203169122816 1 0
0 0 0 4 3203169143552 1 0
23.813395 -25.860613 -0.6136266 37 3203169143552 1 0
0 0 0 46 3203169145856 1 0
3.8341606 -4.596734 -1.6756804 2 3203169145856 1 0
5.040055 -6.6827145 -1.6740572 2 3203169148160 1 0
21.579678 -25.879295 0 33 3203169148160 1 0
9.6686535 -14.218983 -0.20018007 99 3203169150464 1 1
6.7369857 -8.081678 -1.6368899 5 3203169150464 1 0
7.117317 -9.442713 -1.5051172 43 3203169152768 1 0
28.445446 -30.926968 0.2442166 35 3203169152768 1 0
0 0 0 95 3203169155072 1 0
7.7539697 -9.307155 -1.3048705 3 3203169155072 1 0
9.997263 -14.71605 -1.6607246 2 3203169157376 1 0
28.23576 -33.90164 1.0266489 35 3203169157376 1 0
9.658133 -14.221297 0.2001335 81 3203169159680 1 1
14.298036 -17.172205 -1.5625451 4 3203169159680 1 0
10.778095 -14.3168745 -1.4629332 6 3203169161984 1 0
28.391554 -30.904438 1.221337 39 3203169161984 1 0
10.848693 -14.415014 0.31491122 1 3203169164288 1 1
16.03898 -17.46366 -1.5196311 4 3203169164288 1 0
9.705756 -14.304847 -1.0067353 1 3203169166592 1 1
27.637081 -33.222115 2.516722 35 3203169166592 1 0
10.868392 -14.449936 0.73663896 68 3203169168896 1 1
19.854097 -23.873371 -1.4463735 9 3203169168896 1 0
10.735568 -14.277663 -0.9361856 4 3203169171200 1 1
31.57215 -37.97486 6.063731 36 3203169171200 1 0
0 0 0 8 3203169173504 1 0
22.686586 -24.73061 -1.3672762 21 3203169173504 1 0
9.638428 -14.223417 -0.59999216 95 3203169175808 1 1
0 0 0 9 3203169175808 1 0
20.27693 -26.991613 6.155222 30 3203169178112 1 0
21.542767 -25.93457 -0.78452617 19 3203169178112 1 0
0 0 0 4 3203169199296 1 0
23.674398 -25.890453 -0.61237 26 3203169199296 1 0
3.8180246 -4.610145 -1.6756804 1 3203169201600 1 0
0 0 0 9 3203169201600 1 0
5.0212035 -6.7066927 -1.6756262 3 3203169203904 1 0
28.281399 -34.16003 0 29 3203169203904 1 0
9.600441 -14.226542 -0.19980755 100 3203169206208 1 1
6.7083807 -8.105438 -1.6368899 5 3203169206208 1 0
28.478472 -31.184263 0.24544874 35 3203169208512 1 0
10.660989 -14.253863 -0.103452064 92 3203169210816 1 1
7.708082 -9.319403 -1.3027285 3 3203169210816 1 0
9.946773 -14.755028 -1.6610963 2 3203169213120 1 0
7.0504823 -9.423431 -1.4980462 41 3203169208512 1 0
28.22895 -34.141136 1.0308362 35 3203169213120 1 0
9.595805 -14.239317 0.19990069 81 3203169215424 1 1
14.248963 -17.238838 -1.5639402 4 3203169215424 1 0
10.6786585 -14.291784 -1.4564241 4 3203169217728 1 0
28.379587 -31.11595 1.2256423 39 3203169217728 1 0
10.695896 -14.319632 0.3119792 1 3203169220032 1 1
15.997147 -17.545229 -1.5216777 4 3203169220032 1 0
9.667058 -14.359919 -1.0081307 1 3203169222336 1 1
27.622889 -33.45171 2.5264893 35 3203169222336 1 0
10.777317 -14.438271 0.7340337 78 3203169224640 1 1
11.680505 -14.149867 -0.8546837 5 3203169224640 1 1
10.664055 -14.291304 -0.9345108 4 3203169226944 1 1
31.554045 -38.23731 6.08713 36 3203169226944 1 0
0 0 0 8 3203169229248 1 0
22.867212 -25.112387 -1.3837218 11 3203169229248 1 0
9.574665 -14.242339 -0.5992942 95 3203169231552 1 1
0 0 0 9 3203169231552 1 0
20.14846 -27.028772 6.146612 30 3203169233856 1 0
11.635154 -14.113316 -0.4256224 75 3203169233856 1 1
0 0 0 4 3203169254592 1 0
10.594528 -14.259477 -0.516997 2 3203169256896 1 1
23.52375 -25.92489 -0.61104363 26 3203169254592 1 0
3.795471 -4.618764 -1.6735239 2 3203169256896 1 0
5.002627 -6.7352242 -1.6779796 3 3203169259200 1 0
21.297987 -25.925518 0 13 3203169259200 1 0
9.533018 -14.242941 -0.19952817 100 3203169261504 1 1
6.6825805 -8.136954 -1.6381197 5 3203169261504 1 0
6.9958763 -9.424537 -1.4940057 42 3203169263808 1 0
28.462418 -31.404356 0.24633215 28 3203169263808 1 0
10.597685 -14.281074 -0.10335907 87 3203169266112 1 1
0 0 0 61 3203169266112 1 0
9.897977 -14.802181 -1.6622118 2 3203169268416 1 0
9.526953 -14.251809 0.19957472 79 3203169270720 1 1
14.184427 -17.291979 -1.5639402 4 3203169270720 1 0
28.202105 -34.37048 1.0345584 21 3203169268416 1 0
10.604001 -14.302623 -1.4534949 3 3203169273024 1 0
28.365501 -31.334038 1.2300642 40 3203169273024 1 0
10.642714 -14.359202 0.3119792 3 3203169275328 1 1
15.94 -17.613317 -1.5224453 4 3203169275328 1 0
9.607289 -14.385571 -1.0074329 1 3203169277632 1 1
27.610495 -33.689423 2.5367217 36 3203169277632 1 0
10.700326 -14.445715 0.73240536 82 3203169279936 1 1
11.554921 -14.103121 -0.8492861 69 3203169279936 1 1
10.621111 -14.343134 -0.9353482 4 3203169282240 1 1
31.544504 -38.512417 6.1124787 37 3203169282240 1 0
0 0 0 8 3203169284544 1 0
9.507288 -14.253779 -0.59831697 95 3203169286848 1 1
22.743221 -25.160122 -1.381768 16 3203169284544 1 0
0 0 0 107 3203169286848 1 0
11.543444 -14.105844 -0.42413357 82 3203169289152 1 1
20.022358 -27.063602 6.1380024 30 3203169289152 1 0
0 0 0 4 3203169309888 1 0
23.384924 -25.953363 -0.6097871 21 3203169309888 1 0
0 0 0 27 3203169312192 1 0
0 0 0 8 3203169312192 1 0
4.9816103 -6.7556577 -1.678764 2 3203169314496 1 0
11.524391 -14.127782 0 13 3203169314496 1 1
9.475013 -14.26239 -0.19934191 100 3203169316800 1 1
6.6544924 -8.159941 -1.6381197 4 3203169316800 1 0
6.9587774 -9.442105 -1.4929955 22 3203169319104 1 0
23.350412 -25.942366 0.20285903 15 3203169319104 1 0
10.522712 -14.28179 -0.10310335 89 3203169321408 1 1
7.625849 -9.356048 -1.3001581 67 3203169321408 1 0
9.849745 -14.8391 -1.6625835 2 3203169323712 1 0
28.21127 -34.621265 1.039211 21 3203169323712 1 0
9.469755 -14.270682 0.19938847 78 3203169326016 1 1
14.128266 -17.343042 -1.5642191 4 3203169326016 1 0
10.527317 -14.299795 -1.4495895 4 3203169328320 1 0
28.36654 -31.548502 1.2347187 40 3203169328320 1 0
0 0 0 47 3203169330624 1 0
15.8807335 -17.666773 -1.5224453 4 3203169330624 1 0
9.54808 -14.400988 -1.0062702 1 3203169332928 1 1
27.60604 -33.914764 2.5467217 36 3203169332928 1 0
10.635575 -14.458737 0.7312656 82 3203169335232 1 1
11.500319 -14.132231 -0.8487277 80 3203169335232 1 1
10.774641 -14.651812 -0.95314246 7 3203169337536 1 1
31.551916 -38.783115 6.1388025 38 3203169337536 1 0
0 0 0 8 3203169339840 1 0
22.697414 -25.276705 -1.3840475 33 3203169339840 1 0
9.442725 -14.25829 -0.5972002 95 3203169342144 1 1
9.467363 -11.643358 4.021013 16 3203169342144 1 0
19.901064 -27.084583 6.127958 30 3203169344448 1 0
11.469475 -14.109411 -0.42311 81 3203169344448 1 1
0 0 0 4 3203169365184 1 0
23.241913 -25.958172 -0.6081815 16 3203169365184 1 0
10.476091 -14.297176 -0.5158334 72 3203169367488 1 1
4.9624834 -6.774583 -1.6795485 2 3203169369792 1 0
9.453125 -11.660454 -4.202141 7 3203169367488 1 0
11.479539 -14.164251 0 9 3203169369792 1 1
9.41632 -14.272467 -0.19906253 100 3203169372096 1 1
6.6309557 -8.184166 -1.6387346 4 3203169372096 1 0
0 0 0 15 3203169374400 1 0
28.466825 -31.830957 0.24819197 44 3203169374400 1 0
10.460216 -14.292944 -0.10294061 89 3203169376704 1 1
7.5657034 -9.343421 -1.2950175 67 3203169376704 1 0
9.806164 -14.877477 -1.6633271 2 3203169379008 1 0
29.530972 -36.48073 1.092158 15 3203169379008 1 0
9.408014 -14.277943 0.19906253 78 3203169381312 1 1
14.0769615 -17.394978 -1.5647773 4 3203169381312 1 0
10.473614 -14.324362 -1.448613 3 3203169383616 1 0
28.367489 -31.757044 1.2392567 40 3203169383616 1 0
15.825493 -17.721626 -1.5227011 4 3203169385920 1 0
9.43043 -14.3255625 -0.99882835 1 3203169388224 1 1
10.4976845 -14.361667 0.31051323 89 3203169385920 1 1
27.607391 -34.145058 2.5571866 37 3203169388224 1 0
10.557133 -14.4518175 0.7291488 76 3203169390528 1 1
11.415921 -14.12351 -0.8459358 75 3203169390528 1 1
10.612916 -14.5326185 -0.94309396 7 3203169392832 1 1
31.555384 -39.051197 6.164639 39 3203169392832 1 0
0 0 0 8 3203169395136 1 0
22.647684 -25.390936 -1.3861643 22 3203169395136 1 0
9.377407 -14.263076 -0.5960834 97 3203169397440 1 1
9.53517 -11.807223 4.066565 103 3203169397440 1 0
19.768206 -27.094072 6.115043 29 3203169399744 1 0
11.40191 -14.122974 -0.42236558 88 3203169399744 1 1
0 0 0 4 3203169420480 1 0
28.46328 -32.01392 -0.7477309 21 3203169420480 1 0
10.395338 -14.291775 -0.5143207 81 3203169422784 1 1
9.474991 -11.771534 -4.2301764 7 3203169422784 1 0
4.9339943 -6.785663 -1.6779796 3 3203169425088 1 0
0 0 0 3 3203169425088 1 0
9.350482 -14.282233 -0.19873658 100 3203169427392 1 1
6.6069436 -8.213711 -1.6399645 4 3203169427392 1 0
6.8645754 -9.447122 -1.4864296 2 3203169429696 1 0
28.465229 -32.057404 0.24916837 29 3203169429696 1 0
10.397464 -14.313946 -0.102824375 94 3203169432000 1 1
7.519903 -9.354823 -1.2928755 58 3203169432000 1 0
9.74633 -14.902468 -1.6622118 2 3203169434304 1 0
29.49795 -36.707726 1.0957869 15 3203169434304 1 0
9.336963 -14.281518 0.19864345 81 3203169436608 1 1
14.01438 -17.445436 -1.5647773 4 3203169436608 1 0
10.475731 -14.436261 -1.4560986 3 3203169438912 1 0
28.353565 -31.972834 1.2436786 41 3203169438912 1 0
10.4080305 -14.347794 0.30939627 79 3203169441216 1 1
15.7612095 -17.778822 -1.5227011 4 3203169441216 1 0
9.373912 -14.35307 -0.99836326 1 3203169443520 1 1
27.588028 -34.37602 2.5669541 37 3203169443520 1 0
10.424548 -14.380242 0.7236126 27 3203169445824 1 1
11.339281 -14.133925 -0.8440746 78 3203169445824 1 1
10.421286 -14.380584 -0.9307426 7 3203169448128 1 1
31.538723 -39.324547 6.1895003 40 3203169448128 1 0
0 0 0 8 3203169450432 1 0
22.630932 -25.56088 -1.3908863 27 3203169450432 1 0
9.311548 -14.277531 -0.59524584 92 3203169452736 1 1
9.532564 -11.893621 4.0841646 165 3203169452736 1 0
19.646814 -27.138515 6.108586 29 3203169455040 1 0
11.329448 -14.140199 -0.42162114 88 3203169455040 1 1
0 0 0 4 3203169475776 1 0
28.483023 -32.284924 -0.7515006 50 3203169475776 1 0
10.3361225 -14.3248 -0.5140879 60 3203169478080 1 1
9.487756 -11.87979 -4.256056 5 3203169478080 1 0
11.405766 -14.285199 0 1 3203169480384 1 1
4.912888 -6.8106346 -1.6795485 3 3203169480384 1 0
9.281575 -14.293737 -0.19841062 100 3203169482688 1 1
6.5686784 -8.229177 -1.6381197 5 3203169482688 1 0
6.8177505 -9.456522 -1.4839041 3 3203169484992 1 0
28.451458 -32.2832 0.25009826 30 3203169484992 1 0
10.337497 -14.342525 -0.10275464 92 3203169487296 1 1
0 0 0 25 3203169487296 1 0
9.700315 -14.951454 -1.6636988 2 3203169489600 1 0
0 0 0 47 3203169489600 1 0
9.265384 -14.285172 0.19822437 82 3203169491904 1 1
13.950854 -17.496279 -1.5647773 4 3203169491904 1 0
11.56986 -16.065636 -1.6162239 3 3203169494208 1 0
10.351954 -14.378449 0.30925664 74 3203169496512 1 1
28.346376 -32.19794 1.2484493 41 3203169494208 1 0
15.708047 -17.847086 -1.5237244 4 3203169496512 1 0
9.327259 -14.392949 -0.99882835 1 3203169498816 1 1
27.58281 -34.620495 2.5778842 25 3203169498816 1 0
11.258589 -15.646364 0.7853249 14 3203169501120 1 1
11.267058 -14.14562 -0.8423995 80 3203169501120 1 1
31.490295 -39.546207 6.2070494 13 3203169503424 1 0
10.361694 -14.403902 -0.9299053 4 3203169503424 1 1
0 0 0 8 3203169505728 1 0
22.589817 -25.693092 -1.3938173 33 3203169505728 1 0
9.249453 -14.289273 -0.5944082 95 3203169508032 1 1
9.563864 -12.016965 4.115223 143 3203169508032 1 0
19.529074 -27.170074 6.1006937 29 3203169510336 1 0
11.26134 -14.153641 -0.42087674 87 3203169510336 1 1
0 0 0 4 3203169531072 1 0
28.46055 -32.464466 -0.75359493 36 3203169531072 1 0
10.374715 -14.47434 -0.51827693 29 3203169533376 1 1
9.519649 -11.99718 -4.2873263 2 3203169533376 1 0
4.8889847 -6.822989 -1.678764 3 3203169535680 1 0
11.372844 -14.33696 0 1 3203169535680 1 1
9.216491 -14.292975 -0.19799155 100 3203169537984 1 1
6.549801 -8.259349 -1.6399645 5 3203169537984 1 0
6.7735953 -9.458933 -1.4808737 3 3203169540288 1 0
28.453415 -32.494446 0.25102818 22 3203169540288 1 0
10.328596 -14.427716 -0.10312659 42 3203169542592 1 1
0 0 0 6 3203169542592 1 0
9.654146 -14.986045 -1.6640706 2 3203169544896 1 0
11.291891 -14.25193 0.42311 56 3203169544896 1 1
9.206009 -14.294972 0.19794498 82 3203169547200 1 1
13.970837 -17.638401 -1.5734271 4 3203169547200 1 0
11.531374 -16.1227 -1.6181767 3 3203169549504 1 0
28.346617 -32.410503 1.2531039 42 3203169549504 1 0
10.330434 -14.448035 0.31002456 26 3203169551808 1 1
15.652185 -17.901402 -1.5239803 4 3203169551808 1 0
9.359842 -14.547784 -1.0074329 3 3203169554112 1 1
27.587807 -34.86128 2.589047 25 3203169554112 1 0
11.260313 -15.758242 0.78906995 16 3203169556416 1 1
11.202941 -14.160807 -0.8410966 76 3203169556416 1 1
31.607725 -39.964928 6.2562847 43 3203169558720 1 0
10.376563 -14.525944 -0.93555754 4 3203169558720 1 1
0 0 0 8 3203169561024 1 0
22.54618 -25.816355 -1.3964225 16 3203169561024 1 0
9.186473 -14.296593 -0.59343106 95 3203169563328 1 1
19.405674 -27.190693 6.090649 29 3203169565632 1 0
11.19141 -14.163158 -0.42003927 88 3203169565632 1 1
0 0 0 4 3203169586368 1 0
9.573924 -12.112546 4.136964 143 3203169563328 1 0
28.45997 -32.693325 -0.75659674 51 3203169586368 1 0
10.384394 -14.595171 -0.52130234 29 3203169588672 1 1
4.8696847 -6.846406 -1.6803329 3 3203169590976 1 0
3.6971662 -4.6929207 -1.6724455 1 3203169588672 1 0
11.198983 -14.21945 0 1 3203169590976 1 1
9.155765 -14.308215 -0.19775872 100 3203169593280 1 1
6.5233755 -8.285268 -1.6405793 5 3203169593280 1 0
6.7290416 -9.466349 -1.4783484 27 3203169595584 1 0
28.444798 -32.714306 0.25195807 38 3203169595584 1 0
10.22488 -14.38869 -0.1025919 45 3203169597888 1 1
7.3951626 -9.398138 -1.2881633 3 3203169597888 1 0
9.606066 -15.026364 -1.6648141 2 3203169600192 1 0
11.222295 -14.266115 0.42236558 16 3203169600192 1 1
9.147438 -14.3135395 0.19775872 85 3203169602496 1 1
13.914116 -17.693333 -1.5739851 4 3203169602496 1 0
11.468101 -16.153103 -1.6172003 3 3203169604800 1 0
28.33818 -32.630005 1.2577584 42 3203169604800 1 0
10.312345 -14.529667 0.3110019 29 3203169607104 1 1
15.59222 -17.958942 -1.5242361 4 3203169607104 1 0
0 0 0 73 3203169609408 1 0
27.572035 -35.092384 2.5990467 25 3203169609408 1 0
11.235297 -15.839829 0.7911867 19 3203169611712 1 1
11.138634 -14.180973 -0.8399798 75 3203169611712 1 1
10.328106 -14.565334 -0.9357669 4 3203169614016 1 1
10.079928 -14.219724 1.4229019 2 3203169616320 1 1
31.583271 -40.221775 6.2791963 29 3203169614016 1 0
22.524008 -25.973404 -1.4006561 11 3203169616320 1 0
9.125767 -14.311719 -0.592733 92 3203169618624 1 1
9.607914 -12.2431555 4.1700926 118 3203169618624 1 0
19.27197 -27.203678 6.078452 29 3203169620928 1 0
11.114752 -14.167528 -0.41901568 94 3203169620928 1 1
0 0 0 4 3203169641664 1 0
28.390139 -32.843906 -0.7577835 44 3203169641664 1 0
10.001239 -14.161037 -0.5045462 63 3203169643968 1 1
3.6712697 -4.693661 -1.6681323 1 3203169643968 1 0
4.848019 -6.8665667 -1.6811174 5 3203169646272 1 0
9.092899 -14.319828 -0.19747934 100 3203169648576 1 1
11.164063 -14.277362 0 1 3203169646272 1 1
6.494415 -8.307988 -1.6405793 6 3203169648576 1 0
6.7119703 -9.512474 -1.4818839 45 3203169650880 1 0
28.393166 -32.886063 0.25251603 22 3203169650880 1 0
9.985533 -14.15627 -0.1006856 103 3203169653184 1 1
7.3476214 -9.40509 -1.2855929 3 3203169653184 1 0
9.555689 -15.063168 -1.6651859 3 3203169655488 1 0
11.147814 -14.273685 0.42143506 46 3203169655488 1 1
9.084566 -14.325116 0.19747934 81 3203169657792 1 1
11.151065 -14.282129 -1.2670566 4 3203169657792 1 1
11.223328 -15.925812 -1.5905128 5 3203169660096 1 0
28.331165 -32.85287 1.2625291 36 3203169660096 1 0
9.9759445 -14.160159 0.30234548 100 3203169662400 1 1
15.537256 -18.02233 -1.5250036 4 3203169662400 1 0
9.223858 -14.558802 -1.003712 14 3203169664704 1 1
27.562351 -35.333252 2.6097443 13 3203169664704 1 0
9.97428 -14.166548 0.70586425 22 3203169667008 1 1
11.074322 -14.200862 -0.8388631 20 3203169667008 1 1
10.279499 -14.604565 -0.93597627 4 3203169669312 1 1
31.61599 -40.554085 6.313807 15 3203169669312 1 0
0 0 0 100 3203169671616 1 0
22.446245 -26.067013 -1.4014703 11 3203169671616 1 0
9.0672035 -14.329974 -0.59217465 90 3203169673920 1 1
9.598364 -12.319288 4.1845865 99 3203169673920 1 0
19.149733 -27.232157 6.0698423 29 3203169676224 1 0
11.043115 -14.177846 -0.4181782 91 3203169676224 1 1
0 0 0 4 3203169696960 1 0
28.397745 -33.08544 -0.7610645 29 3203169696960 1 0
9.928796 -14.163122 -0.5033826 89 3203169699264 1 1
3.6737638 -4.7307863 -1.6767588 2 3203169699264 1 0
4.8217697 -6.8802357 -1.6803329 3 3203169701568 1 0
11.0675535 -14.256211 0 1 3203169701568 1 1
9.032197 -14.334561 -0.1972465 100 3203169703872 1 1
6.467798 -8.333729 -1.6411942 4 3203169703872 1 0
6.6491327 -9.493594 -1.475318 44 3203169706176 1 0
28.382336 -33.10644 0.25344592 23 3203169706176 1 0
9.9337635 -14.187763 -0.10066234 67 3203169708480 1 1
0 0 0 72 3203169708480 1 0
0 0 0 12 3203169710784 1 0
11.061165 -14.265109 0.42003927 57 3203169710784 1 1
9.019595 -14.333043 0.19715339 86 3203169713088 1 1
11.054694 -14.261046 -1.2617551 4 3203169713088 1 1
11.121964 -15.899555 -1.5840036 5 3203169715392 1 0
28.33074 -33.085194 1.267649 36 3203169715392 1 0
9.917288 -14.181785 0.30206624 73 3203169717696 1 1
15.539149 -18.152267 -1.5313994 4 3203169717696 1 0
32.209225 -41.588795 3.0634613 40 3203169720000 1 0
9.913322 -14.184898 0.7050501 62 3203169722304 1 1
9.189985 -14.617955 -1.0055726 5 3203169720000 1 1
11.269297 -14.555373 -0.8574755 9 3203169722304 1 1
0 0 0 85 3203169724608 1 0
0 0 0 1 3203169724608 1 0
9.911927 -14.191693 1.4131382 12 3203169726912 1 1
22.365507 -26.157356 -1.4021215 11 3203169726912 1 0
9.002248 -14.337838 -0.5911975 96 3203169729216 1 1
0 0 0 19 3203169729216 1 0
19.029783 -27.26334 6.06195 29 3203169731520 1 0
0 0 0 4 3203169752256 1 0
10.97888 -14.197328 -0.41761988 88 3203169731520 1 1
28.380663 -33.300034 -0.7637173 22 3203169752256 1 0
9.863311 -14.174721 -0.50256807 91 3203169754560 1 1
3.6666355 -4.7557836 -1.681072 1 3203169754560 1 0
10.971327 -14.234563 0 1 3203169756864 1 1
8.967262 -14.342262 -0.19692056 100 3203169759168 1 1
6.4386687 -8.356256 -1.6411942 5 3203169759168 1 0
4.8022037 -6.903465 -1.6819019 4 3203169756864 1 0
6.6046286 -9.500456 -1.4727925 46 3203169761472 1 0
28.383274 -33.342373 0.25449207 23 3203169761472 1 0
9.861351 -14.189506 -0.10042987 93 3203169763776 1 1
7.2623715 -9.430949 -1.2821659 67 3203169763776 1 0
9.450296 -15.129511 -1.6651859 26 3203169766080 1 0
10.996667 -14.28462 0.41948095 63 3203169766080 1 1
8.956798 -14.344085 0.196874 82 3203169768384 1 1
10.970777 -14.255277 -1.2578487 41 3203169768384 1 1
11.045933 -15.908809 -1.5810745 5 3203169770688 1 0
28.326447 -33.314865 1.2726526 36 3203169770688 1 0
9.856321 -14.199889 0.3017172 84 3203169772992 1 1
15.480863 -18.21248 -1.531911 4 3203169772992 1 0
9.193854 -14.738034 -1.011619 5 3203169775296 1 1
32.187996 -41.86242 3.0753217 60 3203169775296 1 0
9.852357 -14.202996 0.704236 70 3203169777600 1 1
11.264687 -14.654812 -0.8610119 11 3203169777600 1 1
10.295657 -14.846662 -0.9468621 7 3203169779904 1 1
0 0 0 1 3203169779904 1 0
0 0 0 8 3203169782208 1 0
22.266304 -26.226128 -1.401633 16 3203169782208 1 0
8.941575 -14.35221 -0.59049946 92 3203169784512 1 1
0 0 0 9 3203169784512 1 0
10.909773 -14.210189 -0.41687548 85 3203169786816 1 1
0 0 0 4 3203169807552 1 0
18.900885 -27.28108 6.051188 29 3203169786816 1 0
28.385677 -33.542385 -0.76699835 30 3203169807552 1 0
9.797866 -14.186034 -0.5017535 93 3203169809856 1 1
3.6383061 -4.75326 -1.6756804 2 3203169809856 1 0
4.775848 -6.916958 -1.6811174 3 3203169812160 1 0
10.933726 -14.288656 0 1 3203169812160 1 1
8.910818 -14.36328 -0.19678088 100 3203169814464 1 1
6.4142637 -8.384958 -1.6424241 6 3203169814464 1 0
6.569172 -9.520186 -1.4722875 33 3203169816768 1 0
28.37 -33.56344 0.255422 23 3203169816768 1 0
9.800405 -14.207378 -0.10031363 97 3203169819072 1 1
7.2100835 -9.430966 -1.2787387 59 3203169819072 1 0
9.393231 -15.155636 -1.6644424 42 3203169821376 1 0
10.920027 -14.28797 0.41845736 59 3203169821376 1 1
8.89614 -14.358262 0.19664118 82 3203169823680 1 1
10.88461 -14.245925 -1.2536633 13 3203169823680 1 1
10.972235 -15.921008 -1.5784708 5 3203169825984 1 0
28.315737 -33.5388 1.2774235 36 3203169825984 1 0
9.788542 -14.20786 0.30115873 87 3203169828288 1 1
15.422344 -18.272509 -1.5324227 4 3203169828288 1 0
9.3252 -15.065438 -1.0318513 5 3203169830592 1 1
32.17494 -42.149097 3.0881124 61 3203169830592 1 0
9.786854 -14.214258 0.70309615 70 3203169832896 1 1
11.186799 -14.659103 -0.85896456 15 3203169832896 1 1
9.901783 -14.385658 -0.9152512 16 3203169835200 1 1
0 0 0 1 3203169835200 1 0
9.774191 -14.204712 1.4076054 1 3203169837504 1 1
22.205536 -26.34036 -1.403587 16 3203169837504 1 0
8.872504 -14.352732 -0.5892431 92 3203169839808 1 1
9.899874 -12.984468 4.3750772 4 3203169839808 1 0
18.778784 -27.307981 6.042578 28 3203169842112 1 0
10.838286 -14.219561 -0.416038 93 3203169842112 1 1
0 0 0 4 3203169862296 1 0
28.33017 -33.714752 -0.7686738 45 3203169862296 1 0
9.741506 -14.210256 -0.50140446 82 3203169864600 1 1
3.6240225 -4.7689977 -1.6767588 2 3203169864600 1 0
4.7538915 -6.936822 -1.6819019 3 3203169866904 1 0
11.595173 -15.2631645 0 1 3203169866904 1 1
8.843853 -14.367048 -0.19640836 100 3203169869208 1 1
6.3897367 -8.413592 -1.6436539 6 3203169869208 1 0
28.327242 -33.751118 0.25609615 24 3203169871512 1 0
0 0 0 15 3203169871512 1 0
9.734934 -14.218399 -0.1001509 97 3203169873816 1 1
7.162693 -9.43707 -1.2761685 67 3203169873816 1 0
9.34653 -15.19851 -1.6655577 41 3203169876120 1 0
10.8483305 -14.297329 0.41761988 56 3203169876120 1 1
8.829208 -14.361969 0.19626866 85 3203169878424 1 1
10.817936 -14.261579 -1.2517102 9 3203169878424 1 1
10.898586 -15.932887 -1.575867 3 3203169880728 1 0
28.31408 -33.77532 1.2826598 37 3203169880728 1 0
9.723085 -14.218832 0.30067006 88 3203169883032 1 1
15.363595 -18.33235 -1.5329343 4 3203169883032 1 0
9.2516575 -15.06387 -1.0295258 5 3203169885336 1 1
32.11444 -42.375725 3.0964842 61 3203169885336 1 0
9.721392 -14.225236 0.70195633 64 3203169887640 1 1
11.121083 -14.678954 -0.8578478 13 3203169887640 1 1
10.128665 -14.825824 -0.9410005 7 3203169889944 1 1
0 0 0 1 3203169889944 1 0
9.738039 -14.258496 1.4095582 2 3203169892248 1 1
21.569597 -25.767994 -1.3690673 32 3203169892248 1 0
8.80981 -14.36317 -0.5884055 85 3203169894552 1 1
9.847493 -13.009705 4.371971 3 3203169894552 1 0
18.656727 -27.334362 6.0339684 28 3203169896856 1 0
0 0 0 4 3203169917592 1 0
11.742532 -14.073834 -0.31993753 14 3203169917592 1 1
10.766868 -14.228607 -0.41520053 94 3203169896856 1 1
3.6096733 -4.784694 -1.677837 2 3203169919896 1 0
4.734061 -6.95986 -1.6834708 3 3203169922200 1 0
10.785536 -14.300768 0 1 3203169922200 1 1
9.673849 -14.217728 -0.50047356 93 3203169919896 1 1
8.781139 -14.377351 -0.19612896 100 3203169924504 1 1
6.3603287 -8.435845 -1.6436539 6 3203169924504 1 0
6.4780107 -9.529718 -1.4667317 3 3203169926808 1 0
21.55898 -25.86977 0.195722 39 3203169926808 1 0
9.669505 -14.2291355 -0.09998816 99 3203169929112 1 1
7.1105614 -9.4366045 -1.2727413 60 3203169929112 1 0
9.287196 -15.220843 -1.6644424 41 3203169931416 1 0
10.771892 -14.299974 0.41659632 59 3203169931416 1 1
8.766525 -14.372213 0.19598928 86 3203169933720 1 1
10.727282 -14.245065 -1.2469667 15 3203169933720 1 1
11.192242 -16.485382 -1.6266385 16 3203169936024 1 0
28.298326 -33.99687 1.2873143 31 3203169936024 1 0
9.659917 -14.232831 0.3002512 90 3203169938328 1 1
11.747838 -14.11772 -1.1770746 1 3203169938328 1 1
0 0 0 59 3203169940632 1 0
32.103172 -42.669453 3.10974 41 3203169940632 1 0
9.651486 -14.229315 0.7004909 64 3203169942936 1 1
11.040956 -14.679365 -0.8556143 13 3203169942936 1 1
10.097028 -14.890844 -0.94288456 7 3203169945240 1 1
0 0 0 1 3203169945240 1 0
9.677023 -14.275902 1.4079309 1 3203169947544 1 1
0 0 0 3 3203169947544 1 0
8.747149 -14.373344 -0.5875679 94 3203169949848 1 1
9.7416725 -12.963691 4.345054 3 3203169949848 1 0
18.53692 -27.363483 6.0260763 28 3203169952152 1 0
0 0 0 9 3203169952152 1 0
0 0 0 4 3203169972888 1 0
11.56321 -13.957667 -0.31637722 48 3203169972888 1 1
9.608498 -14.228214 -0.499659 91 3203169975192 1 1
3.5998769 -4.8065143 -1.681072 2 3203169975192 1 0
4.7097373 -6.9763427 -1.6834708 3 3203169977496 1 0
10.742743 -14.347936 0 1 3203169977496 1 1
8.71639 -14.38397 -0.19580302 100 3203169979800 1 1
6.3355803 -8.464324 -1.6448838 6 3203169979800 1 0
6.4336104 -9.535826 -1.4642063 3 3203169982104 1 0
11.401101 -13.778299 0.10394026 2 3203169982104 1 1
9.5996475 -14.232956 -0.099778935 100 3203169984408 1 1
0 0 0 10 3203169984408 1 0
9.231947 -15.249763 -1.6640706 36 3203169986712 1 0
10.70754 -14.318274 0.416038 60 3203169986712 1 1
10.670324 -14.272836 -1.2461296 15 3203169989016 1 1
8.705949 -14.385617 0.19575645 83 3203169989016 1 1
11.145768 -16.540882 -1.6282659 35 3203169991320 1 0
9.59677 -14.246561 0.29983234 88 3203169993624 1 1
11.690858 -14.149409 -1.1763071 2 3203169993624 1 1
28.2992 -34.24029 1.2927834 31 3203169991320 1 0
9.0739565 -15.008488 -1.0213863 90 3203169995928 1 1
32.08068 -42.950817 3.1220655 63 3203169995928 1 0
9.583902 -14.236395 0.69918823 74 3203169998232 1 1
10.975304 -14.6986065 -0.85449755 9 3203169998232 1 1
9.97362 -14.819953 -0.9361856 4 3203170000536 1 1
0 0 0 1 3203170000536 1 0
9.61378 -14.289747 1.4059781 1 3203170002840 1 1
0 0 0 47 3203170002840 1 0
8.688659 -14.390101 -0.58700955 92 3203170005144 1 1
9.682499 -12.979035 4.3388424 4 3203170005144 1 0
18.41714 -27.392101 6.018184 28 3203170007448 1 0
0 0 0 1 3203170007448 1 0
0 0 0 4 3203170028184 1 0
11.575394 -14.072074 -0.31805265 60 3203170028184 1 1
9.5342865 -14.225134 -0.49837902 95 3203170030488 1 1
3.5738838 -4.8066864 -1.6767588 2 3203170030488 1 0
4.6853566 -6.99274 -1.6834708 3 3203170032792 1 0
0 0 0 77 3203170032792 1 0
8.653762 -14.393742 -0.19552363 100 3203170035096 1 1
6.3107104 -8.492733 -1.6461135 7 3203170035096 1 0
6.389246 -9.541739 -1.461681 3 3203170037400 1 0
11.319926 -13.777835 0.103638045 2 3203170037400 1 1
9.536556 -14.246434 -0.099639446 100 3203170039704 1 1
0 0 0 4 3203170039704 1 0
9.186861 -15.295551 -1.6655577 25 3203170042008 1 0
10.640809 -14.333087 0.41538662 57 3203170042008 1 1
8.645387 -14.398773 0.19552363 83 3203170044312 1 1
10.601413 -14.284362 -1.2438974 28 3203170044312 1 1
11.087961 -16.579687 -1.6282659 28 3203170046616 1 0
28.286036 -34.46868 1.2976705 31 3203170046616 1 0
9.5292 -14.253375 0.29927388 84 3203170048920 1 1
15.178376 -18.501488 -1.5337018 2 3203170048920 1 0
9.005079 -15.012675 -1.0195259 84 3203170051224 1 1
32.06375 -43.242165 3.1350887 64 3203170051224 1 0
9.523047 -14.253146 0.6983741 70 3203170053528 1 1
10.938206 -14.756087 -0.8556143 16 3203170053528 1 1
9.921828 -14.854677 -0.9361856 7 3203170055832 1 1
0 0 0 1 3203170055832 1 0
9.568268 -14.329849 1.406629 1 3203170058136 1 1
11.543485 -14.08749 -0.7420123 74 3203170058136 1 1
8.630158 -14.406626 -0.5864511 94 3203170060440 1 1
9.627937 -13.000335 4.3347015 4 3203170060440 1 0
18.2952 -27.416943 6.0095744 28 3203170062744 1 0
10.569689 -14.276297 -0.41333947 1 3203170062744 1 1
0 0 0 4 3203170083480 1 0
11.5110235 -14.093809 -0.3176338 60 3203170083480 1 1
9.473397 -14.241752 -0.49779722 91 3203170085784 1 1
3.5661986 -4.831555 -1.681072 2 3203170085784 1 0
4.6651607 -7.0156527 -1.6850398 3 3203170088088 1 0
8.5908575 -14.403438 -0.19524425 100 3203170090392 1 1
10.556607 -14.306868 0 85 3203170088088 1 1
6.278495 -8.511665 -1.6454986 6 3203170090392 1 0
6.3490334 -9.554255 -1.4601657 27 3203170092696 1 0
0 0 0 61 3203170092696 1 0
9.470757 -14.2566595 -0.09947672 100 3203170095000 1 1
9.134784 -15.3313465 -1.6659294 18 3203170097304 1 0
6.989769 -9.481992 -1.2688859 2 3203170095000 1 0
10.571107 -14.3448515 0.4146422 56 3203170097304 1 1
8.588198 -14.418992 0.19538394 82 3203170099608 1 1
10.572058 -14.350731 -1.2464087 20 3203170099608 1 1
11.057712 -16.662115 -1.6324968 106 3203170101912 1 0
9.4629755 -14.263843 0.2987852 64 3203170104216 1 1
28.25445 -34.68044 1.3018596 12 3203170101912 1 0
11.482465 -14.09835 -1.1653063 3 3203170104216 1 1
8.939275 -15.024078 -1.0181305 84 3203170106520 1 1
9.463261 -14.273734 0.6977228 74 3203170108824 1 1
32.05148 -43.54911 3.149042 64 3203170106520 1 0
10.875976 -14.782176 -0.8548698 11 3203170108824 1 1
9.879649 -14.90673 -0.9372323 7 3203170111128 1 1
0 0 0 1 3203170111128 1 0
9.514629 -14.360738 1.4063035 1 3203170113432 1 1
11.465161 -14.09468 -0.7402212 69 3203170113432 1 1
9.565153 -13.013046 4.3274546 4 3203170115736 1 0
8.564054 -14.41348 -0.58547395 96 3203170115736 1 1
18.170319 -27.443249 6.0009646 28 3203170118040 1 0
0 0 0 99 3203170118040 1 0
0 0 0 4 3203170138776 1 0
9.405927 -14.25288 -0.4969827 95 3203170141080 1 1
11.429068 -14.098622 -0.3167961 71 3203170138776 1 1
3.5485365 -4.8445415 -1.681072 1 3203170141080 1 0
4.63746 -7.029295 -1.6842552 4 3203170143384 1 0
10.483247 -14.3161125 0 88 3203170143384 1 1
8.530493 -14.420686 -0.19505799 100 3203170145688 1 1
6.2522974 -8.540727 -1.6467284 6 3203170145688 1 0
6.31453 -9.577094 -1.4601657 51 3203170147992 1 0
11.4933 -14.193889 0.106148794 2 3203170147992 1 1
9.408472 -14.273891 -0.09936047 100 3203170150296 1 1
6.946267 -9.494202 -1.2671723 1 3203170150296 1 0
9.081898 -15.36736 -1.6663013 10 3203170152600 1 0
10.50791 -14.366444 0.41417694 53 3203170152600 1 1
8.524556 -14.428842 0.19510455 88 3203170154904 1 1
10.504367 -14.365765 -1.2444555 5 3203170154904 1 1
0 0 0 14 3203170157208 1 0
29.594584 -36.58977 1.3695823 42 3203170157208 1 0
9.4037075 -14.283837 0.29850596 64 3203170159512 1 1
0 0 0 13 3203170159512 1 0
8.876189 -15.038255 -1.0169678 50 3203170161816 1 1
0 0 0 57 3203170161816 1 0
9.399989 -14.286784 0.6967458 74 3203170164120 1 1
10.444674 -14.30071 -0.8249038 3 3203170164120 1 1
9.836336 -14.954474 -0.9380697 7 3203170166424 1 1
0 0 0 1 3203170166424 1 0
9.405512 -14.303785 1.3975161 1 3203170168728 1 1
11.388474 -14.100247 -0.7384301 76 3203170168728 1 1
9.510941 -13.033594 4.323313 4 3203170171032 1 0
8.505988 -14.429263 -0.5849156 96 3203170171032 1 1
10.428761 -14.295504 -0.4117576 99 3203170173336 1 1
0 0 0 4 3203170194072 1 0
18.049679 -27.466257 5.992355 28 3203170173336 1 0
11.35717 -14.105294 -0.31609797 76 3203170194072 1 1
3.5233533 -4.8438478 -1.6767588 2 3203170196376 1 0
4.6183205 -7.0512643 -1.6858243 4 3203170198680 1 0
10.407277 -14.312128 0 88 3203170198680 1 1
9.349743 -14.270683 -0.49651724 95 3203170196376 1 1
8.474211 -14.435283 -0.19487174 100 3203170200984 1 1
6.2260785 -8.564746 -1.6473434 5 3203170200984 1 0
6.2607265 -9.564963 -1.455115 41 3203170203288 1 0
11.420688 -14.201086 0.105916314 1 3203170203288 1 1
9.345236 -14.281924 -0.099197745 100 3203170205592 1 1
0 0 0 63 3203170205592 1 0
9.04029 -15.414964 -1.6681601 5 3203170207896 1 0
10.436084 -14.36931 0.41324642 64 3203170207896 1 1
8.467834 -14.443661 0.19491829 85 3203170210200 1 1
10.416083 -14.34616 -1.239712 4 3203170210200 1 1
0 0 0 9 3203170212504 1 0
29.591137 -36.83905 1.3751677 28 3203170212504 1 0
9.335661 -14.285423 0.29787767 70 3203170214808 1 1
11.347198 -14.130735 -1.1614689 3 3203170214808 1 1
0 0 0 36 3203170217112 1 0
10.462141 -14.422828 1.0376652 83 3203170217112 1 1
10.433578 -14.387854 -0.82788175 5 3203170219416 1 1
9.338304 -14.298548 0.69576883 72 3203170219416 1 1
9.776648 -14.974485 -0.9372323 9 3203170221720 1 1
22.701307 -31.314575 4.7490044 22 3203170221720 1 0
9.337061 -14.305734 1.394587 1 3203170224024 1 1
11.320312 -14.114065 -0.7371274 74 3203170224024 1 1
8.450565 -14.4479 -0.5844968 67 3203170226328 1 1
9.459537 -13.05664 4.3202076 4 3203170226328 1 0
17.931847 -27.491663 5.9844627 28 3203170228632 1 0
10.368006 -14.314946 -0.4112923 96 3203170228632 1 1
0 0 0 4 3203170249368 1 0
11.280394 -14.11049 -0.3153301 81 3203170249368 1 1
9.2846155 -14.279769 -0.4957027 99 3203170251672 1 1
3.5109336 -4.862363 -1.6789154 2 3203170251672 1 0
4.5915413 -7.0640535 -1.6850398 3 3203170253976 1 0
10.343208 -14.328909 0 97 3203170253976 1 1
8.417732 -14.454406 -0.19473204 100 3203170256280 1 1
6.2007694 -8.592836 -1.6485732 6 3203170256280 1 0
6.2208157 -9.5767765 -1.4535998 37 3203170258584 1 0
11.198833 -14.025189 0.104312226 1 3203170258584 1 1
9.284433 -14.297685 -0.0990815 100 3203170260888 1 1
6.8695035 -9.525385 -1.2650304 38 3203170260888 1 0
8.994437 -15.4601965 -1.6696472 3 3203170263192 1 0
10.367153 -14.379702 0.412502 64 3203170263192 1 1
8.401278 -14.445471 0.19454578 85 3203170265496 1 1
10.25862 -14.233525 -1.2268769 4 3203170265496 1 1
9.277965 -14.30138 -1.391658 1 3203170267800 1 0
11.348171 -14.229186 0.52968043 7 3203170267800 1 1
9.2748575 -14.3011465 0.29752862 70 3203170270104 1 1
11.272919 -14.139047 -1.1589106 3 3203170270104 1 1
8.794591 -15.136943 -1.0195259 3 3203170272408 1 1
0 0 0 6 3203170272408 1 0
9.275292 -14.310934 0.69479185 68 3203170274712 1 1
10.380957 -14.420943 -0.8276956 3 3203170274712 1 1
9.713457 -14.991759 -0.9361856 16 3203170277016 1 1
0 0 0 1 3203170277016 1 0
9.284901 -14.334893 1.3942616 1 3203170279320 1 1
11.251058 -14.128483 -0.7358248 76 3203170279320 1 1
8.382026 -14.446191 -0.5832404 81 3203170281624 1 1
9.578584 -13.318562 4.3957825 3 3203170281624 1 0
17.810114 -27.514448 5.975853 28 3203170283928 1 0
10.306302 -14.334816 -0.41082707 100 3203170283928 1 1
0 0 0 4 3203170304664 1 0
11.216151 -14.130984 -0.31491122 82 3203170304664 1 1
9.226146 -14.298586 -0.49523726 93 3203170306968 1 1
3.493975 -4.874563 -1.6789154 1 3203170306968 1 0
4.5712104 -7.086564 -1.6866087 4 3203170309272 1 0
10.316635 -14.39729 0 54 3203170309272 1 1
8.349534 -14.452349 -0.19431296 100 3203170311576 1 1
6.1663218 -8.607868 -1.6473434 6 3203170311576 1 0
6.179028 -9.584912 -1.4515795 37 3203170313880 1 0
11.150218 -14.063871 0.104312226 1 3203170313880 1 1
6.818038 -9.523189 -1.2616032 40 3203170316184 1 0
9.221989 -14.309497 -0.09894202 99 3203170316184 1 1
8.957019 -15.518703 -1.6726215 2 3203170318488 1 0
8.343544 -14.460426 0.19435953 86 3203170320792 1 1
10.123688 -14.148659 -1.2165529 17 3203170320792 1 1
9.200763 -14.289566 -1.387427 1 3203170323096 1 0
11.27444 -14.23671 0.5285168 46 3203170323096 1 1
10.326834 -14.428359 0.41287422 41 3203170318488 1 1
9.214995 -14.316016 0.29717958 54 3203170325400 1 1
11.474681 -14.493676 -1.1847495 2 3203170325400 1 1
8.383838 -14.544184 -0.9776658 5 3203170327704 1 1
0 0 0 3 3203170327704 1 0
9.204806 -14.308873 0.6931636 68 3203170330008 1 1
10.419997 -14.579795 -0.83476835 5 3203170330008 1 1
9.379334 -14.584606 -0.90876156 35 3203170332312 1 1
22.930336 -32.093796 4.8430877 7 3203170332312 1 0
9.212448 -14.329454 1.3906816 1 3203170334616 1 1
11.183178 -14.141532 -0.73452216 81 3203170334616 1 1
8.325044 -14.460655 -0.582682 74 3203170336920 1 1
9.551356 -13.3761 4.4040647 4 3203170336920 1 0
17.691444 -27.534788 5.967243 33 3203170339224 1 0
10.283326 -14.405388 -0.41185063 21 3203170339224 1 1
0 0 0 4 3203170359960 1 0
11.149422 -14.142974 -0.31435275 82 3203170359960 1 1
9.161322 -14.302235 -0.49430636 91 3203170362264 1 1
3.4889235 -4.9018393 -1.6843069 1 3203170362264 1 0
4.5433517 -7.0951433 -1.6850398 3 3203170364568 1 0
10.32892 -14.51631 0 64 3203170364568 1 1
8.293289 -14.466259 -0.19412671 100 3203170366872 1 1
6.1421366 -8.634845 -1.6485732 6 3203170366872 1 0
6.144791 -9.602187 -1.4510745 22 3203170369176 1 0
11.065991 -14.053952 0.10396351 1 3203170369176 1 1
9.165342 -14.326856 -0.09884903 100 3203170371480 1 1
6.7768564 -9.533027 -1.2598897 39 3203170371480 1 0
8.914726 -15.5659895 -1.6744803 2 3203170373784 1 0
10.338529 -14.547724 0.41529357 27 3203170373784 1 1
8.282885 -14.46761 0.19408014 83 3203170376088 1 1
10.244695 -14.420128 -1.2369218 22 3203170376088 1 1
9.141759 -14.303735 -1.3857998 1 3203170378392 1 0
11.194205 -14.233815 0.5270041 48 3203170378392 1 1
9.149306 -14.320134 0.2966211 52 3203170380696 1 1
11.27017 -14.334698 -1.1686321 3 3203170380696 1 1
8.659635 -15.140992 -1.015805 5 3203170383000 1 1
36.091125 -50.847767 3.6313632 28 3203170383000 1 0
9.136801 -14.309734 0.69169813 74 3203170385304 1 1
10.40973 -14.670496 -0.83793247 5 3203170385304 1 1
9.303853 -14.576038 -0.9062494 28 3203170387608 1 1
23.411312 -33.003872 4.9683695 8 3203170387608 1 0
9.169955 -14.370874 1.391658 1 3203170389912 1 1
11.107729 -14.145016 -0.73273104 76 3203170389912 1 1
8.259708 -14.461255 -0.5815652 87 3203170392216 1 1
9.527927 -13.440188 4.4144177 4 3203170392216 1 0
17.577988 -27.565363 5.960786 28 3203170394520 1 0
10.305604 -14.541668 -0.41473526 15 3203170394520 1 1
0 0 0 4 3203170415256 1 0
9.102762 -14.320629 -0.4938409 72 3203170417560 1 1
3.456233 -4.8919663 -1.6767588 2 3203170417560 1 0
4.520661 -7.1142697 -1.6858243 3 3203170419864 1 0
9.998962 -14.15694 0 76 3203170419864 1 1
11.0753355 -14.150312 -0.31365466 84 3203170415256 1 1
8.232856 -14.4777355 -0.19389388 100 3203170422168 1 1
6.114238 -8.659461 -1.649188 6 3203170422168 1 0
0 0 0 15 3203170424472 1 0
11.078454 -14.171276 0.10454471 1 3203170424472 1 1
9.093839 -14.324992 -0.09861655 99 3203170426776 1 1
6.734367 -9.543626 -1.2581761 22 3203170426776 1 0
8.897714 -15.662808 -1.6815441 2 3203170429080 1 0
10.022597 -14.207938 0.40459254 12 3203170429080 1 1
8.216532 -14.468611 0.19370763 85 3203170431384 1 1
10.162102 -14.410147 -1.2330154 8 3203170431384 1 1
9.087503 -14.328825 -1.3851488 1 3203170433688 1 0
0 0 0 6 3203170433688 1 0
11.109533 -14.23235 -1.1571198 3 3203170435992 1 1
9.07999 -14.321584 0.29599282 61 3203170435992 1 1
8.646138 -15.240593 -1.0204561 5 3203170438296 1 1
9.0782385 -14.328036 0.6910468 74 3203170440600 1 1
10.0184965 -14.21968 1.0130143 6 3203170438296 1 1
9.999523 -14.197136 -0.8088971 7 3203170440600 1 1
9.227267 -14.567931 -0.9037373 16 3203170442904 1 1
23.124535 -32.841927 4.9318085 7 3203170442904 1 0
9.111205 -14.389322 1.3903561 1 3203170445208 1 1
11.041084 -14.161639 -0.7315912 64 3203170445208 1 1
9.589906 -13.628195 4.465146 3 3203170447512 1 0
8.1993265 -14.472608 -0.58086723 96 3203170447512 1 1
17.4522 -27.58 5.9507413 28 3203170449816 1 0
9.960276 -14.158902 -0.40282452 99 3203170449816 1 1
0 0 0 4 3203170470552 1 0
11.006242 -14.163623 -0.31309617 78 3203170470552 1 1
9.033522 -14.32188 -0.49279365 82 3203170472856 1 1
3.4435592 -4.9103084 -1.6789154 2 3203170472856 1 0
4.4958 -7.130007 -1.6858243 4 3203170475160 1 0
9.944893 -14.185206 0 85 3203170475160 1 1
8.172444 -14.488966 -0.19366106 100 3203170477464 1 1
6.0862417 -8.683988 -1.649803 7 3203170477464 1 0
10.9676075 -14.130864 0.10396351 1 3203170479768 1 1
6.058567 -9.614637 -1.4465288 3 3203170479768 1 0
0 0 0 4 3203170482072 1 0
8.846896 -15.700711 -1.6822877 2 3203170484376 1 0
9.024592 -14.326188 -0.09840732 100 3203170482072 1 1
9.945417 -14.203528 0.4034759 56 3203170484376 1 1
8.156161 -14.479779 0.1934748 88 3203170486680 1 1
9.990462 -14.272277 -1.218227 6 3203170486680 1 1
9.0268135 -14.343588 -1.3835216 1 3203170488984 1 0
11.030871 -14.229458 0.5239787 10 3203170488984 1 1
9.023554 -14.343036 0.29578337 66 3203170491288 1 1
11.020662 -14.22056 -1.1530265 13 3203170491288 1 1
8.510638 -15.1245165 -1.0106888 5 3203170493592 1 1
9.93676 -14.208751 1.0097585 47 3203170493592 1 1
9.017533 -14.34272 0.69023263 58 3203170495896 1 1
9.956774 -14.241778 -0.80945545 16 3203170495896 1 1
9.206119 -14.6474 -0.9066681 9 3203170498200 1 1
23.066614 -33.0038 4.9439955 16 3203170498200 1 0
9.010017 -14.340022 1.3825451 1 3203170500504 1 1
0 0 0 10 3203170500504 1 0
9.604224 -13.7502775 4.494134 3 3203170502808 1 0
8.138966 -14.483716 -0.58016926 94 3203170502808 1 1
17.336988 -27.610758 5.944284 28 3203170505112 1 0
0 0 0 4 3203170526296 1 0
9.908502 -14.190305 -0.40273148 94 3203170505112 1 1
10.934748 -14.173456 -0.31246787 81 3203170526296 1 1
8.964382 -14.322823 -0.4917464 97 3203170528600 1 1
3.4307992 -4.9286213 -1.681072 2 3203170528600 1 0
4.4708843 -7.1456566 -1.6858243 4 3203170530904 1 0
9.874753 -14.190285 0 96 3203170530904 1 1
8.110102 -14.496462 -0.19338167 100 3203170533208 1 1
6.0581493 -8.708424 -1.6504179 7 3203170533208 1 0
6.0123467 -9.6155405 -1.4434984 3 3203170535512 1 0
10.879151 -14.118368 0.10359155 1 3203170535512 1 1
8.966049 -14.344035 -0.09831433 100 3203170537816 1 1
6.644874 -9.5577545 -1.2538923 1 3203170537816 1 0
8.790093 -15.728021 -1.6819159 2 3203170540120 1 0
9.863826 -14.192185 0.40217316 67 3203170540120 1 1
8.097765 -14.494194 0.19328855 82 3203170542424 1 1
10.295766 -14.818263 -1.2617551 13 3203170542424 1 1
8.974579 -14.371629 -1.383196 1 3203170544728 1 0
11.000643 -14.293224 0.5249096 32 3203170544728 1 1
8.962843 -14.357484 0.29543433 64 3203170547032 1 1
10.949048 -14.230469 -1.150724 7 3203170547032 1 1
8.53369 -15.290122 -1.0197585 5 3203170549336 1 1
9.864331 -14.2105465 1.0074329 58 3203170549336 1 1
8.958951 -14.360546 0.68958133 68 3203170551640 1 1
10.492445 -15.1201 -0.85728943 5 3203170551640 1 1
9.3303795 -14.960765 -0.92404366 4 3203170553944 1 1
23.048578 -33.22439 4.964957 16 3203170553944 1 0
8.9556875 -14.364619 1.3818942 1 3203170556248 1 1
8.078628 -14.494578 -0.57947123 94 3203170558552 1 1
10.912725 -14.200346 -0.7296373 3 3203170556248 1 1
17.217613 -27.634367 5.936392 28 3203170560856 1 0
9.395468 -13.551927 4.4185586 1 3203170558552 1 0
9.840684 -14.198512 -0.40198708 99 3203170560856 1 1
0 0 0 4 3203170581592 1 0
10.865751 -14.186139 -0.3119094 82 3203170581592 1 1
8.90579 -14.340506 -0.49128094 95 3203170583896 1 1
3.4135385 -4.940592 -1.681072 2 3203170583896 1 0
4.443741 -7.1579514 -1.6850398 3 3203170586200 1 0
9.80904 -14.201772 0 93 3203170586200 1 1
8.045549 -14.500377 -0.19305572 100 3203170588504 1 1
6.0297694 -8.732902 -1.6510328 7 3203170588504 1 0
5.970098 -9.623156 -1.441478 3 3203170590808 1 0
10.792936 -14.108918 0.10324284 1 3203170590808 1 1
8.902753 -14.355174 -0.09817485 100 3203170593112 1 1
6.608864 -9.577858 -1.2534639 2 3203170593112 1 0
8.75762 -15.80079 -1.6863772 2 3203170595416 1 0
9.799981 -14.207208 0.40161484 70 3203170595416 1 1
8.038629 -14.508787 0.19310229 86 3203170597720 1 1
9.867198 -14.309329 -1.2154368 6 3203170597720 1 1
8.923519 -14.403387 -1.383196 1 3203170600024 1 0
10.908584 -14.278162 0.52293146 48 3203170600024 1 1
8.901201 -14.372265 0.29508528 70 3203170602328 1 1
10.859607 -14.218557 -1.1466308 16 3203170602328 1 1
0 0 0 73 3203170604632 1 0
9.797773 -14.222588 1.005805 57 3203170604632 1 1
8.892894 -14.368654 0.6884415 76 3203170606936 1 1
9.923948 -14.410455 -0.81503916 28 3203170606936 1 1
9.259978 -14.966877 -0.9223689 7 3203170609240 1 1
8.893645 -14.379682 1.3802669 1 3203170611544 1 1
22.963326 -33.355694 4.972269 16 3203170609240 1 0
10.999909 -14.420509 -0.73891854 4 3203170611544 1 1
8.018769 -14.509512 -0.57891285 99 3203170613848 1 1
0 0 0 9 3203170613848 1 0
17.095266 -27.659346 5.9284997 28 3203170616152 1 0
9.775913 -14.214074 -0.40142876 97 3203170616152 1 1
0 0 0 4 3203170636888 1 0
10.799162 -14.206765 -0.31149054 81 3203170636888 1 1
8.844886 -14.359368 -0.4908155 87 3203170639192 1 1
3.3889093 -4.943514 -1.677837 2 3203170639192 1 0
4.421694 -7.180806 -1.6866087 3 3203170641496 1 0
9.743562 -14.2176895 0 93 3203170641496 1 1
7.98881 -14.522584 -0.1929626 100 3203170643800 1 1
6.000146 -8.758073 -1.6516477 7 3203170643800 1 0
5.9350677 -9.6448 -1.441478 25 3203170646104 1 0
10.816545 -14.246828 0.10396351 1 3203170646104 1 1
8.842218 -14.373758 -0.09808186 100 3203170648408 1 1
6.5673237 -9.591932 -1.2521787 2 3203170648408 1 0
8.686913 -15.80797 -1.6837747 2 3203170650712 1 0
9.734913 -14.222806 0.40105653 71 3203170650712 1 1
7.978434 -14.523724 0.19291604 88 3203170653016 1 1
8.854809 -14.408308 -1.3805923 1 3203170655320 1 0
10.38325 -15.174768 -1.2857513 15 3203170653016 1 1
10.835269 -14.288744 0.5218842 49 3203170655320 1 1
8.834752 -14.380361 0.2945966 72 3203170657624 1 1
10.777004 -14.216203 -1.143305 11 3203170657624 1 1
8.3664255 -15.245773 -1.0127817 11 3203170659928 1 1
9.735349 -14.241211 1.0046422 55 3203170659928 1 1
8.830867 -14.383415 0.6876274 76 3203170662232 1 1
9.849676 -14.412952 -0.81317794 5 3203170662232 1 1
9.250249 -15.071405 -0.9267651 4 3203170664536 1 1
22.841595 -33.43436 4.9717817 8 3203170664536 1 0
8.835989 -14.401152 1.3792906 1 3203170666840 1 1
10.974888 -14.494744 -0.74070966 11 3203170666840 1 1
7.955489 -14.51696 -0.5780753 96 3203170669144 1 1
0 0 0 9 3203170669144 1 0
16.980343 -27.693127 5.92276 28 3203170671448 1 0
9.70727 -14.222325 -0.40068433 86 3203170671448 1 1
0 0 0 4 3203170692184 1 0
10.727823 -14.215643 -0.31086227 86 3203170692184 1 1
8.788454 -14.379921 -0.49046642 74 3203170694488 1 1
3.3737996 -4.958498 -1.6789154 2 3203170694488 1 0
4.3966007 -7.196197 -1.6866087 3 3203170696792 1 0
9.680376 -14.23177 0 97 3203170696792 1 1
7.92849 -14.532826 -0.19272977 100 3203170699096 1 1
5.9717607 -8.782232 -1.6522627 7 3203170699096 1 0
5.891026 -9.648525 -1.4389527 56 3203170701400 1 0
10.680074 -14.169507 0.10312659 1 3203170701400 1 1
8.779488 -14.38405 -0.09794237 100 3203170703704 1 1
6.5293307 -9.60822 -1.2513219 12 3203170703704 1 0
8.6450205 -15.862676 -1.6863772 2 3203170706008 1 0
9.673971 -14.240162 0.40059128 70 3203170706008 1 1
7.920034 -14.5374365 0.19272977 85 3203170708312 1 1
10.32125 -15.197716 -1.2846352 8 3203170708312 1 1
8.806537 -14.4425335 -1.3809178 1 3203170710616 1 0
10.768493 -14.304118 0.52106965 52 3203170710616 1 1
8.767848 -14.383792 0.29403815 79 3203170712920 1 1
10.715313 -14.237787 -1.1420258 14 3203170712920 1 1
8.295977 -15.243318 -1.0106888 5 3203170715224 1 1
9.669884 -14.251976 1.0030144 46 3203170715224 1 1
