# .PCD v.7 - Point Cloud Data file format
VERSION .7
FIELDS x y z rgb timestamp_ns device_id active
SIZE 4 4 4 4 8 1 1
TYPE F F F F F U U
COUNT 1 1 1 1 1 1 1
WIDTH 1015
HEIGHT 1
VIEWPOINT 0 0 0 1 0 0 0
POINTS 1015               
DATA ascii
-30.205816 -23.141464 -2.216027 5 3201493255224 1 0
-59.861 -55.932076 4.7711205 28 3201493255224 1 0
-71.62514 -60.63158 3.823228 29 3201493257528 1 0
-25.204977 -23.543804 -1.6066266 16 3201493257528 1 0
-59.908875 -55.94417 10.064458 28 3201493259832 1 0
-28.067852 -23.752783 -1.9270099 23 3201493259832 1 0
-71.68666 -60.64787 7.6655097 28 3201493262136 1 0
-27.402086 -28.209362 -1.6022385 7 3201493262136 1 0
-38.496822 -29.457891 -1.6927652 9 3201493264440 1 0
0 0 0 9 3201493264440 1 0
0 0 0 29 3201493266744 1 0
-58.621452 -54.694088 -1.8656108 29 3201493266744 1 0
-2.9238122 -2.4655693 -1.783449 4 3201493287480 1 0
-49.128555 -50.41427 -1.2287192 40 3201493287480 1 0
-18.295834 -15.424041 -0.6964274 35 3201493289784 1 0
-4.7013164 -4.3736415 -1.7975285 6 3201493289784 1 0
-7.0931125 -5.9780707 -1.8552696 2 3201493292088 1 0
-56.37783 -52.433846 0 26 3201493292088 1 0
0 0 0 28 3201493294392 1 0
-8.724259 -8.111694 -1.8533381 74 3201493294392 1 0
-11.826712 -9.961956 -1.9682691 4 3201493296696 1 0
-51.070824 -52.34945 0.42506012 33 3201493296696 1 0
-18.308737 -15.417616 -0.13911396 49 3201493299000 1 0
-13.203073 -12.269231 -1.9414552 2 3201493299000 1 0
-55.60344 -51.65634 1.7660445 75 3201493301304 1 0
-81.859085 -62.32511 1.1977743 28 3201493303608 1 0
-22.39896 -20.80317 -2.1376173 4 3201493303608 1 0
-17.553139 -13.368277 -2.0596406 1 3201493301304 1 0
-17.659845 -14.858683 -1.8840758 5 3201493305912 1 0
-51.224255 -52.448696 2.1336162 64 3201493305912 1 0
-67.27864 -56.59119 1.5345552 29 3201493308216 1 0
-23.7219 -24.282227 -2.1755795 4 3201493308216 1 0
-30.291092 -23.042923 -2.216492 5 3201493310520 1 0
-59.987427 -55.66739 4.7660046 28 3201493310520 1 0
-71.803986 -60.363792 3.8217623 29 3201493312824 1 0
-25.273413 -23.44683 -1.6058822 11 3201493312824 1 0
-60.063995 -55.707558 10.058608 28 3201493315128 1 0
-28.34118 -23.81903 -1.9401985 24 3201493315128 1 0
-71.79148 -60.31943 7.6547694 28 3201493317432 1 0
-38.5264 -29.274055 -1.689694 9 3201493319736 1 0
0 0 0 9 3201493319736 1 0
-27.302116 -27.916124 -1.5908406 6 3201493317432 1 0
0 0 0 29 3201493322040 1 0
-26.78816 -24.82457 -0.84984905 10 3201493322040 1 0
-2.9375305 -2.4605155 -1.7868301 4 3201493342776 1 0
-18.310318 -15.332215 -0.69503105 14 3201493345080 1 0
-49.50272 -50.462345 -1.2338852 41 3201493342776 1 0
-4.7130284 -4.3553443 -1.7964503 6 3201493345080 1 0
-7.1160784 -5.9568267 -1.8560541 2 3201493347384 1 0
-56.632248 -52.31824 0 26 3201493347384 1 0
-105.57898 -79.91757 -1.5415587 14 3201493349688 1 0
-8.754367 -8.085018 -1.853953 70 3201493349688 1 0
-11.872432 -9.932177 -1.9702893 4 3201493351992 1 0
-51.00613 -51.931404 0.42306083 32 3201493351992 1 0
-18.333265 -15.332387 -0.13890474 31 3201493354296 1 0
-13.229962 -12.21093 -1.9393134 4 3201493354296 1 0
-17.57312 -13.289242 -2.0566664 1 3201493356600 1 0
-56.1316 -51.792217 1.7772108 51 3201493356600 1 0
-105.608635 -79.83859 1.5412794 28 3201493358904 1 0
-22.420073 -20.680498 -2.132874 4 3201493358904 1 0
-17.848415 -14.913009 -1.8987213 15 3201493361208 1 0
-68.47396 -57.194763 1.5573131 29 3201493363512 1 0
-51.176903 -52.041645 2.1241908 63 3201493361208 1 0
-23.808262 -24.203157 -2.1758356 4 3201493363512 1 0
-30.370676 -22.93793 -2.216492 5 3201493365816 1 0
-60.126907 -55.410694 4.7618184 28 3201493365816 1 0
0 0 0 28 3201493368120 1 0
-71.97656 -60.083096 3.8198085 29 3201493368120 1 0
0 0 0 244 3201493370424 1 0
-60.173397 -55.41956 10.044472 28 3201493370424 1 0
-71.95962 -60.031662 7.6502132 28 3201493372728 1 0
0 0 0 1 3201493372728 1 0
-38.657925 -29.159937 -1.6909504 9 3201493375032 1 0
0 0 0 9 3201493375032 1 0
-26.849245 -24.705368 -0.84901154 5 3201493377336 1 0
0 0 0 29 3201493377336 1 0
-2.9465292 -2.4497325 -1.7868301 4 3201493398072 1 0
-49.847576 -50.44272 -1.2378643 41 3201493398072 1 0
-18.295557 -15.206354 -0.69235474 14 3201493400376 1 0
-4.7289286 -4.338075 -1.7964503 6 3201493400376 1 0
-7.128727 -5.923289 -1.8537006 2 3201493402680 1 0
-57.22969 -52.48424 0 26 3201493402680 1 0
-105.949394 -79.59244 -1.542723 14 3201493404984 1 0
-8.804159 -8.071767 -1.8582574 29 3201493404984 1 0
-11.914574 -9.8940115 -1.9712995 4 3201493407288 1 0
-51.011765 -51.560772 0.42154974 32 3201493407288 1 0
-18.342619 -15.227434 -0.13855602 34 3201493409592 1 0
-13.271255 -12.160154 -1.938885 4 3201493409592 1 0
-17.62432 -13.227903 -2.057038 3 3201493411896 1 0
-56.73753 -51.972153 1.7904243 52 3201493411896 1 0
-105.84852 -79.420364 1.540581 28 3201493414200 1 0
-22.500557 -20.60472 -2.133432 4 3201493414200 1 0
-17.997217 -14.927433 -1.9088105 2 3201493416504 1 0
-51.164513 -51.65502 2.1159291 62 3201493416504 1 0
-70.560486 -58.507668 1.5999668 29 3201493418808 1 0
-23.881184 -24.103119 -2.1745563 4 3201493418808 1 0
-30.465664 -22.838257 -2.2174222 5 3201493421112 1 0
-60.331474 -55.199726 4.7622833 28 3201493421112 1 0
-72.0838 -59.735405 3.8141093 29 3201493423416 1 0
-25.32336 -23.162611 -1.5986233 78 3201493423416 1 0
0 0 0 208 3201493425720 1 0
-60.33907 -55.17444 10.039109 28 3201493425720 1 0
-72.14895 -59.753994 7.6476097 28 3201493428024 1 0
-28.21951 -28.448639 -1.6325247 7 3201493428024 1 0
-38.735985 -29.00283 -1.6898336 9 3201493430328 1 0
0 0 0 9 3201493430328 1 0
0 0 0 29 3201493432632 1 0
-26.91036 -24.585457 -0.8481741 5 3201493432632 1 0
-50.192616 -50.438503 -1.2420529 42 3201493453368 1 0
-2.9550622 -2.4394321 -1.7868301 4 3201493453368 1 0
-18.385422 -15.173071 -0.69375104 94 3201493455672 1 0
-4.7468586 -4.32417 -1.7975285 7 3201493455672 1 0
-7.155325 -5.9034653 -1.8552696 2 3201493457976 1 0
-57.82582 -52.66205 0 27 3201493457976 1 0
-91.32881 -68.1147 -1.326385 14 3201493460280 1 0
0 0 0 9 3201493460280 1 0
-11.933444 -9.840087 -1.9687742 4 3201493462584 1 0
-50.916107 -51.109013 0.41929471 31 3201493462584 1 0
-18.410542 -15.176703 -0.13867226 90 3201493464888 1 0
-13.277883 -12.08212 -1.9337443 4 3201493464888 1 0
-17.653843 -13.155174 -2.0551794 1 3201493467192 1 0
-57.3778 -52.196053 1.8049405 53 3201493467192 1 0
-110.92595 -82.63524 1.6103343 28 3201493469496 1 0
-22.583107 -20.537941 -2.1345482 4 3201493469496 1 0
-18.226831 -15.012578 -1.927687 15 3201493471800 1 0
-72.344315 -59.56981 1.6357791 29 3201493474104 1 0
-23.960783 -24.018354 -2.1743004 4 3201493474104 1 0
-30.530731 -22.724457 -2.216492 5 3201493476408 1 0
-51.112816 -51.249786 2.1065037 61 3201493471800 1 0
-60.39862 -54.88309 4.7527485 28 3201493476408 1 0
-72.280945 -59.484123 3.8137836 29 3201493478712 1 0
-25.40517 -23.078793 -1.5988094 67 3201493478712 1 0
0 0 0 17 3201493481016 1 0
-60.502987 -54.947407 10.03521 28 3201493481016 1 0
-72.26524 -59.437714 7.638497 28 3201493483320 1 0
-28.20299 -28.239521 -1.6260116 7 3201493483320 1 0
-38.84688 -28.880936 -1.690392 9 3201493485624 1 0
0 0 0 9 3201493485624 1 0
0 0 0 29 3201493487928 1 0
-26.892654 -24.402952 -0.8450103 5 3201493487928 1 0
-2.9659388 -2.4319181 -1.7885205 4 3201493508664 1 0
-50.586037 -50.497826 -1.2476376 42 3201493508664 1 0
-18.435747 -15.111885 -0.69375104 96 3201493510968 1 0
-4.7640595 -4.310955 -1.7986069 7 3201493510968 1 0
-7.1779814 -5.8820868 -1.8560541 2 3201493513272 1 0
-58.614933 -53.02463 0 27 3201493513272 1 0
-58.21828 -43.118587 -0.84341973 24 3201493515576 1 0
-8.855966 -8.009001 -1.8576425 4 3201493515576 1 0
-11.963224 -9.797598 -1.9682691 4 3201493517880 1 0
-51.058468 -50.91016 0.41906223 31 3201493517880 1 0
-18.489172 -15.137703 -0.13888149 94 3201493520184 1 0
-13.315362 -12.034871 -1.9333159 4 3201493520184 1 0
-17.701143 -13.098157 -2.055551 3 3201493522488 1 0
-57.962303 -52.37296 1.8177818 26 3201493522488 1 0
-111.26144 -82.30409 1.6111724 28 3201493524792 1 0
-22.634363 -20.445738 -2.132874 4 3201493524792 1 0
0 0 0 19 3201493527096 1 0
-51.11548 -50.907734 2.099522 60 3201493527096 1 0
-73.62894 -60.210957 1.6602125 29 3201493529400 1 0
-24.033379 -23.928741 -2.173533 4 3201493529400 1 0
-30.723175 -22.706305 -2.224864 5 3201493531704 1 0
-73.683266 -60.219624 3.8769615 29 3201493534008 1 0
-60.667267 -54.753006 4.75926 28 3201493531704 1 0
-25.480436 -22.989704 -1.5986233 61 3201493534008 1 0
0 0 0 8 3201493536312 1 0
-73.22403 -59.80878 7.718234 28 3201493538616 1 0
-60.671955 -54.72522 10.032285 28 3201493536312 1 0
0 0 0 1 3201493538616 1 0
0 0 0 75 3201493540920 1 0
0 0 0 9 3201493540920 1 0
0 0 0 29 3201493543224 1 0
-26.937464 -24.275892 -0.8438006 5 3201493543224 1 0
-2.9715984 -2.4192615 -1.7868301 3 3201493563960 1 0
-51.20509 -50.760178 -1.2585279 43 3201493563960 1 0
-18.485283 -15.044916 -0.6936347 103 3201493566264 1 0
-4.7790785 -4.294299 -1.7986069 6 3201493566264 1 0
-7.204555 -5.861946 -1.857623 2 3201493568568 1 0
-59.11509 -53.103046 0 28 3201493568568 1 0
-58.27499 -42.846394 -0.8420694 36 3201493570872 1 0
-8.88975 -7.9833207 -1.8588723 4 3201493570872 1 0
-11.991194 -9.750772 -1.9672589 4 3201493573176 1 0
-51.24155 -50.73725 0.41910872 31 3201493573176 1 0
0 0 0 76 3201493575480 1 0
-13.348412 -11.98035 -1.9320308 4 3201493575480 1 0
-17.733917 -13.026857 -2.0540638 3 3201493577784 1 0
-58.576347 -52.557552 1.8312744 27 3201493577784 1 0
-112.21539 -82.40527 1.6208113 28 3201493580088 1 0
-16.622253 -14.909932 -1.5614289 2 3201493580088 1 0
-18.632736 -15.133415 -1.959582 8 3201493582392 1 0
-51.136513 -50.574364 2.093122 60 3201493582392 1 0
-74.92225 -60.833393 1.684576 29 3201493584696 1 0
-24.105406 -23.833477 -2.1725097 4 3201493584696 1 0
-30.69922 -22.523333 -2.2174222 5 3201493587000 1 0
-60.76881 -54.460953 4.7522836 28 3201493587000 1 0
-75.21198 -61.032356 3.9461637 29 3201493589304 1 0
-25.59029 -22.927284 -1.6004845 73 3201493589304 1 0
-36.567894 -29.66497 -2.467745 11 3201493591608 1 0
-60.78276 -54.44158 10.019122 28 3201493591608 1 0
-75.20662 -60.99173 7.9047213 28 3201493593912 1 0
0 0 0 1 3201493593912 1 0
-39.0745 -28.633137 -1.6916484 44 3201493596216 1 0
0 0 0 9 3201493596216 1 0
0 0 0 29 3201493598520 1 0
-27.01906 -24.179049 -0.84370756 5 3201493598520 1 0
-2.980025 -2.4088738 -1.7868301 4 3201493619256 1 0
-51.595722 -50.791557 -1.2637637 22 3201493619256 1 0
0 0 0 18 3201493621560 1 0
-7.2309904 -5.8417964 -1.8591919 2 3201493623864 1 0
-59.738113 -53.288654 0 28 3201493623864 1 0
-58.381268 -42.613335 -0.84146404 36 3201493626168 1 0
-8.917389 -7.9524355 -1.8588723 4 3201493626168 1 0
-4.791134 -4.2750616 -1.7975285 7 3201493621560 1 0
-51.599403 -50.73906 0.42059657 32 3201493628472 1 0
0 0 0 9 3201493630776 1 0
-13.401591 -11.944754 -1.9337443 4 3201493630776 1 0
-17.78515 -12.970345 -2.0548074 3 3201493633080 1 0
-59.094543 -52.655945 1.8417894 27 3201493633080 1 0
-12.027963 -9.711699 -1.967764 4 3201493628472 1 0
0 0 0 21 3201493635384 1 0
0 0 0 117 3201493635384 1 0
-18.796288 -15.159471 -1.9712985 2 3201493637688 1 0
-51.589348 -50.673115 2.1045256 61 3201493637688 1 0
-80.6316 -65.01214 1.8079296 29 3201493639992 1 0
-24.198292 -23.76196 -2.173533 4 3201493639992 1 0
-30.90513 -22.51232 -2.2267244 5 3201493642296 1 0
-60.92477 -54.22638 4.749958 28 3201493642296 1 0
-75.68734 -60.991146 3.9601672 29 3201493644600 1 0
-25.757889 -22.919554 -1.6060683 56 3201493644600 1 0
-60.949898 -54.218567 10.016197 28 3201493646904 1 0
-36.861504 -29.695715 -2.4807243 11 3201493646904 1 0
-75.77971 -61.031044 7.9431252 28 3201493649208 1 0
0 0 0 1 3201493649208 1 0
0 0 0 21 3201493651512 1 0
0 0 0 9 3201493651512 1 0
-19.96527 -16.070425 4.672918 3 3201493653816 1 0
-27.016977 -24.013159 -0.8411021 5 3201493653816 1 0
-2.982343 -2.3944392 -1.783449 4 3201493674552 1 0
-54.0228 -52.829205 -1.3189132 25 3201493674552 1 0
-4.8052845 -4.25915 -1.7975285 7 3201493676856 1 0
-7.244204 -5.812876 -1.857623 2 3201493679160 1 0
-17.013645 -15.075798 0 2 3201493679160 1 0
-58.515778 -42.414806 -0.84137094 36 3201493681464 1 0
-8.94667 -7.9254413 -1.8594873 4 3201493681464 1 0
-12.044623 -9.659347 -1.9652387 4 3201493683768 1 0
-56.29688 -54.9922 0.4573976 41 3201493683768 1 0
-80.09788 -64.21738 -0.5966743 28 3201493686072 1 0
0 0 0 9 3201493676856 1 0
-13.381575 -11.847521 -1.9251765 8 3201493686072 1 0
-17.824839 -12.908959 -2.0544357 3 3201493688376 1 0
-59.744946 -52.881104 1.8565847 28 3201493688376 1 0
-95.79968 -69.359085 1.3769073 28 3201493690680 1 0
0 0 0 252 3201493690680 1 0
-20.000826 -16.021774 -2.0920434 9 3201493692984 1 0
-52.07189 -50.808914 2.1173255 62 3201493692984 1 0
0 0 0 21 3201493695288 1 0
-24.27124 -23.67601 -2.1730213 4 3201493695288 1 0
-30.953732 -22.390987 -2.224864 5 3201493697592 1 0
-61.104256 -54.024048 4.749958 28 3201493697592 1 0
-90.65139 -72.55513 4.7305117 29 3201493699896 1 0
-25.9565 -22.942505 -1.6136993 33 3201493699896 1 0
-36.760162 -29.413593 -2.4673264 11 3201493702200 1 0
-61.084732 -53.97672 10.008885 28 3201493702200 1 0
-76.218285 -60.96868 7.96786 28 3201493704504 1 0
-25.029596 -24.388784 -1.4237778 5 3201493704504 1 0
0 0 0 9 3201493706808 1 0
0 0 0 10 3201493706808 1 0
0 0 0 29 3201493709112 1 0
-27.087467 -23.915495 -0.84082294 10 3201493709112 1 0
-54.591988 -52.995777 -1.3280584 25 3201493730296 1 0
-2.9967694 -2.3880107 -1.7868301 4 3201493730296 1 0
-42.246655 -33.654697 -1.5719361 29 3201493732600 1 0
-4.8237853 -4.2440186 -1.7986069 7 3201493732600 1 0
-7.2624764 -5.783736 -1.8568385 2 3201493734904 1 0
0 0 0 77 3201493734904 1 0
-58.65553 -42.187096 -0.8411381 36 3201493737208 1 0
-8.97583 -7.892401 -1.8594873 4 3201493737208 1 0
-12.080226 -9.614784 -1.9652387 4 3201493739512 1 0
-56.34171 -54.630707 0.456119 41 3201493739512 1 0
-72.83551 -57.953278 -0.54097295 28 3201493741816 1 0
-13.428324 -11.800532 -1.9256049 48 3201493741816 1 0
-17.872593 -12.842761 -2.0544357 3 3201493744120 1 0
-60.52048 -53.16854 1.8745438 57 3201493744120 1 0
-94.767136 -68.076195 1.3584213 28 3201493746424 1 0
-16.780474 -14.737683 -1.561708 131 3201493746424 1 0
-20.038498 -15.929826 -2.089765 6 3201493748728 1 0
-52.64844 -50.9902 2.1330342 64 3201493748728 1 0
-72.943886 -57.970238 1.6263548 29 3201493751032 1 0
-24.342192 -23.568638 -2.1714864 4 3201493751032 1 0
-31.069653 -22.298412 -2.2271895 5 3201493753336 1 0
-61.263744 -53.758396 4.746702 28 3201493753336 1 0
-90.87867 -72.18031 4.728232 29 3201493755640 1 0
0 0 0 2 3201493755640 1 0
-36.801453 -29.220798 -2.4627209 11 3201493757944 1 0
-17.21715 -15.099035 2.8117695 8 3201493757944 1 0
0 0 0 8 3201493760248 1 0
0 0 0 7 3201493760248 1 0
-59.480675 -42.636345 -2.5556204 33 3201493762552 1 0
0 0 0 9 3201493762552 1 0
0 0 0 29 3201493764856 1 0
0 0 0 110 3201493764856 1 0
-3.005087 -2.3775356 -1.7868301 4 3201493785592 1 0
-55.125046 -53.14075 -1.3365053 26 3201493785592 1 0
-4.8385396 -4.2271895 -1.7986069 6 3201493787896 1 0
-42.385582 -33.524693 -1.5727507 29 3201493787896 1 0
-7.2917676 -5.7657547 -1.8591919 2 3201493790200 1 0
0 0 0 242 3201493790200 1 0
-58.80477 -41.9857 -0.8411847 36 3201493792504 1 0
-9.006131 -7.8638177 -1.8601022 3 3201493792504 1 0
-12.113436 -9.57291 -1.9652387 4 3201493794808 1 0
-56.446926 -54.35489 0.4554448 40 3201493794808 1 0
-73.245544 -57.867474 -0.54253054 28 3201493797112 1 0
-13.489982 -11.772381 -1.9286036 15 3201493797112 1 0
-17.900545 -12.769513 -2.0525768 3 3201493799416 1 0
-94.91607 -67.68944 1.3572106 28 3201493801720 1 0
0 0 0 5 3201493799416 1 0
0 0 0 28 3201493801720 1 0
-20.061766 -15.836248 -2.0865107 9 3201493804024 1 0
-53.036396 -51.014297 2.1416452 65 3201493804024 1 0
-81.09448 -63.995743 1.8031826 29 3201493806328 1 0
-24.422775 -23.485123 -2.1714864 4 3201493806328 1 0
-31.171701 -22.210627 -2.2290502 5 3201493808632 1 0
0 0 0 9 3201493808632 1 0
-91.05528 -71.81549 4.72465 29 3201493810936 1 0
-17.05784 -14.861071 -1.053837 22 3201493810936 1 0
-37.176723 -29.313026 -2.481143 11 3201493813240 1 0
-17.1906 -14.972555 2.7990952 5 3201493813240 1 0
0 0 0 8 3201493815544 1 0
-25.065123 -24.076159 -1.4159621 28 3201493815544 1 0
-42.33698 -30.130903 -1.8146342 10 3201493817848 1 0
0 0 0 9 3201493817848 1 0
0 0 0 29 3201493820152 1 0
-3.021506 -2.3742769 -1.7919015 4 3201493840888 1 0
0 0 0 159 3201493820152 1 0
-55.68225 -53.32279 -1.3457202 26 3201493840888 1 0
-42.622528 -33.48244 -1.5774051 15 3201493843192 1 0
-4.8525615 -4.211086 -1.7986069 6 3201493843192 1 0
-7.3171005 -5.7462816 -1.8607608 2 3201493845496 1 0
-17.1285 -14.859861 0 218 3201493845496 1 0
-58.89891 -41.75679 -0.8405328 12 3201493847800 1 0
-9.044273 -7.8440704 -1.8625618 2 3201493847800 1 0
-56.58508 -54.124283 0.4550961 40 3201493850104 1 0
-12.148513 -9.534784 -1.9657437 4 3201493850104 1 0
-71.90031 -56.4142 -0.53116244 28 3201493852408 1 0
0 0 0 4 3201493852408 1 0
-17.946596 -12.711602 -2.0529485 1 3201493854712 1 0
-17.150637 -14.861588 0.5280733 13 3201493854712 1 0
-95.04552 -67.300125 1.3558136 28 3201493857016 1 0
-16.961832 -14.693664 -1.5692416 17 3201493857016 1 0
-20.080574 -15.741408 -2.0829306 9 3201493859320 1 0
-53.708366 -51.312878 2.1617758 68 3201493859320 1 0
-72.08706 -56.493008 1.5986404 29 3201493861624 1 0
-24.447206 -23.350016 -2.1666255 4 3201493861624 1 0
-31.246792 -22.104862 -2.2290502 5 3201493863928 1 0
-17.177164 -14.867085 1.3230115 9 3201493863928 1 0
-91.3018 -71.50831 4.7248125 29 3201493866232 1 0
-17.12332 -14.816127 -1.0547675 8 3201493866232 1 0
-37.163048 -29.09768 -2.4736066 11 3201493868536 1 0
-17.21143 -14.887989 2.7942202 8 3201493868536 1 0
0 0 0 8 3201493870840 1 0
-25.089256 -23.935354 -1.4127054 28 3201493870840 1 0
0 0 0 10 3201493873144 1 0
0 0 0 9 3201493873144 1 0
-17.130743 -14.805132 -0.5268636 220 3201493875448 1 0
0 0 0 29 3201493875448 1 0
-59.919685 -56.981033 -1.443314 29 3201493896184 1 0
-43.647396 -34.041317 -1.6109174 16 3201493898488 1 0
-4.864344 -4.1915717 -1.7975285 6 3201493898488 1 0
-7.3310113 -5.715775 -1.8591919 2 3201493900792 1 0
-17.210787 -14.825838 0 116 3201493900792 1 0
-3.026917 -2.3614855 -1.790211 4 3201493896184 1 0
-109.068954 -76.75096 -1.5526412 14 3201493903096 1 0
-9.07177 -7.8122544 -1.8625618 2 3201493903096 1 0
-12.175737 -9.487088 -1.9647336 4 3201493905400 1 0
-59.69578 -56.698704 0.47850648 41 3201493905400 1 0
-72.067276 -56.135677 -0.5309299 28 3201493907704 1 0
-13.540506 -11.653356 -1.9243197 2 3201493907704 1 0
-17.984894 -12.643513 -2.052205 3 3201493910008 1 0
-95.273445 -66.95619 1.355674 28 3201493912312 1 0
-65.23216 -56.12337 2.002398 28 3201493910008 1 0
-17.137798 -14.740181 -1.5806817 6 3201493912312 1 0
-20.114286 -15.652908 -2.0806522 6 3201493914616 1 0
-54.19761 -51.413635 2.1741102 69 3201493914616 1 0
-81.26189 -63.217953 1.7971092 29 3201493916920 1 0
-24.573534 -23.304134 -2.170463 4 3201493916920 1 0
-31.299215 -21.975021 -2.2271895 5 3201493919224 1 0
-17.217916 -14.795373 1.3220813 3 3201493919224 1 0
-93.449715 -72.65371 4.8225102 29 3201493921528 1 0
-27.308414 -23.458899 -1.6769817 18 3201493921528 1 0
-37.424614 -29.087091 -2.4840739 11 3201493923832 1 0
-17.2676 -14.828899 2.7947078 5 3201493923832 1 0
0 0 0 8 3201493926136 1 0
-25.12848 -23.801275 -1.4101002 28 3201493926136 1 0
-61.207172 -42.91745 -2.6104825 35 3201493928440 1 0
0 0 0 29 3201493930744 1 0
0 0 0 9 3201493928440 1 0
-3.0269527 -2.343717 -1.7851396 4 3201493951480 1 0
-17.217312 -14.772014 -0.52788717 115 3201493930744 1 0
-44.179245 -34.197464 -1.6259282 16 3201493953784 1 0
-4.8796134 -4.1737857 -1.7975285 7 3201493953784 1 0
-7.348644 -5.6866803 -1.8584075 2 3201493956088 1 0
0 0 0 27 3201493956088 1 0
-60.122314 -56.755543 -1.4431744 58 3201493951480 1 0
-77.68748 -54.248466 -1.103109 14 3201493958392 1 0
-9.096998 -7.776781 -1.8619468 2 3201493958392 1 0
-12.209878 -9.443109 -1.9647336 4 3201493960696 1 0
-59.870804 -56.45557 0.478274 41 3201493960696 1 0
-81.27751 -62.842003 -0.597116 28 3201493963000 1 0
-13.576236 -11.59947 -1.923463 2 3201493963000 1 0
-18.023485 -12.574526 -2.0514615 1 3201493965304 1 0
-113.886086 -79.43203 1.6164808 28 3201493967608 1 0
-65.326126 -55.798714 1.9991412 57 3201493965304 1 0
-20.160246 -15.574116 -2.079676 6 3201493969912 1 0
-54.813393 -51.629448 2.1914482 71 3201493969912 1 0
-81.364525 -62.83746 1.7944565 29 3201493972216 1 0
-17.226627 -14.710114 -1.58403 4 3201493967608 1 0
-24.61215 -23.17609 -2.1666255 4 3201493972216 1 0
-31.376368 -21.864721 -2.2271895 5 3201493974520 1 0
-95.87104 -73.9985 4.934048 29 3201493976824 1 0
-71.61003 -61.097725 5.4820447 28 3201493974520 1 0
-27.636715 -23.573067 -1.6920577 18 3201493976824 1 0
-37.367798 -28.834263 -2.4736066 11 3201493979128 1 0
-17.307173 -14.758229 2.792758 8 3201493979128 1 0
0 0 0 8 3201493981432 1 0
-25.170307 -23.675446 -1.4078206 28 3201493981432 1 0
0 0 0 10 3201493983736 1 0
0 0 0 9 3201493983736 1 0
0 0 0 29 3201493986040 1 0
0 0 0 3 3201493986040 1 0
-3.0404556 -2.3380864 -1.7885205 4 3201494006776 1 0
-56.0888 -52.597248 -1.3421599 26 3201494006776 1 0
-4.893488 -4.1575103 -1.7975285 6 3201494009080 1 0
0 0 0 9 3201494009080 1 0
-7.3707356 -5.664456 -1.8591919 2 3201494011384 1 0
-18.274227 -15.520991 0 42 3201494011384 1 0
0 0 0 28 3201494013688 1 0
-9.126087 -7.7487316 -1.8625618 2 3201494013688 1 0
-12.251113 -9.409105 -1.9662488 4 3201494015992 1 0
-90.12601 -69.19674 -0.6603961 28 3201494018296 1 0
-13.60637 -11.545676 -1.9221778 3 3201494018296 1 0
-18.079271 -12.522183 -2.0529485 3 3201494020600 1 0
-52.92593 -49.57054 0.42145672 32 3201494015992 1 0
-65.49736 -55.56054 1.9985828 57 3201494020600 1 0
-115.24866 -79.79823 1.6319401 28 3201494022904 1 0
-18.05589 -15.3118305 -1.6554606 7 3201494022904 1 0
-20.188278 -15.485413 -2.0770724 6 3201494025208 1 0
-55.288113 -51.719604 2.2033172 72 3201494025208 1 0
-81.558426 -62.53959 1.7939677 29 3201494027512 1 0
-31.458435 -21.76052 -2.2276547 5 3201494029816 1 0
-24.677315 -23.07748 -2.1653464 4 3201494027512 1 0
-71.74797 -60.787525 5.4764633 28 3201494029816 1 0
-27.995949 -23.711857 -1.7089951 18 3201494032120 1 0
-98.37052 -75.38352 5.049168 29 3201494032120 1 0
-17.410091 -14.74134 2.801045 2 3201494034424 1 0
-37.547493 -28.76438 -2.47884 11 3201494034424 1 0
0 0 0 8 3201494036728 1 0
-25.209328 -23.546152 -1.4053781 33 3201494036728 1 0
-51.66445 -35.690845 -2.1928053 18 3201494039032 1 0
0 0 0 9 3201494039032 1 0
0 0 0 29 3201494041336 1 0
-18.296999 -15.477907 -0.557664 34 3201494041336 1 0
-3.0547686 -2.3313255 -1.7919015 4 3201494062072 1 0
-56.395367 -52.497597 -1.3448825 26 3201494062072 1 0
0 0 0 9 3201494064376 1 0
-4.9116073 -4.142066 -1.7986069 5 3201494064376 1 0
-18.315477 -15.441284 0 42 3201494066680 1 0
-7.4007215 -5.644646 -1.8615453 2 3201494066680 1 0
-53.406807 -36.739803 -0.7546681 10 3201494068984 1 0
-9.160303 -7.720525 -1.8637916 2 3201494068984 1 0
-12.285245 -9.364497 -1.9662488 4 3201494071288 1 0
-53.38411 -49.63652 0.42366526 33 3201494071288 1 0
-81.557434 -62.148865 -0.59595364 28 3201494073592 1 0
-13.642094 -11.491101 -1.921321 2 3201494073592 1 0
-18.114656 -12.449859 -2.0518332 3 3201494075896 1 0
-65.81744 -55.42343 2.002212 28 3201494075896 1 0
-115.47369 -79.33814 1.6310555 28 3201494078200 1 0
-18.126375 -15.25932 -1.6568558 7 3201494078200 1 0
-20.250347 -15.417323 -2.0777233 6 3201494080504 1 0
-55.937202 -51.94974 2.2217023 75 3201494080504 1 0
-24.836288 -23.059116 -2.171998 4 3201494082808 1 0
-31.523237 -21.638329 -2.2267244 5 3201494085112 1 0
-71.868095 -60.44713 5.4690213 28 3201494085112 1 0
-81.72574 -62.201996 1.7927111 29 3201494082808 1 0
-101.52534 -77.22497 5.196854 29 3201494087416 1 0
-28.32544 -23.81705 -1.723885 50 3201494087416 1 0
-37.65017 -28.629854 -2.47884 11 3201494089720 1 0
0 0 0 1 3201494089720 1 0
0 0 0 8 3201494092024 1 0
-25.27859 -23.4424 -1.404564 33 3201494092024 1 0
-51.70228 -35.445488 -2.1890361 54 3201494094328 1 0
0 0 0 9 3201494094328 1 0
0 0 0 29 3201494096632 1 0
-18.324364 -15.389598 -0.55682653 36 3201494096632 1 0
-3.0571086 -2.3162696 -1.7885205 4 3201494117368 1 0
-56.637012 -52.354713 -1.3462787 26 3201494117368 1 0
0 0 0 9 3201494119672 1 0
-4.9289594 -4.1274047 -1.7996851 6 3201494119672 1 0
-7.4171715 -5.6165185 -1.8607608 2 3201494121976 1 0
-18.344505 -15.356983 0 36 3201494121976 1 0
-52.5529 -35.88445 -0.7408385 10 3201494124280 1 0
-9.187029 -7.688703 -1.8637916 2 3201494124280 1 0
-12.304931 -9.312337 -1.9642285 4 3201494126584 1 0
-54.014053 -49.874744 0.4272919 33 3201494126584 1 0
-91.621864 -69.31926 -0.6677424 28 3201494128888 1 0
-13.669504 -11.433702 -1.9196075 3 3201494128888 1 0
-18.173914 -12.398565 -2.053692 3 3201494131192 1 0
-67.456055 -56.40702 2.0461328 28 3201494131192 1 0
-115.84173 -79.00583 1.6324058 28 3201494133496 1 0
-18.169573 -15.189202 -1.6560187 15 3201494133496 1 0
-20.293606 -15.340511 -2.0767467 6 3201494135800 1 0
-56.523716 -52.134235 2.2378767 77 3201494135800 1 0
-105.6264 -79.82305 2.310978 29 3201494138104 1 0
-31.771908 -21.649635 -2.23905 5 3201494140408 1 0
-24.847628 -22.911674 -2.1661139 4 3201494138104 1 0
-71.94249 -60.09106 5.4590216 28 3201494140408 1 0
-106.46039 -80.4071 5.435399 29 3201494142712 1 0
0 0 0 133 3201494142712 1 0
-37.906784 -28.621902 -2.4893074 11 3201494145016 1 0
0 0 0 1 3201494145016 1 0
0 0 0 8 3201494147320 1 0
-25.32866 -23.32934 -1.4029357 33 3201494147320 1 0
-51.74609 -35.21834 -2.1858253 36 3201494149624 1 0
0 0 0 9 3201494149624 1 0
0 0 0 29 3201494151928 1 0
-3.0647728 -2.3061192 -1.7885205 5 3201494172664 1 0
-18.34252 -15.299369 -0.55580294 26 3201494151928 1 0
-39.84438 -29.972227 -1.4510359 10 3201494174968 1 0
-4.942649 -4.111001 -1.7996851 6 3201494174968 1 0
-7.4295673 -5.5870686 -1.8591919 2 3201494177272 1 0
-55.163597 -50.654495 -1.307255 24 3201494172664 1 0
-18.306358 -15.221634 0 34 3201494177272 1 0
-52.576378 -35.64374 -0.7394882 10 3201494179576 1 0
-12.342358 -9.27589 -1.9652387 15 3201494181880 1 0
-54.575596 -50.05607 0.43040708 34 3201494181880 1 0
-9.218721 -7.6630473 -1.8650215 2 3201494179576 1 0
-91.78658 -68.96126 -0.6672542 28 3201494184184 1 0
-13.692463 -11.375105 -1.9174656 13 3201494184184 1 0
-18.218765 -12.339669 -2.0540638 1 3201494186488 1 0
-68.851105 -57.18159 2.0826094 28 3201494186488 1 0
-116.22632 -78.69607 1.6340821 28 3201494188792 1 0
-18.208332 -15.117743 -1.6549026 20 3201494188792 1 0
-20.37395 -15.293487 -2.079676 6 3201494191096 1 0
-57.07373 -52.28622 2.2526546 78 3201494191096 1 0
-110.58848 -82.986916 2.4133885 29 3201494193400 1 0
-24.980894 -22.878744 -2.1709747 4 3201494193400 1 0
-31.683023 -21.432207 -2.2276547 5 3201494195704 1 0
-72.13342 -59.836716 5.4580913 28 3201494195704 1 0
-106.572975 -79.925186 5.4272575 29 3201494198008 1 0
-18.287962 -15.165893 -1.1066962 117 3201494198008 1 0
-38.003975 -28.492725 -2.4893074 11 3201494200312 1 0
0 0 0 1 3201494200312 1 0
-25.393335 -23.229328 -1.4021215 50 3201494202616 1 0
0 0 0 8 3201494202616 1 0
-51.8496 -35.030083 -2.1851273 35 3201494204920 1 0
0 0 0 9 3201494204920 1 0
0 0 0 29 3201494207224 1 0
-18.311666 -15.167578 -0.55329055 26 3201494207224 1 0
-3.0786128 -2.2997463 -1.7919015 4 3201494227960 1 0
-55.33712 -50.458935 -1.3071853 24 3201494227960 1 0
0 0 0 9 3201494230264 1 0
-4.951029 -4.088817 -1.7975285 5 3201494230264 1 0
-7.4458814 -5.558754 -1.8584075 2 3201494232568 1 0
-18.402563 -15.193293 0 47 3201494232568 1 0
-52.680565 -35.4466 -0.73920876 10 3201494234872 1 0
-9.245414 -7.6308217 -1.8650215 2 3201494234872 1 0
-12.377842 -9.235124 -1.9657437 77 3201494237176 1 0
-55.07233 -50.15884 0.43294108 35 3201494237176 1 0
-92.08446 -68.68349 -0.66767263 28 3201494239480 1 0
-13.750493 -11.342423 -1.9200358 72 3201494239480 1 0
-18.261726 -12.275998 -2.0540638 1 3201494241784 1 0
-70.46949 -58.111225 2.1254137 28 3201494241784 1 0
-112.53652 -75.62615 1.5784843 28 3201494244088 1 0
-20.4368 -15.229423 -2.0806522 6 3201494246392 1 0
-57.675873 -52.46874 2.269178 80 3201494246392 1 0
-110.717125 -82.48092 2.409898 29 3201494248696 1 0
-18.279465 -15.069321 -1.6565768 7 3201494244088 1 0
-25.004494 -22.740376 -2.1661139 4 3201494248696 1 0
-31.777534 -21.334837 -2.2290502 5 3201494251000 1 0
-72.32645 -59.571865 5.4569287 28 3201494251000 1 0
0 0 0 14 3201494253304 1 0
0 0 0 4 3201494253304 1 0
-38.26342 -28.479141 -2.4997747 11 3201494255608 1 0
0 0 0 1 3201494255608 1 0
0 0 0 8 3201494257912 1 0
-25.489058 -23.153984 -1.4029357 45 3201494257912 1 0
-52.011406 -34.875595 -2.1868024 36 3201494260216 1 0
0 0 0 9 3201494260216 1 0
-17.506596 -13.018146 3.9776838 2 3201494262520 1 0
-18.410828 -15.141668 -0.5546863 68 3201494262520 1 0
-3.0837097 -2.2868264 -1.790211 4 3201494283256 1 0
-58.78885 -53.23173 -1.3843249 28 3201494283256 1 0
0 0 0 9 3201494285560 1 0
-4.9712286 -4.076395 -1.7996851 6 3201494285560 1 0
-18.480234 -15.14925 0 94 3201494287864 1 0
-52.790672 -35.253613 -0.73902255 10 3201494290168 1 0
-7.468391 -5.5350647 -1.8591919 2 3201494287864 1 0
-9.271995 -7.5985026 -1.8650215 2 3201494290168 1 0
-12.406815 -9.189499 -1.9652387 64 3201494292472 1 0
-55.576374 -50.264114 0.43552157 35 3201494292472 1 0
-92.204704 -68.27356 -0.6668125 28 3201494294776 1 0
-13.771542 -11.279237 -1.9174656 61 3201494294776 1 0
-18.317719 -12.22102 -2.055551 1 3201494297080 1 0
-72.695435 -59.521713 2.18627 28 3201494297080 1 0
-116.73961 -77.86055 1.6336164 28 3201494299384 1 0
-18.47708 -15.124211 -1.669691 27 3201494299384 1 0
-20.49304 -15.160362 -2.0809777 3 3201494301688 1 0
-58.300747 -52.666447 2.286516 82 3201494301688 1 0
-25.08372 -22.652954 -2.1661139 4 3201494303992 1 0
0 0 0 21 3201494303992 1 0
-31.994705 -21.318996 -2.23905 5 3201494306296 1 0
-72.79979 -59.53644 5.476928 28 3201494306296 1 0
0 0 0 14 3201494308600 1 0
0 0 0 2 3201494308600 1 0
-38.442913 -28.404749 -2.5050082 11 3201494310904 1 0
0 0 0 8 3201494313208 1 0
-25.584564 -23.078255 -1.4037498 33 3201494313208 1 0
0 0 0 1 3201494310904 1 0
-52.12617 -34.6894 -2.1865232 54 3201494315512 1 0
-17.545599 -12.952283 3.976249 7 3201494317816 1 0
-18.43879 -15.0570755 -0.5539419 100 3201494317816 1 0
0 0 0 9 3201494315512 1 0
-3.0975122 -2.2803469 -1.7935919 4 3201494338552 1 0
-59.346054 -53.36045 -1.393051 28 3201494338552 1 0
-40.21402 -29.596003 -1.4531304 10 3201494340856 1 0
-4.988415 -4.0614495 -1.8007634 6 3201494340856 1 0
-7.493985 -5.5136104 -1.8607608 2 3201494343160 1 0
-18.533 -15.08465 0 49 3201494343160 1 0
-52.903404 -35.062492 -0.73888284 10 3201494345464 1 0
-9.298462 -7.566091 -1.8650215 2 3201494345464 1 0
-12.464391 -9.16494 -1.9692792 16 3201494347768 1 0
-56.16217 -50.438637 0.43872973 36 3201494347768 1 0
-92.55849 -68.036575 -0.6676494 28 3201494350072 1 0
-18.346985 -12.14821 -2.0540638 1 3201494352376 1 0
-13.823172 -11.241133 -1.9191791 61 3201494350072 1 0
-74.07566 -60.221127 2.221444 28 3201494352376 1 0
-137.03554 -90.70758 1.9131887 28 3201494354680 1 0
-20.54905 -15.091096 -2.0813031 3 3201494356984 1 0
-58.915794 -52.849747 2.3033886 84 3201494356984 1 0
-18.635042 -15.145188 -1.6791779 5 3201494354680 1 0
-25.168585 -22.57059 -2.1666255 4 3201494359288 1 0
-111.77382 -82.06099 2.4203696 29 3201494359288 1 0
-31.942358 -21.123484 -2.230213 5 3201494361592 1 0
-74.75554 -60.70165 5.60809 28 3201494361592 1 0
0 0 0 14 3201494363896 1 0
0 0 0 2 3201494363896 1 0
-38.5064 -28.244396 -2.5027053 11 3201494366200 1 0
0 0 0 1 3201494366200 1 0
-25.697714 -23.018139 -1.405541 39 3201494368504 1 0
-52.253613 -34.511642 -2.1868024 54 3201494370808 1 0
0 0 0 9 3201494370808 1 0
0 0 0 8 3201494368504 1 0
0 0 0 228 3201494373112 1 0
-3.0966725 -2.2631035 -1.7885205 4 3201494393296 1 0
-18.506767 -15.005213 -0.5544072 111 3201494373112 1 0
0 0 0 7 3201494393296 1 0
0 0 0 9 3201494395600 1 0
-5.005557 -4.0464334 -1.8018417 6 3201494395600 1 0
-7.5100183 -5.4851046 -1.8599764 2 3201494397904 1 0
-18.594877 -15.027409 0 18 3201494397904 1 0
-53.048866 -34.892998 -0.73920876 10 3201494400208 1 0
-9.330964 -7.5385547 -1.8662512 2 3201494400208 1 0
0 0 0 22 3201494402512 1 0
-56.779713 -50.636303 0.44217038 37 3201494402512 1 0
-94.737335 -69.1301 -0.68162125 28 3201494404816 1 0
-13.871609 -11.200308 -1.9204643 43 3201494404816 1 0
-18.38595 -12.081905 -2.053692 1 3201494407120 1 0
-80.44657 -64.93539 2.4056878 28 3201494407120 1 0
-137.38477 -90.25064 1.9136543 28 3201494409424 1 0
-18.812008 -15.180281 -1.6903389 27 3201494409424 1 0
-20.608044 -15.023972 -2.0819542 3 3201494411728 1 0
-59.547756 -53.042686 2.3208427 43 3201494411728 1 0
-94.74854 -69.05384 2.0464692 29 3201494414032 1 0
-16.83744 -14.993707 -1.4449288 3 3201494414032 1 0
-31.999205 -21.0009 -2.2290502 5 3201494416336 1 0
-90.50751 -72.96951 6.770638 28 3201494416336 1 0
-39.484646 -31.82408 -2.362292 9 3201494418640 1 0
0 0 0 14 3201494418640 1 0
-38.740383 -28.208567 -2.511498 11 3201494420944 1 0
0 0 0 1 3201494420944 1 0
0 0 0 8 3201494423248 1 0
-25.897358 -23.034546 -1.4120542 45 3201494423248 1 0
-52.37042 -34.32684 -2.186663 36 3201494425552 1 0
0 0 0 9 3201494425552 1 0
0 0 0 233 3201494427856 1 0
0 0 0 3 3201494427856 1 0
-16.911125 -14.9932995 -0.3944942 4 3201494448592 1 0
-3.1104221 -2.256538 -1.7919015 4 3201494448592 1 0
0 0 0 9 3201494450896 1 0
-5.0136433 -4.0241137 -1.7996851 6 3201494450896 1 0
-7.53547 -5.463461 -1.8615453 2 3201494453200 1 0
0 0 0 3 3201494453200 1 0
-54.091404 -35.308846 -0.752014 10 3201494455504 1 0
-9.363388 -7.5108843 -1.8674811 1 3201494455504 1 0
-12.4895115 -9.049761 -1.9632183 15 3201494457808 1 0
-16.913153 -14.977532 0.13130276 2 3201494457808 1 0
-94.492165 -68.44701 -0.6781341 28 3201494460112 1 0
-13.938548 -11.174207 -1.9243197 35 3201494460112 1 0
-18.454699 -12.035057 -2.0566664 1 3201494462416 1 0
0 0 0 21 3201494464720 1 0
-18.89291 -15.136977 -1.6928501 7 3201494464720 1 0
-20.666822 -14.956619 -2.0826051 3 3201494467024 1 0
-60.181778 -53.231857 2.3382971 43 3201494467024 1 0
-94.55805 -68.4109 2.0371845 29 3201494469328 1 0
-80.62282 -64.61417 2.4041991 28 3201494462416 1 0
-32.23962 -20.998041 -2.2406778 5 3201494471632 1 0
-90.761665 -72.65314 6.770638 28 3201494471632 1 0
-94.73743 -68.498695 4.7629147 29 3201494473936 1 0
0 0 0 100 3201494469328 1 0
-38.81919 -28.059126 -2.5102417 11 3201494476240 1 0
0 0 0 1 3201494476240 1 0
0 0 0 8 3201494478544 1 0
-26.118399 -23.068357 -1.4197071 34 3201494478544 1 0
-39.476944 -31.59119 -2.3552194 9 3201494473936 1 0
0 0 0 10 3201494480848 1 0
0 0 0 9 3201494480848 1 0
-17.654749 -12.749408 3.970509 225 3201494483152 1 0
0 0 0 3 3201494483152 1 0
-3.1153383 -2.2435482 -1.790211 4 3201494503888 1 0
0 0 0 99 3201494503888 1 0
0 0 0 9 3201494506192 1 0
-5.0306716 -4.008989 -1.8007634 6 3201494506192 1 0
-7.5513115 -5.4348326 -1.8607608 2 3201494508496 1 0
-72.75127 -57.958862 0 28 3201494508496 1 0
0 0 0 28 3201494510800 1 0
-9.392641 -7.480616 -1.868096 1 3201494510800 1 0
0 0 0 100 3201494513104 1 0
-12.540353 -9.020011 -1.9662488 63 3201494513104 1 0
-98.799675 -71.04272 -0.7072634 28 3201494515408 1 0
-14.002361 -11.145298 -1.9277469 17 3201494515408 1 0
-18.48991 -11.966237 -2.0559227 1 3201494517712 1 0
0 0 0 1 3201494517712 1 0
0 0 0 21 3201494520016 1 0
-18.880054 -15.01877 -1.6869906 2 3201494520016 1 0
-20.72538 -14.88904 -2.083256 3 3201494522320 1 0
-94.715065 -68.02209 2.0354393 29 3201494524624 1 0
-17.138344 -15.05287 0.663846 5 3201494522320 1 0
-16.9807 -14.910034 -1.4482545 16 3201494524624 1 0
-32.31272 -20.885376 -2.2406778 5 3201494526928 1 0
-90.98346 -72.311035 6.7683125 28 3201494526928 1 0
-94.868805 -68.090675 4.757541 29 3201494529232 1 0
-39.87479 -31.681875 -2.3723428 9 3201494529232 1 0
-38.83576 -27.865232 -2.5050082 11 3201494531536 1 0
0 0 0 1 3201494531536 1 0
0 0 0 8 3201494533840 1 0
0 0 0 10 3201494536144 1 0
-17.028145 -14.934157 -0.9227526 7 3201494533840 1 0
0 0 0 9 3201494536144 1 0
-17.676758 -12.671655 3.9654868 220 3201494538448 1 0
-42.30943 -33.57614 -1.256861 10 3201494538448 1 0
-3.1202016 -2.2305517 -1.7885205 4 3201494559184 1 0
0 0 0 247 3201494559184 1 0
-57.714527 -41.24595 -2.064497 50 3201494561488 1 0
-5.0506763 -3.9961843 -1.80292 6 3201494561488 1 0
-7.5702367 -5.4084406 -1.8607608 2 3201494563792 1 0
-73.12882 -57.84352 0 28 3201494563792 1 0
0 0 0 28 3201494566096 1 0
-12.552386 -8.962348 -1.9632183 55 3201494568400 1 0
-9.418695 -7.4477844 -1.868096 2 3201494566096 1 0
0 0 0 235 3201494568400 1 0
-111.59438 -79.65339 -0.79685986 28 3201494570704 1 0
0 0 0 4 3201494570704 1 0
-18.518162 -11.893014 -2.0544357 1 3201494573008 1 0
-73.01087 -57.681206 2.165147 28 3201494573008 1 0
0 0 0 21 3201494575312 1 0
-23.930058 -18.899952 -2.1323159 4 3201494575312 1 0
0 0 0 40 3201494577616 1 0
-94.85423 -67.62141 2.033345 29 3201494579920 1 0
-20.77398 -14.814289 -2.0829306 3 3201494577616 1 0
-17.053703 -14.869033 -1.4500453 16 3201494579920 1 0
-32.3619 -20.757364 -2.23905 5 3201494582224 1 0
-91.10365 -71.88911 6.758545 28 3201494582224 1 0
-95.02779 -67.70345 4.7536335 29 3201494584528 1 0
-39.809464 -31.40391 -2.3619199 9 3201494584528 1 0
-39.01413 -27.787436 -2.5102417 11 3201494586832 1 0
0 0 0 1 3201494586832 1 0
0 0 0 8 3201494589136 1 0
-17.062086 -14.858879 -0.92177564 23 3201494589136 1 0
0 0 0 9 3201494591440 1 0
0 0 0 10 3201494591440 1 0
-17.68882 -12.587059 3.958312 223 3201494593744 1 0
-42.49862 -33.485172 -1.2590011 10 3201494593744 1 0
-3.136838 -2.2259405 -1.7935919 4 3201494614480 1 0
-17.103447 -14.8468485 -0.39533192 211 3201494614480 1 0
0 0 0 9 3201494616784 1 0
-5.064595 -3.97853 -1.80292 5 3201494616784 1 0
-7.592269 -5.3842516 -1.8615453 2 3201494619088 1 0
-88.80483 -69.74041 0 28 3201494619088 1 0
0 0 0 28 3201494621392 1 0
-9.438418 -7.4099803 -1.8668661 1 3201494621392 1 0
-12.593307 -8.925361 -1.9647336 13 3201494623696 1 0
-17.114399 -14.838905 0.13165148 217 3201494623696 1 0
-111.496414 -78.99744 -0.79418635 28 3201494626000 1 0
-14.095472 -11.059547 -1.9298888 2 3201494626000 1 0
-18.572998 -11.836863 -2.0559227 1 3201494628304 1 0
-81.07792 -63.59606 2.3977783 28 3201494628304 1 0
0 0 0 21 3201494630608 1 0
-23.986465 -18.808918 -2.1314788 4 3201494630608 1 0
-20.835327 -14.748594 -2.083907 3 3201494632912 1 0
-95.04726 -67.25986 2.0324376 29 3201494635216 1 0
0 0 0 3 3201494632912 1 0
-17.10852 -14.812027 -1.4503012 11 3201494635216 1 0
-91.35404 -71.570656 6.758545 28 3201494637520 1 0
-32.43416 -20.644274 -2.23905 5 3201494637520 1 0
-95.18196 -67.31364 4.7495627 29 3201494639824 1 0
-40.095 -31.402727 -2.3723428 9 3201494639824 1 0
-39.215263 -27.724873 -2.5169408 11 3201494642128 1 0
0 0 0 1 3201494642128 1 0
0 0 0 8 3201494644432 1 0
-27.102219 -23.43669 -1.459763 18 3201494644432 1 0
0 0 0 9 3201494646736 1 0
0 0 0 10 3201494646736 1 0
-17.70372 -12.504805 3.9518547 224 3201494649040 1 0
-43.008957 -33.644608 -1.2706327 10 3201494649040 1 0
0 0 0 20 3201494669776 1 0
-3.1416252 -2.2128897 -1.7919015 4 3201494669776 1 0
0 0 0 9 3201494672080 1 0
-5.081489 -3.9631958 -1.8039984 6 3201494672080 1 0
-7.611017 -5.3577166 -1.8615453 2 3201494674384 1 0
-72.060875 -56.18544 0 28 3201494674384 1 0
-157.23518 -99.53444 -2.1664522 84 3201494676688 1 0
-9.467344 -7.379419 -1.8674811 1 3201494676688 1 0
0 0 0 36 3201494678992 1 0
-12.614649 -8.874497 -1.9632183 2 3201494678992 1 0
0 0 0 9 3201494681296 1 0
-14.130855 -11.0078335 -1.9294604 2 3201494681296 1 0
-18.600739 -11.763444 -2.0544357 1 3201494683600 1 0
0 0 0 21 3201494685904 1 0
-24.033083 -18.710367 -2.1298046 4 3201494685904 1 0
-72.159225 -56.194653 2.128205 28 3201494683600 1 0
-20.889944 -14.678067 -2.0842323 3 3201494688208 1 0
-65.01781 -55.910976 2.4956188 39 3201494688208 1 0
0 0 0 21 3201494690512 1 0
-32.38448 -20.454165 -2.2306778 5 3201494692816 1 0
-17.205524 -14.791251 -1.4541386 1 3201494690512 1 0
-92.5426 -71.98194 6.8278465 28 3201494692816 1 0
0 0 0 14 3201494695120 1 0
-38.627235 -30.03621 -2.2792807 9 3201494695120 1 0
-39.4524 -27.686483 -2.5259426 11 3201494697424 1 0
0 0 0 1 3201494697424 1 0
0 0 0 8 3201494699728 1 0
-27.390055 -23.518993 -1.4708354 18 3201494699728 1 0
0 0 0 10 3201494702032 1 0
0 0 0 9 3201494702032 1 0
-17.718264 -12.422599 3.9453976 221 3201494704336 1 0
-43.9536 -34.136932 -1.2950125 22 3201494704336 1 0
-3.1463594 -2.1998327 -1.790211 4 3201494725072 1 0
0 0 0 21 3201494725072 1 0
-67.116135 -46.910896 -2.3830965 28 3201494727376 1 0
-5.092247 -3.9430757 -1.80292 6 3201494727376 1 0
-7.629673 -5.3311167 -1.8615453 2 3201494729680 1 0
-89.321175 -69.14322 0 28 3201494729680 1 0
0 0 0 56 3201494731984 1 0
-9.493045 -7.3463264 -1.8674811 1 3201494731984 1 0
-12.65531 -8.837226 -1.9647336 2 3201494734288 1 0
0 0 0 7 3201494734288 1 0
-110.74967 -77.31274 -0.78500354 28 3201494736592 1 0
-14.191214 -10.9754715 -1.9324591 2 3201494736592 1 0
-81.36174 -62.906185 2.3931258 28 3201494738896 1 0
-18.634941 -11.694209 -2.053692 1 3201494738896 1 0
0 0 0 21 3201494741200 1 0
-24.132977 -18.653206 -2.132874 4 3201494741200 1 0
-20.941053 -14.605059 -2.0842323 3 3201494743504 1 0
-110.71401 -77.192085 2.3558655 29 3201494745808 1 0
-65.14568 -55.626564 2.4930587 39 3201494743504 1 0
-25.776278 -22.003353 -2.171998 4 3201494745808 1 0
-32.56734 -20.410978 -2.2383523 5 3201494748112 1 0
-94.97092 -73.3401 6.9880776 28 3201494748112 1 0
-115.08839 -80.19224 5.7148137 29 3201494750416 1 0
-40.338554 -31.141582 -2.3738317 10 3201494750416 1 0
-39.434086 -27.46869 -2.5186155 11 3201494752720 1 0
0 0 0 1 3201494752720 1 0
0 0 0 8 3201494755024 1 0
-27.730494 -23.643652 -1.4846759 24 3201494755024 1 0
0 0 0 10 3201494757328 1 0
0 0 0 9 3201494757328 1 0
-17.73568 -12.342692 3.9396577 224 3201494759632 1 0
-44.569683 -34.36667 -1.3096217 11 3201494759632 1 0
-3.154019 -2.1888363 -1.790211 4 3201494780368 1 0
0 0 0 7 3201494780368 1 0
-51.671818 -35.848244 -1.83026 22 3201494782672 1 0
-5.1090336 -3.927624 -1.8039984 6 3201494782672 1 0
-7.6546817 -5.3089223 -1.8631142 2 3201494784976 1 0
0 0 0 28 3201494787280 1 0
-90.57689 -69.61099 0 28 3201494784976 1 0
-9.521765 -7.3155527 -1.868096 1 3201494787280 1 0
-12.695864 -8.799778 -1.9662488 2 3201494789584 1 0
-18.272108 -15.510502 0.13929994 44 3201494789584 1 0
-113.208534 -78.44291 -0.8004865 28 3201494791888 1 0
-14.235748 -10.930713 -1.9333159 2 3201494791888 1 0
-18.695932 -11.641721 -2.0559227 1 3201494794192 1 0
-81.53325 -62.585274 2.39173 28 3201494794192 1 0
0 0 0 21 3201494796496 1 0
-24.188444 -18.561563 -2.132037 4 3201494796496 1 0
-21.00174 -14.538679 -2.0852087 3 3201494798800 1 0
-65.33946 -55.398823 2.4930587 39 3201494798800 1 0
-115.37645 -79.845764 2.449131 29 3201494801104 1 0
-25.828566 -21.892593 -2.1699514 4 3201494801104 1 0
-32.672302 -20.31826 -2.2406778 5 3201494803408 1 0
-97.79326 -74.97615 7.1764483 28 3201494803408 1 0
-115.38075 -79.79911 5.715465 29 3201494805712 1 0
-40.421642 -30.981138 -2.3723428 9 3201494805712 1 0
-39.644726 -27.410381 -2.5259426 11 3201494808016 1 0
0 0 0 1 3201494808016 1 0
0 0 0 8 3201494810320 1 0
-28.062983 -23.75847 -1.4980279 18 3201494810320 1 0
-40.893497 -25.39788 -1.681039 9 3201494812624 1 0
0 0 0 9 3201494812624 1 0
-17.762466 -12.269526 3.9360702 223 3201494814928 1 0
-39.564415 -30.287594 -1.1594349 9 3201494814928 1 0
-3.1616404 -2.1778135 -1.790211 4 3201494835664 1 0
-18.28716 -15.431977 -0.417671 8 3201494835664 1 0
-5.122712 -3.9097662 -1.8039984 6 3201494837968 1 0
-51.803223 -35.67219 -1.8304927 66 3201494837968 1 0
-7.6699357 -5.279946 -1.8623298 2 3201494840272 1 0
-90.45362 -69.015366 0 28 3201494840272 1 0
0 0 0 28 3201494842576 1 0
-9.537815 -7.2750797 -1.8662512 2 3201494842576 1 0
-12.723234 -8.753159 -1.9657437 2 3201494844880 1 0
-18.30473 -15.42858 0.13913721 34 3201494844880 1 0
-115.561264 -79.477516 -0.81515574 28 3201494847184 1 0
-14.283305 -10.888186 -1.9346011 2 3201494847184 1 0
-18.705963 -11.5575485 -2.0525768 1 3201494849488 1 0
-81.63989 -62.215454 2.388473 28 3201494849488 1 0
0 0 0 21 3201494851792 1 0
-24.237219 -18.464928 -2.1306417 4 3201494851792 1 0
-21.052362 -14.4652815 -2.0852087 3 3201494854096 1 0
-66.86297 -56.290554 2.5436764 38 3201494854096 1 0
-115.585236 -79.39499 2.4476652 29 3201494856400 1 0
-18.220726 -15.335126 -1.5262827 2 3201494856400 1 0
-100.087975 -76.18221 7.325284 28 3201494858704 1 0
-115.69814 -79.42302 5.717419 29 3201494861008 1 0
-40.450047 -30.779364 -2.3676896 9 3201494861008 1 0
-32.827984 -20.256512 -2.2464917 5 3201494858704 1 0
-39.85544 -27.350937 -2.5332696 11 3201494863312 1 0
0 0 0 1 3201494863312 1 0
0 0 0 8 3201494865616 1 0
-28.430262 -23.899542 -1.5131711 31 3201494865616 1 0
0 0 0 10 3201494867920 1 0
0 0 0 9 3201494867920 1 0
-17.782469 -12.191873 3.931048 222 3201494870224 1 0
0 0 0 1 3201494870224 1 0
0 0 0 87 3201494890960 1 0
-3.1752083 -2.170856 -1.7935919 4 3201494890960 1 0
-51.765423 -35.380974 -1.8247911 66 3201494893264 1 0
-5.1393704 -3.8942244 -1.8050766 6 3201494893264 1 0
-7.688243 -5.2532525 -1.8623298 2 3201494895568 1 0
-93.00462 -70.45161 0 28 3201494895568 1 0
-64.812035 -39.773293 -0.8852811 13 3201494897872 1 0
-9.569296 -7.246723 -1.8674811 1 3201494897872 1 0
-18.333488 -15.344586 0.13895123 21 3201494900176 1 0
-12.756735 -8.711301 -1.9662488 2 3201494900176 1 0
-115.83842 -79.08011 -0.815179 28 3201494902480 1 0
-14.317659 -10.836383 -1.9341727 2 3201494902480 1 0
-18.73211 -11.4846735 -2.0510898 1 3201494904784 1 0
-81.80603 -61.897476 2.3870773 28 3201494904784 1 0
-158.82149 -97.343414 2.1686406 28 3201494907088 1 0
-24.310137 -18.38867 -2.1314788 4 3201494907088 1 0
-21.07554 -14.374963 -2.0826051 3 3201494909392 1 0
-68.08341 -56.919834 2.5826576 37 3201494909392 1 0
-115.87963 -79.01439 2.4481537 29 3201494911696 1 0
0 0 0 118 3201494911696 1 0
-32.88681 -20.137934 -2.245794 5 3201494914000 1 0
0 0 0 3 3201494914000 1 0
-116.08725 -79.10897 5.723281 29 3201494916304 1 0
-40.71419 -30.761658 -2.3769958 10 3201494916304 1 0
-39.915283 -27.192644 -2.531176 11 3201494918608 1 0
0 0 0 1 3201494918608 1 0
0 0 0 8 3201494920912 1 0
0 0 0 242 3201494920912 1 0
0 0 0 10 3201494923216 1 0
0 0 0 9 3201494923216 1 0
-17.79757 -12.113956 3.9253082 225 3201494925520 1 0
0 0 0 1 3201494925520 1 0
-3.1793902 -2.1582787 -1.7919015 4 3201494946256 1 0
-18.302631 -15.232949 -0.41564652 18 3201494946256 1 0
-5.155334 -3.8794765 -1.806155 6 3201494948560 1 0
-51.836147 -35.177685 -1.823162 66 3201494948560 1 0
-7.708867 -5.229931 -1.8631142 2 3201494950864 1 0
-64.99481 -39.58936 -0.88597953 39 3201494953168 1 0
-93.18659 -70.10433 0 28 3201494950864 1 0
-9.586956 -7.2101994 -1.8662512 2 3201494953168 1 0
-12.782268 -8.666724 -1.9657437 2 3201494955472 1 0
-18.295073 -15.209551 0.13827705 12 3201494955472 1 0
-116.25895 -78.80327 -0.8162949 28 3201494957776 1 0
-14.3471575 -10.784065 -1.9333159 2 3201494957776 1 0
-18.776896 -11.426634 -2.0518332 1 3201494960080 1 0
-104.04728 -78.18482 3.0284886 28 3201494960080 1 0
-159.11267 -96.79749 2.1682215 28 3201494962384 1 0
-24.294415 -18.250433 -2.124782 4 3201494962384 1 0
-21.119793 -14.302759 -2.0822797 3 3201494964688 1 0
-69.92975 -58.070545 2.645377 36 3201494964688 1 0
-116.23375 -78.69247 2.4501085 29 3201494966992 1 0
0 0 0 225 3201494966992 1 0
-33.134266 -20.13869 -2.2581196 5 3201494969296 1 0
0 0 0 3 3201494969296 1 0
-116.345634 -78.72134 5.723118 29 3201494971600 1 0
-40.7169 -30.552134 -2.371226 9 3201494971600 1 0
0 0 0 1 3201494973904 1 0
-39.92252 -27.00418 -2.5259426 11 3201494973904 1 0
0 0 0 8 3201494976208 1 0
0 0 0 196 3201494976208 1 0
0 0 0 9 3201494978512 1 0
0 0 0 10 3201494978512 1 0
-17.824602 -12.046057 3.9224384 218 3201494980816 1 0
-3.1835237 -2.1456974 -1.790211 4 3201495001552 1 0
0 0 0 1 3201494980816 1 0
-18.3962 -15.207848 -0.41662386 73 3201495001552 1 0
-51.925987 -34.987724 -1.822231 66 3201495003856 1 0
-5.161999 -3.8577476 -1.8039984 5 3201495003856 1 0
-7.742433 -5.215295 -1.8670366 2 3201495006160 1 0
-93.41215 -69.79014 0 28 3201495006160 1 0
-65.10862 -39.363262 -0.8857467 26 3201495008464 1 0
-9.610814 -7.178368 -1.8662512 2 3201495008464 1 0
-12.820812 -8.630937 -1.9672589 2 3201495010768 1 0
-18.400927 -15.194642 0.13869551 73 3201495010768 1 0
-116.51631 -78.41507 -0.81627166 28 3201495013072 1 0
