# .PCD v.7 - Point Cloud Data file format
VERSION .7
FIELDS x y z rgb timestamp_ns device_id active
SIZE 4 4 4 4 8 1 1
TYPE F F F F F U U
COUNT 1 1 1 1 1 1 1
WIDTH 1030
HEIGHT 1
VIEWPOINT 0 0 0 1 0 0 0
POINTS 1030               
DATA ascii
46.300262 13.293879 1.1209111 24 3198650754896 1 0
75.16843 13.8118105 0.88975126 25 3198650757200 1 0
20.285728 5.8213096 -1.475768 5 3198650757200 1 0
17.81928 4.180568 -1.4941772 3 3198650759504 1 0
41.925552 14.275345 1.2889434 217 3198650759504 1 0
75.862946 17.786509 1.360101 27 3198650761808 1 0
21.676096 7.377034 -1.4674418 6 3198650761808 1 0
23.130806 4.2397337 -1.3695228 2 3198650764112 1 0
46.798798 13.407554 2.835091 16 3198650764112 1 0
74.12012 17.355148 3.1014063 29 3198650766416 1 0
27.115725 7.764213 -1.3138528 4 3198650766416 1 0
26.203262 6.131447 -1.4103494 12 3198650768720 1 0
49.635735 14.204696 6.3391557 46 3198650768720 1 0
76.16895 17.811512 6.3858094 28 3198650771024 1 0
29.952887 10.1744375 -1.2887925 4 3198650771024 1 0
49.579006 14.172859 13.816796 36 3198650773328 1 0
32.83617 5.998924 -1.1656432 5 3198650773328 1 0
0 0 0 29 3198650775632 1 0
42.41104 12.117123 -1.0263697 7 3198650775632 1 0
0 0 0 8 3198650796368 1 0
42.07991 14.218711 -0.7753057 15 3198650796368 1 0
39.24851 9.105738 -1.1725812 8 3198650798672 1 0
0 0 0 1 3198650798672 1 0
8.215085 1.9046582 -1.6866087 1 3198650800976 1 0
46.609085 13.235914 0 26 3198650800976 1 0
0 0 0 28 3198650803280 1 0
12.474657 2.8884115 -1.6298702 3 3198650805584 1 0
10.167284 2.885678 -1.6442688 3 3198650803280 1 0
42.037025 14.176976 0.25783974 202 3198650805584 1 0
13.866147 3.9311311 -1.5524788 3 3198650807888 1 0
75.76097 17.530266 -0.45195764 26 3198650807888 1 0
16.13656 2.909241 -1.5306029 2 3198650810192 1 0
92.071724 16.585674 1.0891397 28 3198650812496 1 0
20.302086 5.749377 -1.4754889 5 3198650812496 1 0
17.818228 4.1147537 -1.4928753 3 3198650814800 1 0
46.415638 13.151803 1.1225861 24 3198650810192 1 0
42.00923 14.140389 1.2899907 223 3198650814800 1 0
76.02979 17.545872 1.3619858 54 3198650817104 1 0
21.584429 7.2618656 -1.459511 4 3198650817104 1 0
23.129744 4.1561413 -1.3685925 2 3198650819408 1 0
46.81457 13.235423 2.8332307 15 3198650819408 1 0
75.430405 17.38444 3.1536744 29 3198650821712 1 0
27.123436 7.6640816 -1.3129222 4 3198650821712 1 0
49.65445 14.022716 6.335256 46 3198650824016 1 0
26.18558 6.0309777 -1.4082559 4 3198650824016 1 0
77.264114 17.783386 6.472381 28 3198650826320 1 0
29.946543 10.055825 -1.2870014 4 3198650826320 1 0
32.809692 5.875811 -1.163968 5 3198650828624 1 0
49.54265 13.975583 13.792985 36 3198650828624 1 0
0 0 0 29 3198650830928 1 0
42.256786 11.913665 -1.0216241 14 3198650830928 1 0
0 0 0 8 3198650851664 1 0
42.925896 14.337816 -0.78996575 23 3198650851664 1 0
39.27213 8.96747 -1.1723485 8 3198650853968 1 0
0 0 0 1 3198650853968 1 0
8.213982 1.8744644 -1.6850398 1 3198650856272 1 0
46.535225 13.041034 0 17 3198650856272 1 0
0 0 0 28 3198650858576 1 0
12.484498 2.8455756 -1.6298702 3 3198650860880 1 0
42.112 14.041458 0.25800246 224 3198650860880 1 0
10.180976 2.85168 -1.6448838 4 3198650858576 1 0
69.6545 15.866671 -0.41520312 20 3198650863184 1 0
13.864182 3.879428 -1.5507653 3 3198650863184 1 0
16.142447 2.853612 -1.5302311 2 3198650865488 1 0
46.52945 13.013144 1.124261 24 3198650865488 1 0
93.80925 16.570646 1.1090227 28 3198650867792 1 0
20.198479 5.6461678 -1.4665601 5 3198650867792 1 0
17.808685 4.0493026 -1.4909226 3 3198650870096 1 0
42.117405 14.018761 1.2918525 207 3198650870096 1 0
76.10001 17.29299 1.3621953 27 3198650872400 1 0
21.589766 7.1830053 -1.4582319 3 3198650872400 1 0
23.13172 4.076665 -1.3678949 2 3198650874704 1 0
46.62781 13.014333 2.8192775 15 3198650874704 1 0
27.137266 7.570479 -1.3123639 4 3198650877008 1 0
26.143106 5.929972 -1.4049064 4 3198650879312 1 0
49.673904 13.850514 6.3318434 46 3198650879312 1 0
77.42498 17.572762 3.2346005 29 3198650877008 1 0
77.32241 17.528196 6.472381 28 3198650881616 1 0
29.945444 9.945562 -1.2855359 4 3198650881616 1 0
32.844578 5.7707 -1.1645265 5 3198650883920 1 0
49.565987 13.806439 13.786773 24 3198650883920 1 0
0 0 0 29 3198650886224 1 0
0 0 0 19 3198650886224 1 0
0 0 0 8 3198650906960 1 0
0 0 0 101 3198650906960 1 0
39.358746 8.856644 -1.174094 8 3198650909264 1 0
0 0 0 1 3198650909264 1 0
8.208403 1.8458295 -1.6826863 1 3198650911568 1 0
44.84158 12.413198 0 24 3198650911568 1 0
56.303146 9.791035 -0.66531116 17 3198650913872 1 0
12.489668 2.804744 -1.6293652 3 3198650916176 1 0
10.186198 2.818183 -1.6442688 4 3198650913872 1 0
42.198498 13.920422 0.2582582 223 3198650916176 1 0
69.693436 15.64007 -0.41513336 41 3198650918480 1 0
13.872747 3.8337848 -1.5503368 3 3198650918480 1 0
16.061323 2.785821 -1.5216802 2 3198650920784 1 0
46.605915 12.87242 1.1250985 16 3198650920784 1 0
93.86645 16.266981 1.1090692 57 3198650923088 1 0
20.21284 5.5795646 -1.466281 5 3198650923088 1 0
17.810112 3.988648 -1.4899462 3 3198650925392 1 0
76.2967 17.075306 1.3647084 27 3198650927696 1 0
42.219822 13.900226 1.2935978 221 3198650925392 1 0
21.601782 7.1085715 -1.4574645 5 3198650927696 1 0
23.144995 4.0006084 -1.3678949 2 3198650930000 1 0
46.870525 12.916162 2.8313704 31 3198650930000 1 0
76.28513 17.049417 3.184612 29 3198650932304 1 0
27.162111 7.480842 -1.3123639 8 3198650932304 1 0
26.123642 5.834539 -1.402813 4 3198650934608 1 0
49.696594 13.679392 6.328919 30 3198650934608 1 0
76.11578 16.988323 6.366607 28 3198650936912 1 0
29.887272 9.815839 -1.281628 4 3198650936912 1 0
32.85976 5.660117 -1.1643867 5 3198650939216 1 0
49.6566 13.652844 13.799196 12 3198650939216 1 0
0 0 0 29 3198650941520 1 0
0 0 0 3 3198650941520 1 0
0 0 0 8 3198650962256 1 0
39.17874 8.671969 -1.1678104 8 3198650964560 1 0
0 0 0 21 3198650962256 1 0
0 0 0 1 3198650964560 1 0
8.20719 1.8152325 -1.6811174 1 3198650966864 1 0
44.792385 12.230004 0 80 3198650966864 1 0
57.559723 9.800095 -0.67974615 17 3198650969168 1 0
10.184656 2.7790432 -1.6424241 4 3198650969168 1 0
12.491794 2.7586913 -1.628355 3 3198650971472 1 0
42.29327 13.785454 0.25853717 141 3198650971472 1 0
69.85028 15.414037 -0.4157378 20 3198650973776 1 0
13.874809 3.7811897 -1.5490518 3 3198650973776 1 0
16.063334 2.7270038 -1.5209367 2 3198650976080 1 0
47.056805 12.815923 1.134869 24 3198650976080 1 0
93.88879 15.923646 1.1086502 57 3198650978384 1 0
20.225054 5.5048184 -1.465723 5 3198650978384 1 0
17.80881 3.9209518 -1.4886444 3 3198650980688 1 0
42.31151 13.761452 1.2948779 212 3198650980688 1 0
79.78749 17.553366 1.4260012 29 3198650982992 1 0
21.615995 7.026591 -1.4566969 5 3198650982992 1 0
23.057018 3.8991127 -1.3618485 5 3198650985296 1 0
46.90562 12.74251 2.8306727 31 3198650985296 1 0
79.71959 17.511686 3.3252964 29 3198650987600 1 0
0 0 0 12 3198650987600 1 0
26.137049 5.737039 -1.4023943 8 3198650989904 1 0
49.711914 13.487797 6.3245316 30 3198650989904 1 0
77.6381 17.028414 6.488654 28 3198650992208 1 0
29.892775 9.6959305 -1.2803254 4 3198650992208 1 0
32.85285 5.5340376 -1.1634096 5 3198650994512 1 0
49.568718 13.431917 13.760891 24 3198650994512 1 0
0 0 0 29 3198650996816 1 0
0 0 0 8 3198651017552 1 0
41.242786 13.2972145 -0.7563873 22 3198651017552 1 0
39.243008 8.528262 -1.1687413 8 3198651019856 1 0
42.397022 11.481282 -1.0220894 7 3198650996816 1 0
0 0 0 1 3198651019856 1 0
8.217932 1.7845383 -1.6819019 2 3198651022160 1 0
44.842876 12.058963 0 80 3198651022160 1 0
50.289795 8.363752 -0.59350896 60 3198651024464 1 1
10.195251 2.7399166 -1.6424241 4 3198651024464 1 0
12.49066 2.7081838 -1.6268398 3 3198651026768 1 0
0 0 0 3 3198651026768 1 0
13.889226 3.7278864 -1.5490518 3 3198651029072 1 0
16.085474 2.6672597 -1.522052 2 3198651031376 1 0
47.283337 12.6828 1.1391494 16 3198651031376 1 0
69.9324 15.1508 -0.41587728 20 3198651029072 1 0
93.86243 15.548642 1.1076257 57 3198651033680 1 0
20.22677 5.4219537 -1.4643279 5 3198651033680 1 0
17.808146 3.849173 -1.4873426 3 3198651035984 1 0
0 0 0 6 3198651035984 1 0
79.92467 17.262074 1.4272578 29 3198651038288 1 0
21.639015 6.9423203 -1.456441 5 3198651038288 1 0
23.067879 3.809901 -1.3616159 5 3198651040592 1 0
50.260128 13.446793 3.0299733 57 3198651040592 1 0
79.73545 17.194506 3.3231795 29 3198651042896 1 0
27.155622 7.2606664 -1.3093858 53 3198651042896 1 0
26.13936 5.6324306 -1.4013475 4 3198651045200 1 0
49.728817 13.287594 6.320144 30 3198651045200 1 0
77.80035 16.75116 6.4967904 28 3198651047504 1 0
29.872688 9.562802 -1.2778829 4 3198651047504 1 0
32.869915 5.4072022 -1.16327 5 3198651049808 1 0
49.593796 13.234515 13.753644 12 3198651049808 1 0
0 0 0 29 3198651052112 1 0
42.332607 11.289552 -1.0194838 7 3198651052112 1 0
0 0 0 8 3198651073296 1 0
41.26531 13.161505 -0.75603825 51 3198651073296 1 0
0 0 0 1 3198651075600 1 0
39.253906 8.401874 -1.1682758 8 3198651075600 1 0
8.219637 1.7580113 -1.6811174 1 3198651077904 1 0
0 0 0 7 3198651077904 1 0
0 0 0 28 3198651080208 1 0
10.19611 2.7060685 -1.6411942 4 3198651080208 1 0
12.50291 2.6701221 -1.6273448 3 3198651082512 1 0
0 0 0 10 3198651082512 1 0
69.93609 14.924388 -0.41562158 20 3198651084816 1 0
13.877669 3.6786253 -1.5464814 3 3198651084816 1 0
16.081867 2.6154969 -1.5209367 2 3198651087120 1 0
47.395847 12.555715 1.1409174 16 3198651087120 1 0
100.32546 16.300846 1.1832929 57 3198651089424 1 0
20.228 5.3553286 -1.4632118 5 3198651089424 1 0
0 0 0 13 3198651091728 1 0
83.20074 17.701939 1.4847809 87 3198651094032 1 0
17.808233 3.7917542 -1.4863662 3 3198651091728 1 0
21.633635 6.8672686 -1.4546503 5 3198651094032 1 0
23.063696 3.7365363 -1.3606857 2 3198651096336 1 0
50.2085 13.268002 3.024392 57 3198651096336 1 0
70.217415 14.917167 2.924574 29 3198651098640 1 0
27.10046 7.157088 -1.3056633 84 3198651098640 1 0
26.152534 5.551737 -1.4011382 4 3198651100944 1 0
49.73462 13.126525 6.315757 30 3198651100944 1 0
77.85102 16.51402 6.4967904 28 3198651103248 1 0
29.829296 9.448803 -1.2747892 4 3198651103248 1 0
32.878304 5.3059864 -1.1629908 5 3198651105552 1 0
49.63006 13.082715 13.752609 24 3198651105552 1 0
0 0 0 29 3198651107856 1 0
42.208103 11.119359 -1.0156687 7 3198651107856 1 0
0 0 0 8 3198651128592 1 0
41.13398 12.95371 -0.7527572 21 3198651128592 1 0
39.268665 8.255225 -1.1678104 8 3198651130896 1 0
0 0 0 1 3198651130896 1 0
8.222136 1.727306 -1.6803329 1 3198651133200 1 0
50.37582 13.18218 0 30 3198651133200 1 0
50.032997 7.974808 -0.5898304 6 3198651135504 1 1
10.202019 2.668125 -1.6405793 4 3198651135504 1 0
12.485275 2.6193037 -1.6238093 3 3198651137808 1 0
41.249733 12.965107 0.25130716 53 3198651137808 1 0
78.74671 16.509027 -0.46762657 28 3198651140112 1 0
13.8831 3.6267362 -1.5456246 3 3198651140112 1 0
50.183743 13.102287 1.2068917 18 3198651142416 1 0
16.07932 2.5560646 -1.5198214 3 3198651142416 1 0
50.62993 8.041263 0.59681505 8 3198651144720 1 1
20.239235 5.2811995 -1.4626538 5 3198651144720 1 0
17.813772 3.7268991 -1.4857153 3 3198651147024 1 0
46.98933 14.740576 1.4332324 15 3198651147024 1 0
85.06748 17.785082 1.5169631 7 3198651149328 1 0
21.66158 6.7919607 -1.4549061 5 3198651149328 1 0
23.068815 3.6540854 -1.3602206 5 3198651151632 1 0
50.189198 13.074086 3.0204384 38 3198651151632 1 0
70.24971 14.666865 2.9237597 29 3198651153936 1 0
27.098312 7.0550046 -1.3043605 24 3198651153936 1 0
26.171753 5.460414 -1.4011382 4 3198651156240 1 0
49.7494 12.944841 6.311857 30 3198651156240 1 0
76.444405 15.938161 6.374744 28 3198651158544 1 0
29.83526 9.3367 -1.2736493 4 3198651158544 1 0
32.892525 5.191521 -1.1628512 5 3198651160848 1 0
49.67131 12.909867 13.751574 24 3198651160848 1 0
0 0 0 29 3198651163152 1 0
42.226826 10.968774 -1.0152035 7 3198651163152 1 0
0 0 0 8 3198651183888 1 0
40.91322 12.735216 -0.7479403 7 3198651183888 1 1
39.291912 8.12415 -1.1676941 8 3198651186192 1 0
0 0 0 1 3198651186192 1 0
8.220137 1.6984435 -1.678764 1 3198651188496 1 0
56.085518 14.477725 0 23 3198651188496 1 0
50.45436 7.870496 -0.59448683 20 3198651190800 1 1
10.210811 2.6342793 -1.6405793 4 3198651190800 1 0
12.48612 2.576283 -1.6227992 3 3198651193104 1 0
0 0 0 3 3198651193104 1 0
70.288246 14.492571 -0.41710943 21 3198651195408 1 0
13.887347 3.5786934 -1.5447679 3 3198651195408 1 0
16.083775 2.5021174 -1.5194496 2 3198651197712 1 0
52.472992 13.514271 1.2608622 30 3198651197712 1 0
0 0 0 21 3198651200016 1 0
20.245043 5.211071 -1.4618167 5 3198651200016 1 0
17.814318 3.6653957 -1.484739 3 3198651202320 1 0
46.671333 14.470998 1.4220617 22 3198651202320 1 0
0 0 0 21 3198651204624 1 0
21.56197 6.6822777 -1.4467195 5 3198651204624 1 0
23.065022 3.5751197 -1.3592904 5 3198651206928 1 0
50.201336 12.899631 3.018578 57 3198651206928 1 0
70.16485 14.406498 2.9182236 29 3198651209232 1 0
0 0 0 2 3198651209232 1 0
26.087978 5.3527207 -1.3956953 4 3198651211536 1 0
49.753597 12.769925 6.306982 15 3198651211536 1 0
93.27482 19.124659 7.772911 28 3198651213840 1 0
29.824059 9.224721 -1.2718582 4 3198651213840 1 0
32.90166 5.081197 -1.162572 5 3198651216144 1 0
49.698875 12.741242 13.747433 23 3198651216144 1 0
0 0 0 29 3198651218448 1 0
42.080902 10.782035 -1.0108299 7 3198651218448 1 0
0 0 0 8 3198651239184 1 0
43.910088 13.508507 -0.8019032 23 3198651239184 1 0
39.27951 7.9855576 -1.1665304 8 3198651241488 1 0
0 0 0 1 3198651241488 1 0
8.225748 1.6710556 -1.678764 1 3198651243792 1 0
56.090786 14.279987 0 34 3198651243792 1 0
50.361732 7.6839404 -0.5930899 20 3198651246096 1 1
10.204226 2.5962832 -1.6381197 4 3198651246096 1 0
12.486891 2.5329223 -1.6217891 3 3198651248400 1 0
43.675343 13.408481 0.2655347 26 3198651248400 1 0
70.14043 14.217119 -0.41594705 21 3198651250704 1 0
13.887704 3.5291777 -1.5434827 3 3198651250704 1 0
16.088152 2.4474669 -1.5190779 3 3198651253008 1 0
52.355312 13.2965555 1.256954 19 3198651253008 1 0
105.252174 15.996196 1.2394029 28 3198651255312 1 0
20.25474 5.1409125 -1.4612586 5 3198651255312 1 0
46.628147 14.285323 1.419269 22 3198651257616 1 0
17.81877 3.6036835 -1.484088 3 3198651257616 1 0
87.00364 17.58252 1.5493548 5 3198651259920 1 0
21.580627 6.6081576 -1.4464637 5 3198651259920 1 0
23.06516 3.4951408 -1.3585926 5 3198651262224 1 0
50.22154 12.723548 3.0171826 38 3198651262224 1 0
79.70209 16.082825 3.3125956 29 3198651264528 1 0
27.164425 6.87786 -1.305291 4 3198651264528 1 0
26.094297 5.2615333 -1.3950672 4 3198651266832 1 0
49.83526 12.610259 6.311857 45 3198651266832 1 0
94.023445 18.944221 7.829866 28 3198651269136 1 0
29.84388 9.119444 -1.2713698 4 3198651269136 1 0
33.021606 4.984224 -1.1662016 5 3198651271440 1 0
0 0 0 29 3198651273744 1 0
0 0 0 22 3198651273744 1 0
49.734642 12.5694065 13.745362 23 3198651271440 1 0
0 0 0 8 3198651294480 1 0
44.15596 13.4156065 -0.8055333 15 3198651294480 1 0
39.185658 7.823844 -1.1629232 8 3198651296784 1 0
0 0 0 1 3198651296784 1 0
8.235401 1.6429799 -1.6795485 1 3198651299088 1 0
56.1017 14.073558 0 23 3198651299088 1 0
57.101852 8.507186 -0.6721096 8 3198651301392 1 0
10.209448 2.559464 -1.6375048 5 3198651301392 1 0
12.484054 2.4866304 -1.6202738 3 3198651303696 1 0
43.729923 13.256992 0.26558122 43 3198651303696 1 0
70.22544 13.976672 -0.41615626 21 3198651306000 1 0
13.896207 3.4792078 -1.5430542 3 3198651306000 1 0
16.10458 2.3917615 -1.5198214 3 3198651308304 1 0
54.76837 13.703526 1.313716 10 3198651308304 1 0
105.27256 15.618056 1.2389838 28 3198651310608 1 0
20.160557 5.0410767 -1.4531668 5 3198651310608 1 0
17.804073 3.53499 -1.4818097 3 3198651312912 1 0
43.83888 13.260788 1.3329283 13 3198651312912 1 0
87.042076 17.268345 1.548936 29 3198651315216 1 0
21.584885 6.525597 -1.4451846 5 3198651315216 1 0
23.065619 3.4111762 -1.357895 5 3198651317520 1 0
86.933556 17.21922 3.610573 29 3198651319824 1 0
68.89471 17.193346 4.135312 28 3198651317520 1 0
27.13841 6.7682524 -1.3028715 4 3198651319824 1 0
26.081608 5.1619325 -1.3933924 4 3198651322128 1 0
49.791454 12.409789 6.300645 30 3198651322128 1 0
0 0 0 8 3198651324432 1 0
29.841946 9.002001 -1.2699044 4 3198651324432 1 0
32.928562 4.8492546 -1.1622928 5 3198651326736 1 0
49.899456 12.42052 13.778491 12 3198651326736 1 0
0 0 0 29 3198651329040 1 0
41.674404 10.366456 -0.9992914 64 3198651329040 1 0
0 0 0 8 3198651349776 1 0
42.653316 12.788495 -0.77726036 7 3198651349776 1 0
39.418106 7.7201295 -1.168974 8 3198651352080 1 0
0 0 0 1 3198651352080 1 0
8.233669 1.611278 -1.6779796 1 3198651354384 1 0
68.53295 16.925287 0 41 3198651354384 1 0
57.389935 8.335207 -0.67513627 17 3198651356688 1 0
10.207249 2.5191863 -1.63566 4 3198651356688 1 0
12.485295 2.4393358 -1.6192636 3 3198651358992 1 0
0 0 0 95 3198651358992 1 0
69.891464 13.644083 -0.413878 20 3198651361296 1 0
13.901142 3.4263487 -1.5421975 3 3198651361296 1 0
16.069881 2.3264425 -1.5157318 2 3198651363600 1 0
54.969658 13.539998 1.3173451 10 3198651363600 1 0
110.95023 16.045006 1.3051051 28 3198651365904 1 0
20.175024 4.9661965 -1.4528879 3 3198651365904 1 0
17.801258 3.466663 -1.480508 3 3198651368208 1 0
43.852707 13.089728 1.331881 27 3198651368208 1 0
86.98701 16.926287 1.5468417 29 3198651370512 1 0
21.601007 6.444158 -1.444673 5 3198651370512 1 0
23.07006 3.325474 -1.3574299 2 3198651372816 1 0
69.92674 17.17889 4.1934514 28 3198651372816 1 0
87.4198 16.982792 3.6281586 29 3198651375120 1 0
27.155273 6.6668344 -1.3024992 4 3198651375120 1 0
26.084667 5.063259 -1.3925551 4 3198651377424 1 0
49.80576 12.219643 6.2967453 14 3198651377424 1 0
0 0 0 8 3198651379728 1 0
29.794296 8.86862 -1.2664849 4 3198651379728 1 0
32.92633 4.725693 -1.1615949 5 3198651382032 1 0
0 0 0 9 3198651382032 1 0
41.66939 10.20318 -0.9982679 71 3198651384336 1 0
0 0 0 8 3198651405072 1 0
45.004795 13.313941 -0.81921595 8 3198651405072 1 0
39.179073 7.5246096 -1.1610614 8 3198651407376 1 0
0 0 0 29 3198651384336 1 0
0 0 0 1 3198651407376 1 0
8.235644 1.5804698 -1.6771951 1 3198651409680 1 0
68.80805 16.726952 0 42 3198651409680 1 0
56.707073 8.025177 -0.66675466 17 3198651411984 1 0
10.212518 2.4810476 -1.6350452 4 3198651411984 1 0
12.494082 2.3939219 -1.6192636 3 3198651414288 1 0
0 0 0 3 3198651414288 1 0
13.8980255 3.3721304 -1.540484 3 3198651416592 1 0
16.06637 2.2665603 -1.5146165 2 3198651418896 1 0
72.588295 17.601192 1.7380357 24 3198651418896 1 0
111.1184 15.659525 1.3064089 28 3198651421200 1 0
20.181208 4.890427 -1.4520508 3 3198651421200 1 0
17.801897 3.4001873 -1.4795315 3 3198651423504 1 0
69.94051 13.390369 -0.413878 41 3198651416592 1 0
46.57672 13.720054 1.4131018 15 3198651423504 1 0
87.51093 16.701519 1.5550792 29 3198651425808 1 0
21.612576 6.3629766 -1.4439054 5 3198651425808 1 0
23.066042 3.2403522 -1.3564997 5 3198651428112 1 0
70.11997 16.959488 4.2013583 28 3198651428112 1 0
87.456566 16.664778 3.6271815 29 3198651430416 1 0
27.155699 6.563802 -1.3013824 4 3198651430416 1 0
26.110464 4.971392 -1.3929738 4 3198651432720 1 0
49.937923 12.062804 6.307957 15 3198651432720 1 0
0 0 0 8 3198651435024 1 0
29.783592 8.749786 -1.2646937 4 3198651435024 1 0
33.081524 4.6277184 -1.1664808 5 3198651437328 1 0
0 0 0 9 3198651437328 1 0
0 0 0 29 3198651439632 1 0
42.094166 10.148662 -1.0075731 14 3198651439632 1 0
0 0 0 8 3198651460368 1 0
39.21678 7.390595 -1.1614105 8 3198651462672 1 0
45.22375 13.207216 -0.8223574 16 3198651460368 1 0
0 0 0 1 3198651462672 1 0
8.225648 1.5490487 -1.6740572 1 3198651464976 1 0
74.0821 17.737682 0 25 3198651464976 1 0
56.258938 7.764043 -0.66116697 8 3198651467280 1 0
10.217166 2.4449103 -1.6344303 4 3198651467280 1 0
12.498326 2.3502889 -1.6187587 3 3198651469584 1 0
0 0 0 3 3198651469584 1 0
74.47916 13.995584 -0.44045007 24 3198651471888 1 0
13.901733 3.3227592 -1.5396272 3 3198651471888 1 0
16.081882 2.2129529 -1.5153601 3 3198651474192 1 0
70.11572 16.74919 1.6774585 22 3198651474192 1 0
111.45612 15.322093 1.3097615 28 3198651476496 1 0
20.18602 4.819228 -1.4512137 3 3198651476496 1 0
17.805433 3.3386295 -1.4788806 3 3198651478800 1 0
46.23884 13.451128 1.4014655 14 3198651478800 1 0
87.64517 16.42214 1.5564754 29 3198651481104 1 0
21.626165 6.288099 -1.4433937 5 3198651481104 1 0
23.06884 3.1620889 -1.3560345 5 3198651483408 1 0
81.45284 19.412315 4.8764687 28 3198651483408 1 0
27.107445 6.456654 -1.2980323 4 3198651485712 1 0
80.63669 15.087105 3.3422306 29 3198651485712 1 0
26.087542 4.877438 -1.3908803 4 3198651488016 1 0
49.94675 11.889783 6.3040576 45 3198651488016 1 0
98.36512 18.377438 8.168993 28 3198651490320 1 0
29.793127 8.645837 -1.2638797 4 3198651490320 1 0
33.100517 4.519494 -1.1666204 5 3198651492624 1 0
0 0 0 9 3198651492624 1 0
0 0 0 29 3198651494928 1 0
41.535786 9.870325 -0.9934291 7 3198651494928 1 0
0 0 0 8 3198651515664 1 0
45.484043 13.128294 -0.82633656 24 3198651515664 1 0
39.216377 7.262131 -1.1607124 8 3198651517968 1 0
0 0 0 1 3198651517968 1 0
75.26719 17.768139 0 26 3198651520272 1 0
48.442936 6.5271435 -0.5690627 18 3198651522576 1 0
8.234397 1.523554 -1.6748416 1 3198651520272 1 0
12.494144 2.3077593 -1.6172434 3 3198651524880 1 0
46.497585 13.390074 0.28122687 20 3198651524880 1 0
10.21726 2.410316 -1.6332004 4 3198651522576 1 0
75.232285 13.884069 -0.44463465 25 3198651527184 1 0
13.904719 3.2757277 -1.5387704 3 3198651527184 1 0
16.041672 2.1539533 -1.5108988 3 3198651529488 1 0
70.24022 16.536142 1.6791334 22 3198651529488 1 0
20.18625 4.7490478 -1.4500976 3 3198651531792 1 0
111.418785 14.943143 1.3087372 28 3198651531792 1 0
17.804644 3.277401 -1.4779043 3 3198651534096 1 0
46.16406 13.263494 1.3978584 14 3198651534096 1 0
0 0 0 65 3198651536400 1 0
21.624014 6.2092667 -1.4418588 5 3198651536400 1 0
23.10308 3.0877395 -1.3574299 5 3198651538704 1 0
81.34267 19.097473 4.8660035 28 3198651538704 1 0
80.65187 14.807844 3.340765 29 3198651541008 1 0
27.109673 6.3603883 -1.2971016 8 3198651541008 1 0
26.096132 4.7871823 -1.3904617 4 3198651543312 1 0
49.91735 11.703413 6.295283 14 3198651543312 1 0
99.235306 18.18847 8.236037 28 3198651545616 1 0
29.803356 8.538235 -1.2630655 4 3198651545616 1 0
32.98117 4.3874464 -1.161874 5 3198651547920 1 0
0 0 0 9 3198651547920 1 0
93.41174 17.091604 17.314117 29 3198651550224 1 0
41.53473 9.717986 -0.9925917 7 3198651550224 1 0
0 0 0 8 3198651570960 1 0
39.285954 7.126483 -1.1619923 8 3198651573264 1 0
45.67418 13.002014 -0.8289195 24 3198651570960 1 0
0 0 0 1 3198651573264 1 0
8.236044 1.4927834 -1.6740572 1 3198651575568 1 0
49.997204 6.5511885 -0.58703655 6 3198651577872 1 0
75.62768 17.56201 0 79 3198651575568 1 0
10.218274 2.3712878 -1.6319706 5 3198651577872 1 0
12.494643 2.260901 -1.6162332 3 3198651580176 1 0
46.50749 13.209987 0.28099442 10 3198651580176 1 0
77.80129 14.066428 -0.45951316 27 3198651582480 1 0
13.912641 3.2243505 -1.538342 3 3198651582480 1 0
16.045418 2.0953276 -1.510527 3 3198651584784 1 0
70.29575 16.280752 1.6790404 22 3198651584784 1 0
105.372154 13.7446785 1.2371212 28 3198651587088 1 0
20.199396 4.6751585 -1.4498185 3 3198651587088 1 0
17.808502 3.211743 -1.4772533 3 3198651589392 1 0
46.480877 13.173209 1.4060037 22 3198651589392 1 0
93.53898 16.8556 1.6590258 58 3198651591696 1 0
21.642385 6.1302977 -1.441603 5 3198651591696 1 0
23.090265 3.001634 -1.3560345 5 3198651594000 1 0
81.24344 18.766483 4.8560038 28 3198651594000 1 0
81.99071 14.749994 3.3940103 29 3198651596304 1 0
27.093369 6.254167 -1.2952404 4 3198651596304 1 0
26.117025 4.694489 -1.390671 4 3198651598608 1 0
100.3787 18.027822 8.325539 28 3198651600912 1 0
49.927956 11.517599 6.291383 14 3198651598608 1 0
29.814423 8.426329 -1.2622514 4 3198651600912 1 0
33.115532 4.285285 -1.166062 5 3198651603216 1 0
0 0 0 9 3198651603216 1 0
93.90962 16.837791 17.395193 29 3198651605520 1 0
41.56123 9.568428 -0.99240553 7 3198651605520 1 0
46.21213 12.980943 -0.8378551 16 3198651626256 1 0
0 0 0 8 3198651626256 1 0
39.290855 6.986092 -1.1614105 8 3198651628560 1 0
0 0 0 1 3198651628560 1 0
8.237322 1.4634589 -1.6732727 1 3198651630864 1 0
75.69607 17.300797 0 79 3198651630864 1 0
52.844566 6.7379084 -0.6201903 14 3198651633168 1 0
10.230291 2.336708 -1.6325855 4 3198651633168 1 0
12.494581 2.2162504 -1.6152232 3 3198651635472 1 0
46.51442 13.038123 0.28076193 30 3198651635472 1 0
13.896554 3.1700814 -1.5353433 3 3198651637776 1 0
16.048594 2.0395043 -1.5101552 3 3198651640080 1 0
76.012634 17.32895 1.8141527 26 3198651640080 1 0
78.63712 13.937205 -0.46416268 28 3198651637776 1 0
105.38707 13.378114 1.2367487 28 3198651642384 1 0
17.815496 3.1499028 -1.4769279 3 3198651644688 1 0
46.51812 13.011434 1.405771 22 3198651644688 1 0
20.199795 4.602104 -1.4487025 3 3198651642384 1 0
93.82065 16.574772 1.6630049 58 3198651646992 1 0
21.559456 6.0271144 -1.4346955 5 3198651646992 1 0
23.001348 2.9101646 -1.3502207 5 3198651649296 1 0
76.37363 17.366848 4.561355 28 3198651649296 1 0
0 0 0 14 3198651651600 1 0
26.05024 4.591016 -1.3862748 4 3198651653904 1 0
49.943638 11.342333 6.2884583 44 3198651653904 1 0
101.86853 17.938492 8.444005 28 3198651656208 1 0
27.118439 6.16261 -1.2954265 4 3198651651600 1 0
29.819769 8.318583 -1.2612743 4 3198651656208 1 0
33.0783 4.1665425 -1.1642472 5 3198651658512 1 0
0 0 0 9 3198651658512 1 0
0 0 0 29 3198651660816 1 0
41.40225 9.384516 -0.98784596 6 3198651660816 1 0
0 0 0 36 3198651681552 1 0
0 0 0 4 3198651681552 1 0
39.13656 6.8248506 -1.1561742 8 3198651683856 1 0
0 0 0 1 3198651683856 1 0
8.242129 1.4361349 -1.6732727 1 3198651686160 1 0
75.62034 17.019823 0 52 3198651686160 1 0
55.704643 6.9149327 -0.65348387 16 3198651688464 1 0
10.226416 2.3001683 -1.6307408 5 3198651688464 1 0
44.86118 12.41441 0.27053297 63 3198651690768 1 0
78.58439 13.659234 -0.46358147 28 3198651693072 1 0
13.90311 3.1231096 -1.5349149 3 3198651693072 1 0
12.490133 2.1727645 -1.6137079 3 3198651690768 1 0
16.047363 1.985296 -1.5094117 3 3198651695376 1 0
76.042366 17.070658 1.8135014 26 3198651695376 1 0
105.32368 13.01532 1.2354914 28 3198651697680 1 0
20.218838 4.535968 -1.4489815 3 3198651697680 1 0
17.806204 3.0874016 -1.4753007 3 3198651699984 1 0
46.780693 12.917764 1.4124036 15 3198651699984 1 0
93.808105 16.251953 1.6618181 58 3198651702288 1 0
21.556236 5.949216 -1.4331605 5 3198651702288 1 0
22.99502 2.8319209 -1.3492904 5 3198651704592 1 0
76.09957 17.039326 4.541588 28 3198651704592 1 0
0 0 0 14 3198651706896 1 0
27.10753 6.065668 -1.2939374 4 3198651706896 1 0
26.006277 4.4944015 -1.3831346 4 3198651709200 1 0
49.94223 11.167987 6.283583 44 3198651709200 1 0
103.047104 17.793924 8.53676 28 3198651711504 1 0
29.762419 8.196306 -1.2576921 4 3198651711504 1 0
33.072098 4.0543957 -1.1635492 5 3198651713808 1 0
0 0 0 9 3198651713808 1 0
93.30675 16.08543 17.263176 29 3198651716112 1 0
0 0 0 6 3198651716112 1 0
0 0 0 4 3198651736296 1 0
44.739212 12.23087 -0.80958223 8 3198651736296 1 0
39.354435 6.7143116 -1.161876 8 3198651738600 1 0
0 0 0 1 3198651738600 1 0
8.231872 1.4032799 -1.6701349 6 3198651740904 1 0
75.592384 16.722673 0 52 3198651740904 1 0
56.456314 6.7982244 -0.6620051 8 3198651743208 1 0
10.230918 2.2618182 -1.6301259 5 3198651743208 1 0
12.49019 2.12564 -1.6126977 3 3198651745512 1 0
44.813766 12.224638 0.269975 63 3198651745512 1 0
81.02358 13.777459 -0.47766957 28 3198651747816 1 0
13.910579 3.0712738 -1.5344865 3 3198651747816 1 0
16.058487 1.9269407 -1.5097834 3 3198651750120 1 0
76.3973 16.856453 1.8204803 27 3198651750120 1 0
0 0 0 21 3198651752424 1 0
20.219742 4.4583945 -1.4478654 3 3198651752424 1 0
17.801678 3.0194511 -1.4739988 3 3198651754728 1 0
46.89331 12.76407 1.4143817 15 3198651754728 1 0
93.81184 15.898664 1.6608407 58 3198651757032 1 0
21.566341 5.8670244 -1.4323931 3 3198651757032 1 0
23.00128 2.7471473 -1.3490578 5 3198651759336 1 0
76.27071 16.784323 4.5480995 28 3198651759336 1 0
0 0 0 14 3198651761640 1 0
27.024216 5.9431014 -1.2889122 4 3198651761640 1 0
26.002882 4.3957243 -1.382088 4 3198651763944 1 0
49.870377 10.960151 6.2694464 29 3198651763944 1 0
88.48417 14.945459 7.3257318 28 3198651766248 1 0
29.776833 8.082978 -1.2570409 4 3198651766248 1 0
33.086735 3.9331532 -1.1635492 5 3198651768552 1 0
0 0 0 9 3198651768552 1 0
93.19046 15.713892 17.23089 29 3198651770856 1 0
41.619095 9.12866 -0.99147505 21 3198651770856 1 0
0 0 0 4 3198651791592 1 0
48.11569 12.982609 -0.8698977 17 3198651791592 1 0
39.16358 6.54788 -1.1555923 8 3198651793896 1 0
0 0 0 1 3198651793896 1 0
8.259712 1.379732 -1.6748416 18 3198651796200 1 0
72.34504 15.751726 0 23 3198651796200 1 0
55.81129 6.531633 -0.6541823 8 3198651798504 1 0
10.226825 2.2251344 -1.6282811 5 3198651798504 1 0
12.489403 2.0825405 -1.6116877 3 3198651800808 1 0
44.811924 12.063221 0.2697193 63 3198651800808 1 0
49.978344 8.326148 -0.29447803 9 3198651803112 1 1
13.913025 3.0229328 -1.5336298 3 3198651803112 1 0
16.053001 1.8715936 -1.5086681 3 3198651805416 1 0
70.65423 15.340537 1.6823903 22 3198651805416 1 0
20.121552 4.3657527 -1.4397736 3 3198651807720 1 0
120.7241 14.057231 1.4149504 28 3198651807720 1 0
47.283646 12.699102 1.4248544 22 3198651810024 1 0
17.796032 2.9567523 -1.472697 3 3198651810024 1 0
100.236885 16.639048 1.7735833 20 3198651812328 1 0
21.566782 5.788889 -1.431114 3 3198651812328 1 0
23.014423 2.669644 -1.3492904 5 3198651814632 1 0
80.89343 17.514412 4.82019 28 3198651814632 1 0
27.013 5.84453 -1.2874231 4 3198651816936 1 0
90.359955 14.972497 3.731555 29 3198651816936 1 0
26.001928 4.304591 -1.3812505 4 3198651819240 1 0
49.903507 10.78952 6.268959 43 3198651819240 1 0
89.88768 14.867378 7.4376893 28 3198651821544 1 0
29.800365 7.9803386 -1.256878 4 3198651821544 1 0
33.11587 3.8218753 -1.1641076 5 3198651823848 1 0
0 0 0 9 3198651823848 1 0
93.158325 15.380501 17.215105 29 3198651826152 1 0
41.650116 8.9860525 -0.99147505 21 3198651826152 1 0
0 0 0 4 3198651846888 1 0
45.354786 12.067975 -0.81921595 8 3198651846888 1 0
39.383442 6.443699 -1.1614105 8 3198651849192 1 0
0 0 0 1 3198651849192 1 0
8.245104 1.347848 -1.6709193 14 3198651851496 1 0
72.27811 15.474193 0 23 3198651851496 1 0
56.032322 6.36055 -0.65651053 8 3198651853800 1 0
10.230617 2.188819 -1.6276662 5 3198651853800 1 0
12.488705 2.038017 -1.6106775 3 3198651856104 1 0
50.165306 13.318272 0.30166158 11 3198651856104 1 0
49.70677 8.104539 -0.29271123 9 3198651858408 1 1
16.047485 1.8149048 -1.5075527 3 3198651860712 1 0
13.915606 2.9731932 -1.532773 3 3198651858408 1 0
70.694954 15.094394 1.6821111 22 3198651860712 1 0
51.043915 5.765714 0.59802574 8 3198651863016 1 1
20.12084 4.2931833 -1.4386575 3 3198651863016 1 0
17.794271 2.8937306 -1.4717206 3 3198651865320 1 0
47.16076 12.492703 1.4198508 15 3198651865320 1 0
100.26961 16.29177 1.7731645 29 3198651867624 1 0
21.574905 5.7119193 -1.4303464 5 3198651867624 1 0
23.019445 2.5905204 -1.3490578 5 3198651869928 1 0
80.76535 17.197903 4.809027 28 3198651869928 1 0
91.8268 14.893941 3.7900107 29 3198651872232 1 0
26.98588 5.7423844 -1.2851896 4 3198651872232 1 0
26.016428 4.216072 -1.3812505 4 3198651874536 1 0
49.916637 10.614662 6.266034 43 3198651874536 1 0
91.62991 14.836021 7.5776362 28 3198651876840 1 0
29.780928 7.8668385 -1.254924 4 3198651876840 1 0
33.144524 3.7114084 -1.164666 5 3198651879144 1 0
0 0 0 9 3198651879144 1 0
41.34385 8.7737665 -0.9834725 6 3198651881448 1 0
93.174835 15.059741 17.208649 29 3198651881448 1 0
0 0 0 4 3198651902184 1 0
47.3171 12.422236 -0.85391134 17 3198651902184 1 0
39.381 6.3086953 -1.1607124 8 3198651904488 1 0
0 0 0 1 3198651904488 1 0
8.230201 1.3171597 -1.666997 16 3198651906792 1 0
73.58982 15.497746 0 24 3198651906792 1 0
51.755646 5.6990194 -0.60617447 7 3198651909096 1 1
10.237913 2.1544342 -1.6276662 6 3198651909096 1 0
64.128365 16.793858 0.38528338 23 3198651911400 1 0
12.483755 1.9939872 -1.6091622 4 3198651911400 1 0
50.377796 8.038782 -0.2965006 28 3198651913704 1 1
13.913925 2.923565 -1.5314878 3 3198651913704 1 0
16.045652 1.7594103 -1.5068092 3 3198651916008 1 0
70.72635 14.849596 1.6816459 22 3198651916008 1 0
51.178627 5.6038413 0.5993761 8 3198651918312 1 1
20.119776 4.2211094 -1.4375414 3 3198651918312 1 0
17.8041 2.8326352 -1.4717206 3 3198651920616 1 0
48.1937 12.589453 1.4496394 15 3198651920616 1 0
105.30588 16.737694 1.8611945 29 3198651922920 1 0
21.586742 5.6354995 -1.4298347 3 3198651922920 1 0
23.016365 2.509523 -1.3483602 5 3198651925224 1 0
81.56702 17.07367 4.853213 28 3198651925224 1 0
93.45695 14.825118 3.8551424 29 3198651927528 1 0
26.993944 5.64609 -1.2846313 4 3198651927528 1 0
26.034931 4.1258574 -1.38146 4 3198651929832 1 0
105.774956 22.107174 13.268159 28 3198651929832 1 0
93.453316 14.795281 7.724092 28 3198651932136 1 0
29.804451 7.761395 -1.2547612 4 3198651932136 1 0
33.177254 3.5968795 -1.165364 5 3198651934440 1 0
0 0 0 9 3198651934440 1 0
93.20027 14.726042 17.203627 29 3198651936744 1 0
41.221928 8.595755 -0.97984344 6 3198651936744 1 0
0 0 0 4 3198651957480 1 0
49.00404 12.673306 -0.88351065 8 3198651957480 1 0
39.403812 6.164601 -1.1607124 8 3198651959784 1 0
0 0 0 1 3198651959784 1 0
8.242705 1.2883168 -1.6685659 15 3198651962088 1 0
72.30625 14.95197 0 23 3198651962088 1 0
54.090836 5.7567725 -0.6332749 7 3198651964392 1 0
10.234082 2.11472 -1.6258215 5 3198651964392 1 0
12.483082 1.9473587 -1.6081522 3 3198651966696 1 0
64.13866 16.54758 0.38498116 23 3198651966696 1 0
50.37502 7.8509893 -0.2963146 9 3198651969000 1 1
13.912758 2.8706436 -1.5302026 3 3198651969000 1 0
16.051918 1.7012886 -1.5068092 3 3198651971304 1 0
85.09069 17.544008 2.0216599 57 3198651971304 1 0
0 0 0 21 3198651973608 1 0
20.130993 4.147558 -1.4372624 3 3198651973608 1 0
17.802383 2.7665606 -1.4707443 3 3198651975912 1 0
48.056805 12.368696 1.4441705 7 3198651975912 1 0
104.990005 16.300222 1.8545625 29 3198651978216 1 0
21.502508 5.5309076 -1.4229274 3 3198651978216 1 0
23.013319 2.4255657 -1.3476624 5 3198651980520 1 0
78.98761 16.237774 4.6962376 28 3198651980520 1 0
95.34209 14.773935 3.930695 29 3198651982824 1 0
26.967047 5.539627 -1.2823977 3 3198651982824 1 0
26.025843 4.029013 -1.3802038 4 3198651985128 1 0
105.841705 21.726183 13.266697 28 3198651985128 1 0
95.47156 14.76556 7.8864956 28 3198651987432 1 0
33.166004 3.4761336 -1.1645265 5 3198651989736 1 0
29.801004 7.6469774 -1.2534586 4 3198651987432 1 0
0 0 0 9 3198651989736 1 0
93.26761 14.39692 17.206497 29 3198651992040 1 0
0 0 0 4 3198652012776 1 0
41.381516 8.47559 -0.9829142 6 3198651992040 1 0
39.409237 6.024888 -1.1602468 8 3198652015080 1 0
48.9976 12.489331 -0.8826031 8 3198652012776 1 0
0 0 0 1 3198652015080 1 0
72.291145 14.686997 0 23 3198652017384 1 0
0 0 0 28 3198652019688 1 0
8.239379 1.2584721 -1.666997 16 3198652017384 1 0
10.241356 2.079207 -1.6258215 7 3198652019688 1 0
12.485826 1.903538 -1.6076471 3 3198652021992 1 0
68.641945 17.456215 0.41164622 30 3198652021992 1 0
78.06235 11.890031 -0.45893195 27 3198652024296 1 0
13.922591 2.822568 -1.5302026 3 3198652024296 1 0
16.045801 1.6447289 -1.5056939 3 3198652026600 1 0
0 0 0 1 3198652026600 1 0
0 0 0 21 3198652028904 1 0
20.121674 4.0735373 -1.4355882 3 3198652028904 1 0
17.80389 2.7042408 -1.4700933 3 3198652031208 1 0
69.3019 17.583275 2.0807877 29 3198652031208 1 0
105.38132 15.991518 1.8604963 29 3198652033512 1 0
21.509718 5.4542813 -1.4221598 3 3198652033512 1 0
23.005585 2.3452737 -1.3467323 8 3198652035816 1 0
97.17015 14.718011 4.0039682 29 3198652038120 1 0
84.39331 17.048613 5.0141416 28 3198652035816 1 0
26.923117 5.434969 -1.2794198 3 3198652038120 1 0
25.956463 3.927863 -1.3758076 3 3198652040424 1 0
105.81385 21.345425 13.254023 28 3198652040424 1 0
0 0 0 8 3198652042728 1 0
29.807428 7.5408244 -1.2526444 4 3198652042728 1 0
33.316795 3.3778322 -1.1694124 5 3198652045032 1 0
0 0 0 9 3198652045032 1 0
93.2535 14.072052 17.195017 29 3198652047336 1 0
41.4021 8.334028 -0.9827281 6 3198652047336 1 0
0 0 0 4 3198652068072 1 0
48.460815 12.181508 -0.87220144 17 3198652068072 1 0
39.456768 5.897733 -1.1610614 8 3198652070376 1 0
0 0 0 1 3198652070376 1 0
8.243543 1.2309026 -1.666997 14 3198652072680 1 0
72.339874 14.4450865 0 23 3198652072680 1 0
0 0 0 28 3198652074984 1 0
10.2327795 2.0416932 -1.6233618 7 3198652074984 1 0
12.488253 1.8608115 -1.607142 5 3198652077288 1 0
68.80909 17.251736 0.41229716 60 3198652077288 1 0
81.46113 12.125395 -0.47866923 28 3198652079592 1 0
13.916474 2.7722623 -1.5284891 3 3198652079592 1 0
16.051306 1.5901093 -1.5056939 3 3198652081896 1 0
87.00122 17.31746 2.064185 57 3198652081896 1 0
0 0 0 21 3198652084200 1 0
20.12374 4.002404 -1.4347512 3 3198652084200 1 0
17.797295 2.6407728 -1.4687915 3 3198652086504 1 0
69.47046 17.372454 2.084046 29 3198652086504 1 0
110.59862 16.393425 1.9515979 29 3198652088808 1 0
21.520645 5.3781686 -1.4216481 3 3198652088808 1 0
22.93011 2.2574086 -1.3418486 5 3198652091112 1 0
85.16469 16.897821 5.056467 28 3198652091112 1 0
99.588974 14.730441 4.101503 29 3198652093416 1 0
26.918331 5.3366866 -1.278303 3 3198652093416 1 0
26.033241 3.8465762 -1.3791571 4 3198652095720 1 0
105.84098 20.966677 13.248173 28 3198652095720 1 0
29.759996 7.4179316 -1.2495507 4 3198652098024 1 0
0 0 0 8 3198652098024 1 0
33.32052 3.2597663 -1.1691332 5 3198652100328 1 0
0 0 0 9 3198652100328 1 0
93.31433 13.744101 17.197168 29 3198652102632 1 0
41.290066 8.15974 -0.9793782 6 3198652102632 1 0
0 0 0 4 3198652123368 1 0
48.73031 12.059532 -0.87625045 17 3198652123368 1 0
39.50577 5.7574005 -1.161876 8 3198652125672 1 0
0 0 0 1 3198652125672 1 0
8.255744 1.2019304 -1.6685659 14 3198652127976 1 0
72.608025 14.223195 0 23 3198652127976 1 0
0 0 0 28 3198652130280 1 0
10.24015 2.0043979 -1.6233618 6 3198652130280 1 0
12.479229 1.8131087 -1.6051216 4 3198652132584 1 0
69.25582 17.09633 0.41459867 30 3198652132584 1 0
80.218094 11.6429825 -0.4711137 28 3198652134888 1 0
16.04903 1.5312117 -1.5049504 3 3198652137192 1 0
87.04375 16.998434 2.0637197 28 3198652137192 1 0
13.918636 2.720218 -1.5276324 3 3198652134888 1 0
0 0 0 21 3198652139496 1 0
20.134157 3.928881 -1.4344721 3 3198652139496 1 0
17.802757 2.5759897 -1.468466 4 3198652141800 1 0
72.33572 17.811983 2.1680593 34 3198652141800 1 0
111.02503 16.048405 1.9580902 29 3198652144104 1 0
21.520485 5.295896 -1.420369 3 3198652144104 1 0
22.942047 2.1753953 -1.3420812 5 3198652146408 1 0
86.88677 16.91531 5.155071 28 3198652146408 1 0
101.02565 14.573018 4.158493 29 3198652148712 1 0
26.925524 5.237856 -1.2777447 3 3198652148712 1 0
25.947996 3.7391634 -1.3739235 3 3198652151016 1 0
105.907524 20.586338 13.247198 28 3198652151016 1 0
100.94418 14.531293 8.325539 28 3198652153320 1 0
29.782412 7.310669 -1.2493879 4 3198652153320 1 0
33.36376 3.1440127 -1.1702499 5 3198652155624 1 0
0 0 0 9 3198652155624 1 0
93.35483 13.411059 17.195734 29 3198652157928 1 0
41.558292 8.059298 -0.98505443 13 3198652157928 1 0
0 0 0 4 3198652178664 1 0
48.352463 11.78706 -0.868711 8 3198652178664 1 0
39.347454 5.594425 -1.1566396 8 3198652180968 1 0
0 0 0 1 3198652180968 1 0
8.255989 1.1726737 -1.6677815 12 3198652183272 1 0
74.61319 14.346853 0 50 3198652183272 1 0
0 0 0 28 3198652185576 1 0
10.239279 1.967373 -1.6221321 6 3198652185576 1 0
12.481503 1.7693433 -1.6046166 4 3198652187880 1 0
73.006905 17.754423 0.43668395 36 3198652187880 1 0
0 0 0 9 3198652190184 1 0
13.924045 2.6713734 -1.5272039 3 3198652190184 1 0
16.046282 1.4751521 -1.5042068 3 3198652192488 1 0
87.47099 16.769066 2.0724666 28 3198652192488 1 0
51.39643 4.7177687 0.60086614 8 3198652194792 1 1
20.151472 3.860352 -1.4347512 3 3198652194792 1 0
17.795704 2.5126376 -1.4671642 3 3198652197096 1 0
116.30283 16.404814 2.050169 29 3198652199400 1 0
69.69982 16.909384 2.087304 29 3198652197096 1 0
21.526861 5.2193313 -1.4196016 3 3198652199400 1 0
23.008999 2.102419 -1.3455695 5 3198652201704 1 0
87.524574 16.72919 5.189489 28 3198652201704 1 0
103.0536 14.506931 4.2399077 29 3198652204008 1 0
26.927532 5.1429935 -1.2770002 3 3198652204008 1 0
26.000128 3.6563933 -1.376017 3 3198652206312 1 0
105.96138 20.222797 13.245248 28 3198652206312 1 0
102.86823 14.451848 8.480131 28 3198652208616 1 0
33.398113 3.0330994 -1.1710875 5 3198652210920 1 0
29.78376 7.203845 -1.2484108 4 3198652208616 1 0
0 0 0 9 3198652210920 1 0
93.41913 13.098028 17.199322 29 3198652213224 1 0
0 0 0 8 3198652213224 1 0
0 0 0 4 3198652233960 1 0
48.364063 11.620112 -0.8682223 8 3198652233960 1 0
39.536125 5.4872627 -1.1616431 8 3198652236264 1 0
0 0 0 1 3198652236264 1 0
0 0 0 18 3198652238568 1 0
74.66842 14.099747 0 50 3198652238568 1 0
10.245789 1.9331839 -1.6221321 7 3198652240872 1 0
0 0 0 28 3198652240872 1 0
12.4912815 1.7281239 -1.6051216 4 3198652243176 1 0
0 0 0 184 3198652245480 1 0
74.201706 17.782297 0.44347227 37 3198652243176 1 0
13.909472 2.620261 -1.5246335 3 3198652245480 1 0
16.035278 1.4198272 -1.5027196 3 3198652247784 1 0
87.542564 16.478048 2.0728388 28 3198652247784 1 0
51.412025 4.5446887 0.60086614 8 3198652250088 1 1
20.15259 3.790267 -1.4339141 3 3198652250088 1 0
17.804081 2.4525752 -1.4671642 4 3198652252392 1 0
72.82082 17.406578 2.1789973 35 3198652252392 1 0
111.49224 15.341928 1.9644428 29 3198652254696 1 0
21.524975 5.1418695 -1.4183224 3 3198652254696 1 0
23.023947 2.0251327 -1.3460346 5 3198652257000 1 0
87.812325 16.475935 5.20321 28 3198652257000 1 0
105.276054 14.455345 4.329301 29 3198652259304 1 0
26.929134 5.0485697 -1.2762556 3 3198652259304 1 0
25.949102 3.5591989 -1.3726674 3 3198652261608 1 0
105.90082 19.83793 13.229161 28 3198652261608 1 0
138.58789 18.988287 11.419341 28 3198652263912 1 0
29.788717 7.097589 -1.2475967 4 3198652263912 1 0
33.507847 2.927628 -1.1745775 5 3198652266216 1 0
0 0 0 9 3198652266216 1 0
0 0 0 29 3198652268520 1 0
41.72225 7.7968025 -0.9876599 20 3198652268520 1 0
0 0 0 4 3198652289256 1 0
39.582775 5.3529735 -1.1624577 8 3198652291560 1 0
48.377087 11.444775 -0.86773366 8 3198652289256 1 0
0 0 0 1 3198652291560 1 0
8.283232 1.1189554 -1.6717038 1 3198652293864 1 0
75.13802 13.916967 0 25 3198652293864 1 0
0 0 0 28 3198652296168 1 0
10.240815 1.89525 -1.6202873 6 3198652296168 1 0
12.48544 1.6829205 -1.6036065 3 3198652298472 1 0
75.38841 17.788652 0.45019084 39 3198652298472 1 0
13.914623 2.570969 -1.5242052 3 3198652300776 1 0
0 0 0 236 3198652300776 1 0
16.052042 1.3648573 -1.5038351 3 3198652303080 1 0
87.64281 16.180353 2.0738623 28 3198652303080 1 0
20.15785 3.7184505 -1.433356 3 3198652305384 1 0
51.327938 4.3567424 0.59970206 8 3198652305384 1 1
17.776972 2.3856401 -1.4642351 3 3198652307688 1 0
69.70918 16.405773 2.0841622 29 3198652307688 1 0
111.55701 14.954247 1.9646523 29 3198652309992 1 0
23.01496 1.9434078 -1.3451043 5 3198652312296 1 0
21.546677 5.067616 -1.4185783 3 3198652309992 1 0
80.749115 14.859087 4.7815857 28 3198652312296 1 0
110.32913 14.756982 4.534954 29 3198652314600 1 0
25.965326 3.469127 -1.3728768 3 3198652316904 1 0
26.942663 4.953816 -1.2760695 3 3198652314600 1 0
105.93037 19.460972 13.224286 28 3198652316904 1 0
138.83907 18.529196 11.434638 28 3198652319208 1 0
29.801638 6.9908257 -1.2471082 4 3198652319208 1 0
33.466072 2.8063033 -1.1727626 5 3198652321512 1 0
0 0 0 9 3198652321512 1 0
0 0 0 29 3198652323816 1 0
41.820015 7.6640925 -0.9893348 14 3198652323816 1 0
0 0 0 4 3198652344552 1 0
48.190823 11.223223 -0.8636847 8 3198652344552 1 0
39.430763 5.192325 -1.1574541 8 3198652346856 1 0
0 0 0 1 3198652346856 1 0
8.27542 1.0885001 -1.6693504 1 3198652349160 1 0
75.961464 13.795408 0 26 3198652349160 1 0
51.886528 4.252174 -0.60608137 7 3198652351464 1 1
10.235702 1.8573742 -1.6184427 6 3198652351464 1 0
12.483371 1.6382953 -1.6025963 3 3198652353768 1 0
75.32147 17.495523 0.44942367 78 3198652353768 1 0
52.7954 6.920963 -0.30947277 130 3198652356072 1 1
13.911773 2.5202556 -1.52292 3 3198652356072 1 0
16.056707 1.3088169 -1.5038351 3 3198652358376 1 0
91.99968 16.652834 2.1755688 28 3198652358376 1 0
51.542164 4.1937666 0.6020303 8 3198652360680 1 1
20.06469 3.6288898 -1.4258224 3 3198652360680 1 0
17.769379 2.3215065 -1.4629332 4 3198652362984 1 0
69.69591 16.1461 2.0820677 29 3198652362984 1 0
105.318825 13.743953 1.8539343 29 3198652365288 1 0
21.54479 4.987871 -1.417299 3 3198652365288 1 0
23.021603 1.8630587 -1.3451043 5 3198652367592 1 0
80.930176 14.600526 4.78926 28 3198652367592 1 0
110.272964 14.357839 4.5305576 29 3198652369896 1 0
26.979454 4.8632827 -1.2770002 3 3198652369896 1 0
25.977278 3.3784697 -1.3728768 3 3198652372200 1 0
93.7912 16.892601 11.7014065 28 3198652372200 1 0
138.71312 18.019793 11.419016 28 3198652374504 1 0
29.79081 6.878663 -1.2456428 4 3198652374504 1 0
33.54739 2.6952302 -1.1752754 5 3198652376808 1 0
0 0 0 9 3198652376808 1 0
0 0 0 29 3198652379112 1 0
41.39782 7.437455 -0.9787268 6 3198652379112 1 0
0 0 0 4 3198652400296 1 0
39.420887 5.0510974 -1.1566396 8 3198652402600 1 0
49.36021 11.314065 -0.8839295 8 3198652400296 1 0
0 0 0 1 3198652402600 1 0
8.267498 1.0581131 -1.666997 1 3198652404904 1 0
75.96978 13.523159 0 26 3198652404904 1 0
54.289555 4.25838 -0.63397336 7 3198652407208 1 0
10.238232 1.8209414 -1.6178277 6 3198652407208 1 0
12.504757 1.5967206 -1.6046166 5 3198652409512 1 0
52.89859 6.746752 -0.30993775 255 3198652411816 1 0
75.366486 17.22893 0.44933066 78 3198652409512 1 0
16.057209 1.2524508 -1.5034633 3 3198652414120 1 0
93.67553 16.618689 2.2138135 85 3198652414120 1 0
51.53655 4.012273 0.60179746 8 3198652416424 1 1
20.05759 3.5553465 -1.4244272 3 3198652416424 1 0
13.924401 2.4723744 -1.5233485 3 3198652411816 1 0
17.77342 2.258963 -1.4626077 4 3198652418728 1 0
69.74015 15.90005 2.0817187 29 3198652418728 1 0
105.31855 13.3701935 1.8530965 29 3198652421032 1 0
21.558178 4.911749 -1.4170432 3 3198652421032 1 0
23.035929 1.7833034 -1.3455695 5 3198652423336 1 0
92.667274 16.384214 5.480417 28 3198652423336 1 0
0 0 0 14 3198652425640 1 0
25.961172 3.2842622 -1.3714114 3 3198652427944 1 0
26.972656 4.7649064 -1.2758834 3 3198652425640 1 0
93.69321 16.537502 11.681908 28 3198652427944 1 0
110.17055 13.921033 9.065304 28 3198652430248 1 0
29.818537 6.7755175 -1.2458056 4 3198652430248 1 0
33.472893 2.571681 -1.1723439 5 3198652432552 1 0
0 0 0 9 3198652432552 1 0
0 0 0 29 3198652434856 1 0
41.415653 7.2915177 -0.9785407 6 3198652434856 1 0
0 0 0 4 3198652455592 1 0
48.11585 10.8522 -0.8609621 8 3198652455592 1 0
39.41047 4.9102883 -1.1558251 8 3198652457896 1 0
0 0 0 1 3198652457896 1 0
8.275018 1.0298524 -1.6677815 1 3198652460200 1 0
93.94563 16.386282 0 28 3198652460200 1 0
0 0 0 28 3198652462504 1 0
10.236699 1.7840586 -1.6165979 7 3198652462504 1 0
12.506271 1.5529361 -1.6041116 4 3198652464808 1 0
75.41787 16.966185 0.44928417 78 3198652464808 1 0
57.299957 7.107044 -0.3355799 247 3198652467112 1 1
13.917186 2.4215338 -1.5216348 3 3198652467112 1 0
16.069374 1.197686 -1.5042068 3 3198652469416 1 0
93.85046 16.316238 2.216605 57 3198652469416 1 0
0 0 0 21 3198652471720 1 0
20.073631 3.4870155 -1.4247062 3 3198652471720 1 0
17.777111 2.197454 -1.4622823 4 3198652474024 1 0
69.80992 15.664077 2.082184 29 3198652474024 1 0
105.30022 13.001536 1.8519796 29 3198652476328 1 0
21.559296 4.834385 -1.4160199 3 3198652476328 1 0
23.021978 1.7030848 -1.3444067 5 3198652478632 1 0
0 0 0 3 3198652478632 1 0
0 0 0 14 3198652480936 1 0
25.968235 3.1953995 -1.3712021 3 3198652483240 1 0
26.97694 4.6708393 -1.2753251 3 3198652480936 1 0
93.623764 16.196875 11.666308 28 3198652483240 1 0
110.18949 13.543397 9.063025 28 3198652485544 1 0
29.798471 6.6646156 -1.2440145 4 3198652485544 1 0
33.42959 2.4544265 -1.1705291 5 3198652487848 1 0
0 0 0 9 3198652487848 1 0
0 0 0 29 3198652490152 1 0
41.404606 7.1453056 -0.9777033 6 3198652490152 1 0
0 0 0 4 3198652510888 1 0
39.652817 4.8067107 -1.1624577 8 3198652513192 1 0
0 0 0 1 3198652513192 1 0
48.050056 10.67004 -0.8591471 8 3198652510888 1 0
8.266721 1.0008711 -1.665428 1 3198652515496 1 0
93.87352 16.051716 0 28 3198652515496 1 0
0 0 0 28 3198652517800 1 0
10.230908 1.7478824 -1.6147531 6 3198652517800 1 0
12.495639 1.5091882 -1.6020912 3 3198652520104 1 0
75.3219 16.680073 0.44837752 78 3198652520104 1 0
58.82455 7.0959835 -0.3443675 255 3198652522408 1 1
13.913465 2.3728573 -1.5203497 3 3198652522408 1 0
16.057417 1.1425594 -1.5027196 3 3198652524712 1 0
93.79042 15.981352 2.2139065 57 3198652524712 1 0
0 0 0 21 3198652527016 1 0
17.792341 2.1384075 -1.4629332 4 3198652529320 1 0
69.81553 15.418082 2.0807877 29 3198652529320 1 0
20.085258 3.4194074 -1.4247062 3 3198652527016 1 0
128.43427 15.417175 2.2579226 29 3198652531624 1 0
