# .PCD v.7 - Point Cloud Data file format
VERSION .7
FIELDS x y z rgb timestamp_ns device_id active
SIZE 4 4 4 4 8 1 1
TYPE F F F F F U U
COUNT 1 1 1 1 1 1 1
WIDTH 1048
HEIGHT 1
VIEWPOINT 0 0 0 1 0 0 0
POINTS 1048               
DATA ascii
17.658936 7.688099 -1.5722871 5 3203547885096 1 0
0 0 0 3 3203547885096 1 0
81.21658 35.34558 1.5460738 29 3203547887400 1 0
21.973463 12.239693 -1.6119858 7 3203547887400 1 0
23.311258 8.813627 -1.4513825 6 3203547889704 1 0
168.1241 83.13166 10.922694 28 3203547889704 1 0
80.9698 35.21157 3.597221 29 3203547892008 1 0
27.81759 13.750072 -1.4454428 4 3203547892008 1 0
26.43475 11.491413 -1.510625 4 3203547894312 1 0
0 0 0 1 3203547894312 1 0
41.40183 17.99093 3.6851597 27 3203547896616 1 0
33.539726 18.65807 -1.5636481 6 3203547896616 1 0
33.809692 12.761572 -1.2619658 6 3203547898920 1 0
0 0 0 9 3203547898920 1 0
0 0 0 29 3203547901224 1 0
39.928593 19.709017 -1.0361403 7 3203547901224 1 0
0 0 0 4 3203547921960 1 0
78.78424 43.670815 -1.5723222 29 3203547921960 1 0
64.2894 27.809406 -2.0385482 24 3203547924264 1 0
0 0 0 1 3203547924264 1 0
7.934801 3.430955 -1.72897 1 3203547926568 1 0
40.59778 19.961916 0 7 3203547926568 1 0
46.762543 17.5536 -0.5814954 19 3203547928872 1 0
9.814917 4.824219 -1.7014555 4 3203547928872 1 0
12.224405 5.2815313 -1.6950246 3 3203547931176 1 0
79.10727 43.78973 0.52551323 36 3203547931176 1 0
80.61752 34.816734 -0.510379 28 3203547933480 1 0
13.489773 6.6256104 -1.618879 3 3203547933480 1 0
15.991033 5.994713 -1.5941767 3 3203547935784 1 0
159.21318 78.1701 4.127253 100 3203547935784 1 0
43.20711 16.1903 0.5371661 21 3203547938088 1 0
20.242348 9.934884 -1.5767753 4 3203547938088 1 0
17.655493 7.6158357 -1.5696834 5 3203547940392 1 0
79.24404 43.805233 2.6351368 36 3203547940392 1 0
80.42485 34.67802 1.528761 29 3203547942696 1 0
21.965813 12.138288 -1.6084042 7 3203547942696 1 0
23.322292 8.727581 -1.4502198 6 3203547945000 1 0
158.91397 77.90848 10.307118 28 3203547945000 1 0
80.765915 34.797222 3.582892 29 3203547947304 1 0
27.813894 13.630903 -1.4428371 4 3203547947304 1 0
26.422342 11.379258 -1.5076942 4 3203547949608 1 0
0 0 0 1 3203547949608 1 0
41.455624 17.846464 3.6845088 26 3203547951912 1 0
33.4457 18.456673 -1.5563208 6 3203547951912 1 0
0 0 0 9 3203547954216 1 0
0 0 0 29 3203547956520 1 0
33.86435 12.650134 -1.2623847 6 3203547954216 1 0
39.748028 19.450855 -1.0297196 15 3203547956520 1 0
0 0 0 4 3203547977256 1 0
78.87662 43.36279 -1.5711354 29 3203547977256 1 0
0 0 0 9 3203547979560 1 0
0 0 0 1 3203547979560 1 0
7.9395175 3.4001482 -1.7274011 1 3203547981864 1 0
40.26809 19.62556 0 7 3203547981864 1 0
45.110016 16.753862 -0.5602155 18 3203547984168 1 0
9.828143 4.7881985 -1.7008405 3 3203547984168 1 0
12.235471 5.235706 -1.6940145 3 3203547986472 1 0
0 0 0 1 3203547986472 1 0
79.05053 33.813076 -0.49970832 28 3203547988776 1 0
13.505667 6.5750003 -1.6180222 4 3203547988776 1 0
16.01186 5.938857 -1.5941767 3 3203547991080 1 0
159.0428 77.39863 4.115808 28 3203547991080 1 0
43.469627 16.11585 0.53972715 21 3203547993384 1 0
20.241022 9.846709 -1.5739851 4 3203547993384 1 0
17.663637 7.546329 -1.5680561 5 3203547995688 1 0
0 0 0 3 3203547995688 1 0
85.86386 36.668327 1.6297057 29 3203547997992 1 0
21.88903 11.99631 -1.5997059 7 3203547997992 1 0
23.337637 8.640573 -1.4492896 6 3203548000296 1 0
159.18495 77.35329 10.307118 28 3203548000296 1 0
81.65517 34.84292 3.6169233 29 3203548002600 1 0
27.742702 13.476119 -1.436695 9 3203548002600 1 0
26.443531 11.279122 -1.5066475 4 3203548004904 1 0
0 0 0 1 3203548004904 1 0
41.503 17.695395 3.683207 26 3203548007208 1 0
33.934547 12.54155 -1.2633618 6 3203548009512 1 0
33.341637 18.247711 -1.548505 6 3203548007208 1 0
0 0 0 9 3203548009512 1 0
0 0 0 29 3203548011816 1 0
39.81208 19.310246 -1.0296266 22 3203548011816 1 0
0 0 0 4 3203548032552 1 0
0 0 0 7 3203548032552 1 0
0 0 0 9 3203548034856 1 0
0 0 0 1 3203548034856 1 0
7.954949 3.373945 -1.7281855 1 3203548037160 1 0
40.170666 19.404846 0 7 3203548037160 1 0
42.780476 15.718961 -0.53060055 16 3203548039464 1 0
9.841238 4.752144 -1.7002256 3 3203548039464 1 0
0 0 0 1 3203548041768 1 0
12.2390585 5.186771 -1.6919942 3 3203548041768 1 0
64.41729 27.28825 -0.4066015 19 3203548044072 1 0
13.514209 6.5209036 -1.6163087 4 3203548044072 1 0
16.00632 5.8733253 -1.5915742 2 3203548046376 1 0
159.34082 76.85689 4.1165524 28 3203548046376 1 0
20.239328 9.758664 -1.5711948 4 3203548048680 1 0
17.675186 7.4784117 -1.5667543 5 3203548050984 1 0
42.7408 15.676165 0.52999526 21 3203548048680 1 0
0 0 0 3 3203548050984 1 0
85.932396 36.34346 1.6285888 29 3203548053288 1 0
21.902714 11.90458 -1.5976593 7 3203548053288 1 0
23.363905 8.557682 -1.449057 6 3203548055592 1 0
0 0 0 3 3203548055592 1 0
80.59823 34.05984 3.564818 29 3203548057896 1 0
27.742771 13.356664 -1.4342754 4 3203548057896 1 0
26.453304 11.174314 -1.5049728 4 3203548060200 1 0
0 0 0 1 3203548060200 1 0
33.211937 18.026356 -1.5395494 6 3203548062504 1 0
41.56084 17.548864 3.6828816 26 3203548062504 1 0
33.76411 12.344775 -1.2554047 6 3203548064808 1 0
0 0 0 9 3203548064808 1 0
0 0 0 29 3203548067112 1 0
39.940514 19.200613 -1.0312085 7 3203548067112 1 0
0 0 0 4 3203548087296 1 0
0 0 0 7 3203548087296 1 0
67.29724 28.278214 -2.1244235 25 3203548089600 1 0
0 0 0 1 3203548089600 1 0
7.9557805 3.3417153 -1.7258321 1 3203548091904 1 0
0 0 0 38 3203548091904 1 0
0 0 0 10 3203548094208 1 0
9.850533 4.714565 -1.6989958 3 3203548094208 1 0
12.253281 5.142838 -1.6914891 3 3203548096512 1 0
0 0 0 1 3203548096512 1 0
64.55912 27.085688 -0.4069037 19 3203548098816 1 0
13.518714 6.465603 -1.6141667 3 3203548098816 1 0
16.033958 5.8208346 -1.5923178 3 3203548101120 1 0
84.86232 40.572742 2.1887822 28 3203548101120 1 0
0 0 0 7 3203548103424 1 0
20.240374 9.673503 -1.5686836 4 3203548103424 1 0
17.675013 7.406912 -1.5644761 5 3203548105728 1 0
0 0 0 3 3203548105728 1 0
86.35517 36.174072 1.6342434 29 3203548108032 1 0
21.908222 11.810547 -1.595101 7 3203548108032 1 0
23.284143 8.438319 -1.4423128 6 3203548110336 1 0
82.73795 34.631954 3.654211 29 3203548112640 1 0
27.679983 13.210336 -1.4286916 4 3203548112640 1 0
131.45244 62.75828 8.483181 28 3203548110336 1 0
26.399057 11.045672 -1.4997392 4 3203548114944 1 0
0 0 0 1 3203548114944 1 0
41.605488 17.401464 3.6815796 26 3203548117248 1 0
33.13572 17.839571 -1.5331991 6 3203548117248 1 0
33.723053 12.200363 -1.2523335 6 3203548119552 1 0
0 0 0 9 3203548119552 1 0
0 0 0 29 3203548121856 1 0
46.416447 22.120867 -1.1964698 30 3203548121856 1 0
0 0 0 4 3203548142592 1 0
42.86311 22.99263 -0.84902465 8 3203548142592 1 0
0 0 0 9 3203548144896 1 0
0 0 0 1 3203548144896 1 0
7.9704876 3.3167057 -1.7266166 1 3203548147200 1 0
0 0 0 3 3203548147200 1 0
42.683243 15.354292 -0.5280861 44 3203548149504 1 0
12.259424 5.0972495 -1.689974 3 3203548151808 1 0
9.851932 4.6748805 -1.6965362 2 3203548149504 1 0
0 0 0 1 3203548151808 1 0
64.64217 26.866032 -0.4068572 19 3203548154112 1 0
13.53672 6.4185414 -1.6137383 4 3203548154112 1 0
16.004698 5.749428 -1.5874847 3 3203548156416 1 0
0 0 0 1 3203548156416 1 0
42.69217 15.329457 0.5280861 63 3203548158720 1 0
20.215134 9.577962 -1.5642191 4 3203548158720 1 0
17.692541 7.344172 -1.5638251 5 3203548161024 1 0
0 0 0 3 3203548161024 1 0
86.2923 35.805214 1.6307528 29 3203548163328 1 0
21.835392 11.67616 -1.5869144 7 3203548163328 1 0
23.297571 8.353973 -1.4413826 6 3203548165632 1 0
84.13915 39.820316 5.421115 28 3203548165632 1 0
82.22376 34.089024 3.6263673 29 3203548167936 1 0
26.410666 10.945057 -1.4982737 4 3203548170240 1 0
0 0 0 1 3203548170240 1 0
27.645227 13.078663 -1.4245969 9 3203548167936 1 0
41.653545 17.254883 3.6806033 26 3203548172544 1 0
33.020096 17.632322 -1.5250576 6 3203548172544 1 0
33.65164 12.044615 -1.2481456 6 3203548174848 1 0
0 0 0 9 3203548174848 1 0
61.531654 25.468374 12.141837 29 3203548177152 1 0
0 0 0 4 3203548197888 1 0
46.51725 21.973707 -1.1971211 20 3203548177152 1 0
67.063255 27.643763 -2.1110418 25 3203548200192 1 0
0 0 0 24 3203548197888 1 0
7.97839 3.287369 -1.7258321 2 3203548202496 1 0
0 0 0 1 3203548200192 1 0
42.75542 15.211909 -0.52831894 44 3203548204800 1 0
116.70736 54.90173 0 28 3203548202496 1 0
9.85746 4.6354165 -1.6946914 2 3203548204800 1 0
12.273474 5.052914 -1.6894689 3 3203548207104 1 0
0 0 0 17 3203548207104 1 0
69.01526 28.401424 -0.43375474 23 3203548209408 1 0
13.541046 6.3627934 -1.6115963 3 3203548209408 1 0
16.017164 5.690859 -1.5867411 3 3203548211712 1 0
81.86623 38.453537 2.104663 28 3203548211712 1 0
42.752956 15.183018 0.5281792 42 3203548214016 1 0
20.208714 9.488685 -1.5611498 4 3203548214016 1 0
17.69963 7.274791 -1.5621979 5 3203548216320 1 0
0 0 0 3 3203548216320 1 0
69.044624 28.366547 1.3029269 25 3203548218624 1 0
21.854856 11.588649 -1.5853795 4 3203548218624 1 0
23.300245 8.263256 -1.4397547 6 3203548220928 1 0
83.39549 39.112644 5.3643713 28 3203548220928 1 0
68.96917 28.312101 3.0374146 29 3203548223232 1 0
27.647297 12.96173 -1.4223634 9 3203548223232 1 0
26.419147 10.840669 -1.496599 4 3203548225536 1 0
0 0 0 1 3203548225536 1 0
41.702457 17.104841 3.679627 26 3203548227840 1 0
32.89424 17.41783 -1.5164276 6 3203548227840 1 0
33.636955 11.907066 -1.2460517 6 3203548230144 1 0
0 0 0 9 3203548230144 1 0
0 0 0 1 3203548232448 1 0
61.784035 25.320585 12.174124 29 3203548232448 1 0
0 0 0 4 3203548253184 1 0
64.99745 26.527174 -2.0430863 24 3203548255488 1 0
40.41901 21.319544 -0.7976448 39 3203548253184 1 0
0 0 0 1 3203548255488 1 0
7.9898167 3.2594993 -1.7258321 2 3203548257792 1 0
42.838444 15.073194 -0.5286914 33 3203548260096 1 0
9.862832 4.595971 -1.6928467 3 3203548260096 1 0
109.190636 50.900963 0 28 3203548257792 1 0
12.280013 5.005548 -1.6879536 3 3203548262400 1 0
40.344868 21.250443 0.26502326 26 3203548262400 1 0
69.05471 28.136194 -0.43338278 23 3203548264704 1 0
13.555963 6.3121305 -1.6107396 3 3203548264704 1 0
16.021902 5.629633 -1.5852541 3 3203548267008 1 0
42.847206 15.048268 0.5286914 42 3203548269312 1 0
20.191063 9.394519 -1.5572435 4 3203548269312 1 0
82.02533 38.179348 2.1053143 28 3203548267008 1 0
17.70276 7.203947 -1.5602452 5 3203548271616 1 0
0 0 0 3 3203548271616 1 0
69.13581 28.122349 1.3027872 75 3203548273920 1 0
21.85631 11.491856 -1.5825653 4 3203548273920 1 0
23.328947 8.181872 -1.4397547 6 3203548276224 1 0
82.47049 38.32819 5.296232 28 3203548276224 1 0
0 0 0 14 3203548278528 1 0
27.572792 12.809589 -1.4162213 4 3203548278528 1 0
26.438322 10.740865 -1.4955523 4 3203548280832 1 0
0 0 0 1 3203548280832 1 0
41.750828 16.954668 3.6786506 40 3203548283136 1 0
32.746063 17.193283 -1.5068207 6 3203548283136 1 0
33.59908 11.761842 -1.2431201 6 3203548285440 1 0
0 0 0 9 3203548285440 1 0
55.78621 22.63542 10.976657 29 3203548287744 1 0
0 0 0 1 3203548287744 1 0
0 0 0 4 3203548308480 1 0
0 0 0 51 3203548308480 1 0
53.801464 21.739023 -1.6887637 19 3203548310784 1 0
0 0 0 1 3203548310784 1 0
8.001145 3.2315898 -1.7258321 2 3203548313088 1 0
105.88159 48.909214 0 28 3203548313088 1 0
0 0 0 100 3203548315392 1 0
9.871638 4.558202 -1.6916169 2 3203548315392 1 0
12.282693 4.9567122 -1.6859334 3 3203548317696 1 0
39.461514 20.609522 0.2587464 8 3203548317696 1 0
68.796394 27.751328 -0.431151 23 3203548320000 1 0
13.570691 6.2614403 -1.6098828 4 3203548320000 1 0
16.030169 5.5697503 -1.5841388 2 3203548322304 1 0
82.33604 37.974857 2.1098738 28 3203548322304 1 0
0 0 0 250 3203548324608 1 0
20.147635 9.2888975 -1.551384 4 3203548324608 1 0
17.713009 7.13615 -1.5589433 5 3203548326912 1 0
0 0 0 3 3203548326912 1 0
68.847725 27.725473 1.295527 24 3203548329216 1 0
21.79718 11.363823 -1.5754021 4 3203548329216 1 0
23.330956 8.09123 -1.4381268 6 3203548331520 1 0
62.88785 25.304132 2.7617447 29 3203548333824 1 0
85.2697 39.267773 5.467161 28 3203548331520 1 0
27.566525 12.689873 -1.4136156 9 3203548333824 1 0
26.371887 10.606777 -1.4896907 4 3203548336128 1 0
0 0 0 1 3203548336128 1 0
41.80236 16.805853 3.6779997 26 3203548338432 1 0
32.639263 16.992132 -1.4991677 6 3203548338432 1 0
33.5606 11.617027 -1.2401885 6 3203548340736 1 0
0 0 0 9 3203548340736 1 0
49.11684 19.729908 9.650763 34 3203548343040 1 0
0 0 0 1 3203548343040 1 0
0 0 0 4 3203548363776 1 0
39.19286 20.324327 -0.77062845 42 3203548363776 1 0
62.734818 25.093725 -1.9664037 23 3203548366080 1 0
0 0 0 1 3203548366080 1 0
8.008781 3.202068 -1.7250477 2 3203548368384 1 0
102.44431 46.886448 0 28 3203548368384 1 0
9.8804 4.520211 -1.690387 2 3203548370688 1 0
42.95052 14.775425 -0.5287846 27 3203548370688 1 0
12.277954 4.904618 -1.6829029 3 3203548372992 1 0
39.53026 20.46866 0.25872314 8 3203548372992 1 0
63.774914 25.464579 -0.39911574 18 3203548375296 1 0
13.5818405 6.208577 -1.6085976 3 3203548375296 1 0
16.038454 5.5091786 -1.5830234 2 3203548377600 1 0
83.72457 38.257004 2.1419768 28 3203548377600 1 0
42.1008 14.454357 0.51821446 223 3203548379904 1 0
20.162258 9.209196 -1.5499889 6 3203548379904 1 0
17.72341 7.067338 -1.5576415 5 3203548382208 1 0
0 0 0 3 3203548382208 1 0
62.994205 25.108246 1.183692 20 3203548384512 1 0
21.80199 11.26791 -1.5728438 7 3203548384512 1 0
23.352085 8.005452 -1.4376618 6 3203548386816 1 0
82.531715 37.65102 5.2829766 28 3203548386816 1 0
55.948914 22.280333 2.453509 29 3203548389120 1 0
27.509865 12.544942 -1.408404 4 3203548389120 1 0
26.35771 10.491671 -1.4867599 4 3203548391424 1 0
0 0 0 1 3203548391424 1 0
41.847527 16.64998 3.6766977 40 3203548393728 1 0
32.547253 16.796192 -1.492166 6 3203548393728 1 0
33.564293 11.483446 -1.2387925 6 3203548396032 1 0
0 0 0 9 3203548396032 1 0
49.150974 19.538437 9.643587 34 3203548398336 1 0
0 0 0 1 3203548398336 1 0
0 0 0 4 3203548419072 1 0
0 0 0 29 3203548419072 1 0
49.553837 19.611416 -1.5509909 42 3203548421376 1 0
0 0 0 1 3203548421376 1 0
8.01677 3.171367 -1.7242632 1 3203548423680 1 0
86.82146 39.35351 0 28 3203548423680 1 0
43.023 14.625279 -0.5290174 16 3203548425984 1 0
9.893203 4.482552 -1.6897721 3 3203548425984 1 0
39.52257 20.282785 0.25818846 8 3203548428288 1 0
12.288325 4.8570247 -1.6818928 3 3203548428288 1 0
0 0 0 100 3203548430592 1 0
13.593411 6.1543293 -1.6073126 3 3203548430592 1 0
16.050758 5.4484982 -1.5822798 2 3203548432896 1 0
80.76586 36.552067 2.0628822 28 3203548432896 1 0
42.156555 14.303384 0.518261 117 3203548435200 1 0
20.177233 9.12804 -1.5485938 6 3203548435200 1 0
17.730244 6.996047 -1.5560142 5 3203548437504 1 0
0 0 0 3 3203548437504 1 0
21.799778 11.167516 -1.5697738 4 3203548439808 1 0
49.902576 19.682304 0.9363565 11 3203548439808 1 0
84.39132 38.133698 5.393208 28 3203548442112 1 0
23.380693 7.9215093 -1.4376618 6 3203548442112 1 0
55.92432 22.038572 2.44895 29 3203548444416 1 0
27.503685 12.423205 -1.4057983 4 3203548444416 1 0
0 0 0 1 3203548446720 1 0
41.91042 16.501913 3.6770232 40 3203548449024 1 0
26.376495 10.389978 -1.4857131 4 3203548446720 1 0
32.439785 16.594324 -1.4845132 6 3203548449024 1 0
33.506542 11.330477 -1.235163 6 3203548451328 1 0
49.179863 19.34768 9.635695 33 3203548453632 1 0
0 0 0 9 3203548451328 1 0
0 0 0 4 3203548474368 1 0
39.340855 20.045168 -0.77069825 15 3203548474368 1 0
55.258244 21.646662 -1.7271632 20 3203548476672 1 0
74.68217 33.68107 -1.9063678 29 3203548453632 1 0
8.016789 3.13919 -1.7219098 1 3203548478976 1 0
102.67734 46.110924 0 28 3203548478976 1 0
0 0 0 1 3203548476672 1 0
0 0 0 90 3203548481280 1 0
9.908692 4.448207 -1.6897721 2 3203548481280 1 0
12.30137 4.8130126 -1.6813877 3 3203548483584 1 0
39.6888 20.194832 0.25881615 8 3203548483584 1 0
13.607332 6.1040816 -1.6064557 3 3203548485888 1 0
0 0 0 19 3203548485888 1 0
16.061892 5.390604 -1.5815363 2 3203548488192 1 0
80.898674 36.276722 2.0630684 28 3203548488192 1 0
42.061405 14.109952 0.5164916 141 3203548490496 1 0
20.190306 9.050421 -1.5471985 4 3203548490496 1 0
17.739298 6.9293447 -1.5547123 5 3203548492800 1 0
0 0 0 3 3203548492800 1 0
43.12974 16.840519 0.80818605 17 3203548495104 1 0
21.834343 11.090974 -1.569518 4 3203548495104 1 0
23.286467 7.800959 -1.4302199 6 3203548497408 1 0
82.953995 37.143322 5.293209 28 3203548497408 1 0
54.271526 21.17368 2.3733974 25 3203548499712 1 0
27.509426 12.313004 -1.4039371 4 3203548499712 1 0
26.37821 10.2870865 -1.483829 4 3203548502016 1 0
0 0 0 1 3203548502016 1 0
41.951363 16.353693 3.6757214 26 3203548504320 1 0
33.46513 11.190241 -1.2322314 6 3203548506624 1 0
0 0 0 9 3203548506624 1 0
49.12767 19.135561 9.612736 33 3203548508928 1 0
32.431797 16.451513 -1.4815822 6 3203548504320 1 0
75.20818 33.612713 -1.9168828 29 3203548508928 1 0
39.39997 19.91099 -0.77055866 15 3203548529664 1 0
0 0 0 4 3203548529664 1 0
53.603966 20.793402 -1.6732875 18 3203548531968 1 0
8.019886 3.1096354 -1.7203408 2 3203548534272 1 0
0 0 0 1 3203548531968 1 0
94.83824 42.211483 0 28 3203548534272 1 0
0 0 0 5 3203548536576 1 0
9.912652 4.410288 -1.6879274 2 3203548536576 1 0
12.310001 4.7689686 -1.6803775 2 3203548538880 1 0
40.58461 20.48002 0.2642096 8 3203548538880 1 0
52.518837 20.337328 -0.32732698 10 3203548541184 1 0
13.616817 6.053582 -1.6051706 3 3203548541184 1 0
16.072353 5.3341007 -1.5807927 2 3203548543488 1 0
82.28084 36.564983 2.0951715 28 3203548543488 1 0
42.12766 13.974547 0.5167244 220 3203548545792 1 0
20.198784 8.972669 -1.5455245 6 3203548545792 1 0
17.743988 6.8622575 -1.5530851 5 3203548548096 1 0
0 0 0 3 3203548548096 1 0
0 0 0 14 3203548550400 1 0
21.75764 10.959611 -1.5613315 4 3203548550400 1 0
23.293816 7.715722 -1.4290571 6 3203548552704 1 0
83.4663 37.033657 5.31786 28 3203548552704 1 0
52.50136 20.277893 2.2929597 44 3203548555008 1 0
27.44516 12.172528 -1.3985394 4 3203548555008 1 0
26.30873 10.156969 -1.4779674 4 3203548557312 1 0
0 0 0 1 3203548557312 1 0
41.999454 16.207645 3.6750705 26 3203548559616 1 0
32.305626 16.249214 -1.4732779 6 3203548559616 1 0
33.457638 11.060737 -1.2305562 6 3203548561920 1 0
0 0 0 9 3203548561920 1 0
49.148865 18.950188 9.604126 49 3203548564224 1 0
0 0 0 1 3203548564224 1 0
0 0 0 4 3203548584960 1 0
39.469234 19.773336 -0.77055866 15 3203548584960 1 0
52.030098 19.97422 -1.6219718 16 3203548587264 1 0
0 0 0 1 3203548587264 1 0
8.02703 3.0802166 -1.7195565 1 3203548589568 1 0
94.6556 41.73494 0 28 3203548589568 1 0
0 0 0 99 3203548591872 1 0
9.920753 4.3724713 -1.6866976 3 3203548591872 1 0
12.296933 4.7146053 -1.6763369 3 3203548594176 1 0
0 0 0 1 3203548594176 1 0
51.144043 19.599934 -0.31833014 10 3203548596480 1 0
13.630586 6.002808 -1.6043137 3 3203548596480 1 0
83.7219 36.85596 2.1285772 28 3203548598784 1 0
16.079521 5.2742414 -1.5796773 3 3203548598784 1 0
42.233192 13.8461 0.51742285 221 3203548601088 1 0
20.22633 8.9005 -1.5452454 6 3203548601088 1 0
17.749216 6.7931523 -1.5514578 5 3203548603392 1 0
175.74246 87.78798 5.717221 44 3203548603392 1 0
21.76005 10.865763 -1.5587732 4 3203548605696 1 0
23.297836 7.62691 -1.4276618 6 3203548608000 1 0
83.86924 36.86259 5.335302 28 3203548608000 1 0
49.760677 19.02 2.1703494 16 3203548610304 1 0
27.43261 12.052545 -1.3957475 4 3203548610304 1 0
43.307957 16.56802 0.8093728 26 3203548605696 1 0
0 0 0 1 3203548612608 1 0
42.05205 16.059519 3.674745 26 3203548614912 1 0
26.299246 10.047965 -1.4754553 4 3203548612608 1 0
32.158276 16.034693 -1.4639966 6 3203548614912 1 0
0 0 0 9 3203548617216 1 0
49.20001 18.7729 9.601256 33 3203548619520 1 0
0 0 0 1 3203548619520 1 0
33.385845 10.907877 -1.2265079 6 3203548617216 1 0
0 0 0 8 3203548640256 1 0
39.534435 19.633665 -0.77048886 7 3203548640256 1 0
48.3394 18.364025 -1.5049115 12 3203548642560 1 0
0 0 0 1 3203548642560 1 0
8.0414 3.0535707 -1.7203408 2 3203548644864 1 0
85.23706 37.22735 0 57 3203548644864 1 0
0 0 0 6 3203548647168 1 0
9.935955 4.337815 -1.6866976 4 3203548647168 1 0
12.309606 4.670245 -1.6758319 3 3203548649472 1 0
0 0 0 1 3203548649472 1 0
48.21265 18.283783 -0.2996855 28 3203548651776 1 0
13.629585 5.9456506 -1.6017435 3 3203548651776 1 0
16.059948 5.2058005 -1.5759597 2 3203548654080 1 0
82.38015 35.922535 2.0912633 28 3203548654080 1 0
42.319317 13.710922 0.5178885 201 3203548656384 1 0
17.765364 6.7283306 -1.5508069 5 3203548658688 1 0
20.12925 8.774038 -1.5354795 6 3203548656384 1 0
158.79167 78.62922 5.156821 50 3203548658688 1 0
43.21965 16.361523 0.8066502 25 3203548660992 1 0
21.783537 10.782657 -1.5577499 6 3203548660992 1 0
23.31292 7.5418515 -1.4269642 6 3203548663296 1 0
81.83724 35.629147 5.1980934 28 3203548663296 1 0
44.387653 16.788929 1.9334329 20 3203548665600 1 0
27.379255 11.915257 -1.3909084 4 3203548665600 1 0
26.308004 9.946214 -1.4739898 4 3203548667904 1 0
0 0 0 1 3203548667904 1 0
42.104122 15.911222 3.6744196 26 3203548670208 1 0
32.04207 15.8373375 -1.4561808 6 3203548670208 1 0
33.385674 10.77899 -1.225112 6 3203548672512 1 0
0 0 0 9 3203548672512 1 0
49.228424 18.587145 9.594082 32 3203548674816 1 0
66.61947 28.946232 -1.6902068 22 3203548674816 1 0
0 0 0 8 3203548695552 1 0
39.627846 19.507908 -0.7709775 15 3203548695552 1 0
46.19881 17.366526 -1.4363742 10 3203548697856 1 0
0 0 0 1 3203548697856 1 0
82.87742 35.85281 0 28 3203548700160 1 0
8.052011 3.0254824 -1.7203408 2 3203548700160 1 0
9.943781 4.299968 -1.6854677 3 3203548702464 1 0
41.26215 13.235912 -0.504478 20 3203548702464 1 0
12.314688 4.623064 -1.6743166 2 3203548704768 1 0
0 0 0 1 3203548704768 1 0
48.040245 18.026846 -0.2982209 28 3203548707072 1 0
13.650256 5.8980384 -1.6017435 3 3203548707072 1 0
16.055264 5.1424203 -1.5737289 2 3203548709376 1 0
82.48669 35.626827 2.090798 28 3203548709376 1 0
0 0 0 86 3203548711680 1 0
20.137774 8.694231 -1.5338054 6 3203548711680 1 0
0 0 0 6 3203548713984 1 0
17.781277 6.663479 -1.550156 5 3203548713984 1 0
42.639805 15.972065 0.7947826 25 3203548716288 1 0
21.702782 10.648527 -1.5493075 6 3203548716288 1 0
23.331495 7.457997 -1.426499 6 3203548718592 1 0
49.69012 18.596498 2.1615565 32 3203548720896 1 0
82.40847 35.53617 5.226465 28 3203548718592 1 0
27.354633 11.791144 -1.3875581 4 3203548720896 1 0
26.346304 9.8557205 -1.4741992 4 3203548723200 1 0
0 0 0 1 3203548723200 1 0
42.133266 15.75438 3.6721413 13 3203548725504 1 0
31.93565 15.646265 -1.4488535 5 3203548725504 1 0
33.274567 10.615004 -1.2196676 5 3203548727808 1 0
0 0 0 9 3203548727808 1 0
49.186104 18.375256 9.573275 32 3203548730112 1 0
64.49414 27.75555 -1.6338168 20 3203548730112 1 0
0 0 0 8 3203548751296 1 0
0 0 0 75 3203548751296 1 0
44.606503 16.590487 -1.3850585 20 3203548753600 1 0
0 0 0 1 3203548753600 1 0
8.062522 2.9973571 -1.7203408 2 3203548755904 1 0
79.22607 33.945423 0 57 3203548755904 1 0
41.231846 13.067632 -0.5035467 70 3203548758208 1 0
9.955096 4.263675 -1.6848528 2 3203548758208 1 0
12.327031 4.578668 -1.6738116 3 3203548760512 1 0
39.877747 19.429577 0.2578165 8 3203548760512 1 0
47.049175 17.467838 -0.29168832 19 3203548762816 1 0
13.65248 5.8425307 -1.5996015 3 3203548762816 1 0
16.057928 5.081539 -1.5722419 2 3203548765120 1 0
81.735504 34.964355 2.0686514 28 3203548765120 1 0
20.156992 8.619178 -1.5329683 6 3203548767424 1 0
0 0 0 64 3203548767424 1 0
17.782 6.5930543 -1.5482032 5 3203548769728 1 0
159.00597 77.35781 5.1461153 44 3203548769728 1 0
21.70751 10.556993 -1.5470049 6 3203548772032 1 0
42.7328 15.837026 0.79548067 25 3203548772032 1 0
83.148964 35.511787 5.265535 28 3203548774336 1 0
23.33454 7.3692937 -1.4251037 6 3203548774336 1 0
42.862152 15.870786 1.8621138 19 3203548776640 1 0
27.358877 11.679898 -1.3856969 4 3203548776640 1 0
26.268162 9.7221 -1.4679189 4 3203548778944 1 0
0 0 0 1 3203548778944 1 0
42.670345 15.785651 3.7141254 27 3203548781248 1 0
31.824692 15.454384 -1.4413633 5 3203548781248 1 0
33.28092 10.489176 -1.2185508 5 3203548783552 1 0
0 0 0 9 3203548783552 1 0
64.9585 27.68705 -1.6431221 21 3203548785856 1 0
49.213036 18.18981 9.5661 32 3203548785856 1 0
0 0 0 8 3203548806592 1 0
42.735435 15.724991 -1.3252484 28 3203548808896 1 0
39.824276 19.260384 -0.7721643 21 3203548806592 1 0
8.050848 2.961072 -1.7156341 2 3203548811200 1 0
79.30725 33.65304 0 85 3203548811200 1 0
41.254307 12.916455 -0.5032673 45 3203548813504 1 0
0 0 0 1 3203548808896 1 0
9.9590025 4.2242694 -1.6830081 3 3203548813504 1 0
12.335489 4.5328736 -1.6728014 3 3203548815808 1 0
0 0 0 19 3203548815808 1 0
0 0 0 38 3203548818112 1 0
13.658144 5.7886314 -1.597888 3 3203548818112 1 0
16.067966 5.023079 -1.5714983 2 3203548820416 1 0
81.80918 34.658554 2.0674417 28 3203548820416 1 0
42.922516 13.411347 0.5235228 6 3203548822720 1 0
20.172258 8.542541 -1.5318521 6 3203548822720 1 0
17.778704 6.521333 -1.545925 5 3203548825024 1 0
84.84344 40.91145 2.741259 33 3203548825024 1 0
42.663906 15.642332 0.79317695 51 3203548827328 1 0
21.737038 10.477689 -1.5464933 4 3203548827328 1 0
23.352497 7.2854176 -1.4246386 6 3203548829632 1 0
83.36436 35.260216 5.271349 28 3203548829632 1 0
42.65084 15.623468 1.8505529 29 3203548831936 1 0
27.325876 11.553207 -1.3819743 4 3203548831936 1 0
26.256926 9.613867 -1.4654068 4 3203548834240 1 0
0 0 0 1 3203548834240 1 0
42.605385 15.592762 3.7037108 40 3203548836544 1 0
31.72719 15.270402 -1.4345245 5 3203548836544 1 0
33.187553 10.332536 -1.2138045 5 3203548838848 1 0
0 0 0 9 3203548838848 1 0
49.25036 18.008453 9.561078 32 3203548841152 1 0
65.12106 27.488127 -1.6447971 21 3203548841152 1 0
0 0 0 8 3203548861888 1 0
0 0 0 7 3203548861888 1 0
42.726196 15.552471 -1.3232702 28 3203548864192 1 0
0 0 0 1 3203548864192 1 0
8.061135 2.9329512 -1.7156341 1 3203548866496 1 0
79.28042 33.315567 0 57 3203548866496 1 0
42.483704 13.138716 -0.5177022 5 3203548868800 1 0
12.332591 4.483009 -1.670276 3 3203548871104 1 0
9.959111 4.1833572 -1.6805484 3 3203548868800 1 0
0 0 0 1 3203548871104 1 0
13.670933 5.737842 -1.5970312 3 3203548873408 1 0
42.643585 15.494309 -0.26369816 21 3203548873408 1 0
16.077791 4.9646106 -1.5707548 2 3203548875712 1 0
42.319355 13.060919 0.5156069 6 3203548878016 1 0
80.87503 33.930313 2.0408287 28 3203548875712 1 0
17.793865 6.4565144 -1.545274 5 3203548880320 1 0
131.74628 62.962105 4.249545 44 3203548880320 1 0
20.198275 8.4705305 -1.5315732 6 3203548878016 1 0
42.654335 15.47013 0.7919902 16 3203548882624 1 0
21.744663 10.387982 -1.5444467 4 3203548882624 1 0
23.29383 7.177987 -1.4195223 6 3203548884928 1 0
81.998924 34.34574 5.1773963 28 3203548884928 1 0
42.644997 15.452708 1.8479477 29 3203548887232 1 0
27.340239 11.44695 -1.3806715 4 3203548887232 1 0
26.264034 9.512632 -1.4639413 4 3203548889536 1 0
42.6708 15.448017 3.704687 27 3203548891840 1 0
0 0 0 1 3203548889536 1 0
31.636007 15.090732 -1.4280114 5 3203548891840 1 0
33.200493 10.209577 -1.2129669 5 3203548894144 1 0
49.209305 17.79895 9.540989 31 3203548896448 1 0
0 0 0 9 3203548894144 1 0
66.79944 27.922266 -1.6847166 22 3203548896448 1 0
46.420513 22.05201 -0.8970537 9 3203548917184 1 0
42.738617 15.388956 -1.3219903 28 3203548919488 1 0
0 0 0 8 3203548917184 1 0
0 0 0 1 3203548919488 1 0
8.060168 2.9010444 -1.7132807 1 3203548921792 1 0
79.45435 33.06552 0 28 3203548921792 1 0
0 0 0 15 3203548924096 1 0
12.347906 4.4406514 -1.670276 3 3203548926400 1 0
109.066864 51.742107 0.7016142 43 3203548926400 1 0
9.977121 4.1505213 -1.6811634 3 3203548924096 1 0
42.715115 15.355232 -0.2638144 68 3203548928704 1 0
13.68312 5.6880293 -1.5961744 3 3203548928704 1 0
80.98266 33.6518 2.0406427 28 3203548931008 1 0
16.083166 4.9063764 -1.5696394 2 3203548931008 1 0
43.31218 13.206739 0.5271548 21 3203548933312 1 0
20.11263 8.354582 -1.5229234 6 3203548933312 1 0
17.804293 6.392394 -1.5442977 5 3203548935616 1 0
81.39697 38.56311 2.6212897 36 3203548935616 1 0
42.70607 15.3267355 0.7919902 68 3203548937920 1 0
21.663998 10.260192 -1.5362601 4 3203548937920 1 0
23.29479 7.093045 -1.418127 6 3203548940224 1 0
81.5638 33.84322 5.142745 28 3203548940224 1 0
42.711277 15.315983 1.8485991 39 3203548942528 1 0
27.333923 11.337456 -1.378438 4 3203548942528 1 0
26.291674 9.424138 -1.463732 4 3203548944832 1 0
0 0 0 1 3203548944832 1 0
42.849174 15.352774 3.7157528 41 3203548947136 1 0
31.606174 14.9486065 -1.4244292 5 3203548947136 1 0
33.176502 10.082954 -1.2108729 5 3203548949440 1 0
0 0 0 9 3203548949440 1 0
65.57149 27.15725 -1.6514969 21 3203548951744 1 0
49.23765 17.627207 9.535249 47 3203548951744 1 0
0 0 0 8 3203548972480 1 0
94.84595 44.691788 -1.8301291 29 3203548972480 1 0
42.677868 15.214743 -1.3186157 19 3203548974784 1 0
0 0 0 1 3203548974784 1 0
69.16831 28.526777 0 24 3203548977088 1 0
0 0 0 56 3203548979392 1 0
8.076757 2.8779895 -1.7148496 1 3203548977088 1 0
9.975765 4.1124773 -1.6787038 4 3203548979392 1 0
12.347227 4.395436 -1.6682558 2 3203548981696 1 0
87.11885 40.985737 0.559571 31 3203548981696 1 0
13.694182 5.6404905 -1.5953176 3 3203548984000 1 0
42.77234 15.21898 -0.26386088 100 3203548984000 1 0
16.095324 4.8525686 -1.5692676 2 3203548986304 1 0
69.16331 28.475288 1.7404552 24 3203548986304 1 0
43.837986 13.209383 0.5330219 14 3203548988608 1 0
20.121593 8.280686 -1.5215282 6 3203548988608 1 0
17.814123 6.3293138 -1.5433214 4 3203548990912 1 0
87.11208 40.917576 2.800953 32 3203548990912 1 0
0 0 0 143 3203548993216 1 0
21.680058 10.179338 -1.5349809 4 3203548993216 1 0
23.307018 7.011289 -1.4174293 6 3203548995520 1 0
81.78046 33.611496 5.1492567 28 3203548995520 1 0
42.774124 15.175473 1.8490875 87 3203548997824 1 0
27.338842 11.231294 -1.3767629 4 3203548997824 1 0
26.221947 9.298556 -1.4580797 4 3203549000128 1 0
68.710594 28.215298 9.120214 28 3203549000128 1 0
42.9203 15.212575 3.71738 41 3203549002432 1 0
31.501583 14.767316 -1.4174275 5 3203549002432 1 0
33.096195 9.934057 -1.206685 5 3203549004736 1 0
0 0 0 9 3203549004736 1 0
49.257694 17.441856 9.527356 31 3203549007040 1 0
0 0 0 8 3203549027776 1 0
65.6764 26.934181 -1.651776 21 3203549007040 1 0
0 0 0 7 3203549027776 1 0
42.51818 14.983094 -1.3119831 19 3203549030080 1 0
0 0 0 1 3203549030080 1 0
8.079769 2.8459964 -1.7132807 1 3203549032384 1 0
69.09382 28.202526 0 48 3203549032384 1 0
0 0 0 105 3203549034688 1 0
9.990593 4.0763226 -1.6787038 3 3203549034688 1 0
12.351772 4.3469186 -1.6667405 3 3203549036992 1 0
82.79587 38.587822 0.5309067 35 3203549036992 1 0
42.947483 15.107698 -0.2646048 38 3203549039296 1 0
13.699627 5.585253 -1.5936041 3 3203549039296 1 0
16.097313 4.7904058 -1.5677805 2 3203549041600 1 0
69.05366 28.141623 1.735151 24 3203549041600 1 0
46.13518 13.722448 0.5603552 23 3203549043904 1 0
20.132496 8.201406 -1.520133 6 3203549043904 1 0
17.825188 6.2620907 -1.5423449 4 3203549046208 1 0
81.503914 37.930878 2.6162863 36 3203549046208 1 0
42.04814 14.765225 0.77788866 219 3203549048512 1 0
21.672466 10.082446 -1.531911 6 3203549048512 1 0
23.31624 6.9246635 -1.4164991 6 3203549050816 1 0
68.85268 28.01535 4.3290315 28 3203549050816 1 0
43.585087 15.291397 1.8818161 20 3203549053120 1 0
27.28181 11.096256 -1.3719237 4 3203549053120 1 0
26.224089 9.196393 -1.456405 4 3203549055424 1 0
68.77924 27.963318 9.116314 28 3203549055424 1 0
31.414988 14.593739 -1.41124 5 3203549057728 1 0
42.905197 15.03955 3.7115219 27 3203549057728 1 0
33.08056 9.804666 -1.2048702 5 3203549060032 1 0
55.243954 22.44254 15.977417 15 3203549060032 1 0
49.298958 17.265457 9.523769 46 3203549062336 1 0
65.26496 26.503012 -1.6391208 20 3203549062336 1 0
0 0 0 8 3203549083072 1 0
0 0 0 7 3203549083072 1 0
0 0 0 1 3203549085376 1 0
42.352543 14.766676 -1.3053504 19 3203549085376 1 0
8.0855 2.8177788 -1.7124962 1 3203549087680 1 0
69.15028 27.957249 0 24 3203549087680 1 0
42.7392 12.582883 -0.5186801 31 3203549089984 1 0
9.99315 4.0385094 -1.676859 3 3203549089984 1 0
12.366244 4.3055754 -1.6667405 3 3203549092288 1 0
105.72808 48.845768 0.67690194 43 3203549092288 1 0
48.19602 16.772625 -0.29659358 19 3203549094592 1 0
13.710899 5.5363154 -1.5927473 3 3203549094592 1 0
16.120958 4.738542 -1.5685241 2 3203549096896 1 0
0 0 0 86 3203549099200 1 0
20.148895 8.129094 -1.519296 6 3203549099200 1 0
17.827387 6.195364 -1.5407177 4 3203549101504 1 0
69.11816 27.897486 1.7344067 48 3203549096896 1 0
81.722206 37.697514 2.6191952 36 3203549101504 1 0
42.06005 14.60983 0.77719057 219 3203549103808 1 0
21.695562 10.004087 -1.5311435 4 3203549103808 1 0
23.31275 6.837742 -1.4148712 6 3203549106112 1 0
62.769196 25.292461 3.941128 28 3203549106112 1 0
49.700684 17.247652 2.1433198 62 3203549108416 1 0
27.293392 10.993091 -1.3706207 4 3203549108416 1 0
26.2024 9.088762 -1.4534742 4 3203549110720 1 0
68.95504 27.761696 9.127039 28 3203549110720 1 0
31.391972 14.453078 -1.4079834 5 3203549113024 1 0
42.95624 14.893127 3.7115219 27 3203549113024 1 0
48.96135 19.695572 14.140838 12 3203549115328 1 0
33.075512 9.680312 -1.2034743 5 3203549115328 1 0
53.93533 21.68733 -1.3527051 11 3203549117632 1 0
49.25741 17.061722 9.504397 46 3203549117632 1 0
0 0 0 8 3203549138368 1 0
42.320667 14.590078 -1.3027905 28 3203549140672 1 0
0 0 0 1 3203549140672 1 0
8.091578 2.7882602 -1.7117118 1 3203549142976 1 0
86.39082 39.607536 -1.6588862 29 3203549138368 1 0
0 0 0 100 3203549145280 1 0
68.85381 27.558147 0 23 3203549142976 1 0
9.996178 3.9991977 -1.6750143 2 3203549145280 1 0
12.358687 4.254633 -1.6637101 2 3203549147584 1 0
85.25445 39.026535 0.5449483 33 3203549147584 1 0
0 0 0 100 3203549149888 1 0
13.715369 5.4825172 -1.5910337 3 3203549149888 1 0
16.133577 4.681131 -1.5681523 2 3203549152192 1 0
68.79178 27.486898 1.7237986 23 3203549152192 1 0
46.212833 13.401291 0.5601689 15 3203549154496 1 0
20.162325 8.052792 -1.5181799 6 3203549154496 1 0
17.830053 6.1266193 -1.5390904 4 3203549156800 1 0
83.376976 38.108437 2.667951 35 3203549156800 1 0
42.080532 14.452531 0.7766321 219 3203549159104 1 0
21.621428 9.878529 -1.5234686 4 3203549159104 1 0
23.336477 6.7563233 -1.4148712 6 3203549161408 1 0
55.969414 22.325758 3.5092714 28 3203549161408 1 0
49.719 17.059792 2.1415286 46 3203549163712 1 0
27.294485 10.882954 -1.3687595 4 3203549163712 1 0
26.237745 8.998539 -1.4536835 4 3203549166016 1 0
56.0253 22.329163 7.4052687 28 3203549166016 1 0
49.67941 17.030054 4.2872567 40 3203549168320 1 0
31.3186 14.287014 -1.4024472 5 3203549168320 1 0
33.001568 9.533732 -1.1995655 5 3203549170624 1 0
49.13031 19.56457 14.169826 37 3203549170624 1 0
49.324112 16.892227 9.505833 46 3203549172928 1 0
62.812477 25.00247 -1.5731466 18 3203549172928 1 0
0 0 0 8 3203549193664 1 0
86.29186 39.19822 -1.6543485 29 3203549193664 1 0
42.26159 14.404854 -1.299416 28 3203549195968 1 0
0 0 0 1 3203549195968 1 0
8.090123 2.7562037 -1.7093583 1 3203549198272 1 0
45.613403 13.08374 -0.5524393 23 3203549200576 1 0
0 0 0 31 3203549198272 1 0
12.365951 4.20891 -1.6626999 3 3203549202880 1 0
10.002727 3.9613695 -1.6737845 2 3203549200576 1 0
83.34292 37.80018 0.5318831 35 3203549202880 1 0
42.173542 14.347463 -0.25890914 87 3203549205184 1 0
16.061756 4.5995674 -1.5596014 2 3203549207488 1 0
13.719631 5.428755 -1.5893202 3 3203549205184 1 0
44.74979 17.699629 1.1197945 24 3203549207488 1 0
46.66309 13.355457 0.5650582 16 3203549209792 1 0
20.186602 7.980896 -1.5179008 6 3203549209792 1 0
17.828682 6.056649 -1.5371376 4 3203549212096 1 0
80.78509 36.583424 2.580912 37 3203549212096 1 0
42.130726 14.305554 0.7766321 130 3203549214400 1 0
21.623049 9.78818 -1.5211661 4 3203549214400 1 0
23.336882 6.66824 -1.4134759 6 3203549216704 1 0
55.96529 22.097988 3.5041552 84 3203549216704 1 0
49.74797 16.875864 2.140226 46 3203549219008 1 0
26.253864 8.901767 -1.4528462 4 3203549221312 1 0
27.29514 10.772943 -1.3668983 4 3203549219008 1 0
49.307476 19.45256 6.5083103 35 3203549221312 1 0
49.689465 16.839903 4.2830257 40 3203549223616 1 0
31.335503 14.162789 -1.4009818 5 3203549223616 1 0
32.992355 9.406421 -1.1980299 5 3203549225920 1 0
49.169544 19.381618 14.161543 37 3203549225920 1 0
49.27841 16.684614 9.485743 45 3203549228224 1 0
49.591015 19.53942 -1.2402976 31 3203549228224 1 0
0 0 0 8 3203549248960 1 0
79.96557 35.98829 -1.5306458 29 3203549248960 1 0
0 0 0 1 3203549251264 1 0
41.8683 14.107868 -1.2858016 18 3203549251264 1 0
8.107129 2.7304509 -1.7109272 2 3203549253568 1 0
0 0 0 3 3203549253568 1 0
45.67034 12.927709 -0.5525789 23 3203549255872 1 0
10.016494 3.9264293 -1.6737845 3 3203549255872 1 0
12.376806 4.164454 -1.6621948 3 3203549258176 1 0
102.384605 46.006306 0.6523757 43 3203549258176 1 0
0 0 0 9 3203549260480 1 0
16.054718 4.536975 -1.5573708 2 3203549262784 1 0
13.738498 5.3808312 -1.5893202 3 3203549260480 1 0
44.815025 17.544773 1.1198876 16 3203549262784 1 0
20.206905 7.9074745 -1.5173428 6 3203549265088 1 0
46.69788 13.18923 0.56491846 16 3203549265088 1 0
17.838377 5.990571 -1.5361613 4 3203549267392 1 0
83.20688 37.33067 2.654104 35 3203549267392 1 0
42.055283 14.1164055 0.77432835 114 3203549269696 1 0
21.642515 9.706108 -1.5201428 4 3203549269696 1 0
23.260088 6.5585623 -1.4074295 6 3203549272000 1 0
54.665955 21.364674 3.4181094 26 3203549272000 1 0
49.78005 16.693213 2.1390862 46 3203549274304 1 0
27.3363 10.679053 -1.3670844 4 3203549274304 1 0
26.277203 8.80753 -1.4524275 4 3203549276608 1 0
49.338093 19.265884 6.5034356 35 3203549276608 1 0
49.732822 16.661285 4.281724 60 3203549278912 1 0
31.260727 13.997788 -1.3954456 5 3203549278912 1 0
33.0019 9.284703 -1.1971923 5 3203549281216 1 0
49.229702 19.207058 14.159472 25 3203549281216 1 0
49.31023 16.503757 9.4807205 30 3203549283520 1 0
55.40384 21.606623 -1.3837847 12 3203549283520 1 0
0 0 0 8 3203549304256 1 0
42.17904 14.048817 -1.2938306 18 3203549306560 1 0
80.18932 35.75291 -1.5325307 29 3203549304256 1 0
0 0 0 1 3203549306560 1 0
8.112889 2.700896 -1.7101427 2 3203549308864 1 0
47.36896 18.385891 0 9 3203549308864 1 0
46.35082 12.945741 -0.560262 24 3203549311168 1 0
10.015399 3.8857229 -1.6713248 2 3203549311168 1 0
12.3799715 4.1174684 -1.6606797 3 3203549313472 1 0
0 0 0 101 3203549315776 1 0
94.58569 42.10567 0.60174227 43 3203549313472 1 0
13.74978 5.3299675 -1.5884634 3 3203549315776 1 0
16.066622 4.4798365 -1.5569991 2 3203549318080 1 0
43.835663 16.985132 1.093926 23 3203549318080 1 0
0 0 0 6 3203549320384 1 0
20.126478 7.7950983 -1.5092511 6 3203549320384 1 0
17.844044 5.923243 -1.5348594 4 3203549322688 1 0
81.57561 36.257267 2.5980175 37 3203549322688 1 0
42.138466 13.980854 0.77495664 136 3203549324992 1 0
21.654375 9.620778 -1.5186079 4 3203549324992 1 0
53.000935 20.50097 3.3095057 24 3203549327296 1 0
23.255909 6.4698377 -1.4058015 6 3203549327296 1 0
49.819046 16.51306 2.138272 46 3203549329600 1 0
27.276514 10.546103 -1.3622452 4 3203549329600 1 0
26.205406 8.681834 -1.4467752 4 3203549331904 1 0
49.371716 19.080666 6.499048 35 3203549331904 1 0
31.247292 13.8610325 -1.3926774 5 3203549334208 1 0
49.775543 16.48257 4.280422 60 3203549334208 1 0
32.918552 9.137372 -1.1930044 5 3203549336512 1 0
49.14146 18.975252 14.114956 25 3203549336512 1 0
49.330177 16.319172 9.473546 30 3203549338816 1 0
49.841866 19.237373 -1.2431822 10 3203549338816 1 0
0 0 0 8 3203549359552 1 0
78.57588 34.70525 -1.4993712 29 3203549359552 1 0
42.273396 13.916501 -1.2952269 18 3203549361856 1 0
0 0 0 1 3203549361856 1 0
8.114816 2.6701086 -1.7085738 1 3203549364160 1 0
46.335056 17.798735 0 18 3203549364160 1 0
47.459988 13.077115 -0.5731138 18 3203549366464 1 0
10.028902 3.8507388 -1.6713248 4 3203549366464 1 0
12.390499 4.07299 -1.6601746 3 3203549368768 1 0
0 0 0 19 3203549371072 1 0
94.52348 41.683254 0.6004172 43 3203549368768 1 0
16.07064 4.420557 -1.5558836 2 3203549373376 1 0
13.764588 5.2805147 -1.588035 3 3203549371072 1 0
0 0 0 21 3203549375680 1 0
20.142387 7.720512 -1.508414 6 3203549375680 1 0
17.838095 5.85222 -1.5325812 4 3203549377984 1 0
80.65877 35.51311 2.5648541 38 3203549377984 1 0
43.816273 16.801945 1.0919718 23 3203549373376 1 0
42.247818 13.853617 0.77607363 184 3203549380288 1 0
23.286053 6.3907337 -1.4062667 6 3203549382592 1 0
51.259716 19.622036 3.1964834 22 3203549382592 1 0
21.585526 9.500107 -1.5114446 4 3203549380288 1 0
49.8498 16.330349 2.1371322 45 3203549384896 1 0
27.26838 10.43369 -1.3600117 4 3203549384896 1 0
26.201385 8.579121 -1.4448911 4 3203549387200 1 0
49.30452 18.857153 6.481499 52 3203549387200 1 0
49.80625 16.300041 4.278144 60 3203549389504 1 0
31.12351 13.676306 -1.3850245 5 3203549389504 1 0
32.942535 9.020298 -1.1927252 5 3203549391808 1 0
49.182133 18.793945 14.107709 24 3203549391808 1 0
49.33822 16.130981 9.464219 45 3203549394112 1 0
52.13518 19.913702 -1.2986416 11 3203549394112 1 0
0 0 0 8 3203549414296 1 0
64.6962 28.305424 -1.2326286 20 3203549414296 1 0
0 0 0 1 3203549416600 1 0
42.321716 13.768855 -1.2952269 28 3203549416600 1 0
8.135278 2.645405 -1.7109272 1 3203549418904 1 0
0 0 0 23 3203549418904 1 0
48.076584 13.066624 -0.58000535 25 3203549421208 1 0
10.027503 3.8100924 -1.6688652 2 3203549421208 1 0
12.385772 4.023585 -1.6576493 2 3203549423512 1 0
84.137474 36.75293 0.5336267 35 3203549423512 1 0
41.77246 13.563292 -0.25525925 7 3203549425816 1 0
16.078287 4.3623476 -1.5551401 2 3203549428120 1 0
13.771783 5.228201 -1.5867499 3 3203549425816 1 0
46.46284 12.599006 0.5604483 7 3203549430424 1 0
20.161753 7.6473246 -1.5078559 6 3203549430424 1 0
43.440956 16.484322 1.0811777 15 3203549428120 1 0
17.843245 5.785 -1.5312793 4 3203549432728 1 0
0 0 0 43 3203549435032 1 0
82.834595 36.126434 2.630017 36 3203549432728 1 0
21.60026 9.416725 -1.5101655 6 3203549435032 1 0
23.285091 6.3031507 -1.4048713 6 3203549437336 1 0
49.96488 18.926676 3.1116004 41 3203549437336 1 0
49.883682 16.148855 2.1361554 45 3203549439640 1 0
27.285948 10.331368 -1.359081 4 3203549439640 1 0
26.227373 8.486379 -1.4446818 4 3203549441944 1 0
49.273502 18.648394 6.468825 34 3203549441944 1 0
49.84767 16.121178 4.276842 60 3203549444248 1 0
31.046465 13.51335 -1.3794883 5 3203549444248 1 0
32.935226 8.89483 -1.1913292 5 3203549446552 1 0
49.243824 18.620787 14.106673 37 3203549446552 1 0
49.34929 15.944142 9.455609 30 3203549448856 1 0
48.489918 18.32765 -1.2062403 10 3203549448856 1 0
0 0 0 8 3203549469592 1 0
63.825825 27.659588 -1.2141988 19 3203549469592 1 0
41.27707 13.269837 -1.261831 18 3203549471896 1 0
0 0 0 1 3203549471896 1 0
8.125791 2.610992 -1.7070049 1 3203549474200 1 0
0 0 0 7 3203549474200 1 0
48.496647 12.999173 -0.58452207 26 3203549476504 1 0
10.040742 3.7750669 -1.6688652 2 3203549476504 1 0
12.392185 3.9779003 -1.6566391 3 3203549478808 1 0
80.663956 34.90084 0.51082075 37 3203549478808 1 0
0 0 0 95 3203549481112 1 0
13.775057 5.1745024 -1.5850363 3 3203549481112 1 0
16.08957 4.3051677 -1.5547683 2 3203549483416 1 0
43.677933 16.400057 1.0856442 22 3203549483416 1 0
50.188885 13.4214735 0.6048241 26 3203549485720 1 0
17.851938 5.719031 -1.530303 4 3203549488024 1 0
20.169645 7.56989 -1.5064608 6 3203549485720 1 0
0 0 0 43 3203549490328 1 0
81.47365 35.194912 2.5828903 37 3203549488024 1 0
23.299236 6.2197723 -1.4044062 6 3203549492632 1 0
21.603682 9.328609 -1.5081187 4 3203549490328 1 0
49.90549 15.963671 2.1346898 61 3203549494936 1 0
27.22082 10.198211 -1.3540556 4 3203549494936 1 0
49.851162 18.684877 3.1004376 41 3203549492632 1 0
49.282528 18.455399 6.4615126 34 3203549497240 1 0
26.234007 8.387477 -1.4434257 4 3203549497240 1 0
49.87706 15.938584 4.274564 60 3203549499544 1 0
32.939037 8.772608 -1.1903521 5 3203549501848 1 0
49.189102 18.4041 14.072509 37 3203549501848 1 0
30.895258 13.319452 -1.3706956 5 3203549499544 1 0
49.348415 15.753833 9.444847 44 3203549504152 1 0
46.50478 17.392052 -1.1553406 9 3203549504152 1 0
0 0 0 8 3203549524888 1 0
0 0 0 65 3203549524888 1 0
41.26979 13.108727 -1.2602019 18 3203549527192 1 0
0 0 0 1 3203549527192 1 0
8.142332 2.5849855 -1.7085738 2 3203549529496 1 0
45.780388 17.0377 0 27 3203549529496 1 0
50.974033 13.47268 -0.613811 21 3203549531800 1 0
10.053858 3.739995 -1.6688652 4 3203549531800 1 0
12.394649 3.9310205 -1.6551238 3 3203549534104 1 0
0 0 0 8 3203549534104 1 0
41.175987 13.052566 -0.25105143 81 3203549536408 1 0
13.781852 5.1222305 -1.5837512 3 3203549536408 1 0
16.092945 4.2459307 -1.553653 2 3203549538712 1 0
42.685307 15.857564 1.0595895 22 3203549538712 1 0
50.192886 13.2349825 0.6043119 17 3203549541016 1 0
20.195946 7.4994383 -1.5064608 6 3203549541016 1 0
17.85659 5.6518693 -1.5290012 4 3203549543320 1 0
81.73202 34.96849 2.5871956 37 3203549543320 1 0
46.22277 14.62278 0.8462323 18 3203549545624 1 0
21.62877 9.250003 -1.5076071 6 3203549545624 1 0
23.30922 6.1353555 -1.4037086 5 3203549547928 1 0
49.85243 18.487148 3.0964842 61 3203549547928 1 0
49.930424 15.779736 2.133387 45 3203549550232 1 0
27.233772 10.094797 -1.352939 4 3203549550232 1 0
26.247889 8.291039 -1.4425883 4 3203549552536 1 0
49.301975 18.266706 6.4556627 34 3203549552536 1 0
30.857023 13.175429 -1.3669505 5 3203549554840 1 0
32.94239 8.650469 -1.1893748 5 3203549557144 1 0
49.90958 15.757182 4.272611 59 3203549554840 1 0
49.227684 18.222897 14.065262 24 3203549557144 1 0
49.38059 15.574377 9.440542 44 3203549559448 1 0
45.053787 16.670372 -1.1178404 8 3203549559448 1 0
0 0 0 8 3203549580184 1 0
64.10203 27.249315 -1.2158045 9 3203549580184 1 0
40.819267 12.809263 -1.2450749 18 3203549582488 1 0
0 0 0 1 3203549582488 1 0
8.143784 2.5543184 -1.7070049 2 3203549584792 1 0
42.73884 15.736829 0 15 3203549584792 1 0
47.41706 12.356742 -0.57045966 18 3203549587096 1 0
10.059353 3.702367 -1.6676353 3 3203549587096 1 0
12.411968 3.8892784 -1.6556289 3 3203549589400 1 0
0 0 0 3 3203549589400 1 0
41.259 12.922209 -0.2512839 60 3203549591704 1 0
13.784533 5.069103 -1.5820376 3 3203549591704 1 0
16.11134 4.1914353 -1.5540248 2 3203549594008 1 0
42.720947 15.703434 1.0591242 22 3203549594008 1 0
50.377472 13.098487 0.6059882 8 3203549596312 1 0
20.202894 7.423044 -1.5050657 5 3203549596312 1 0
81.10425 34.37104 2.5635743 38 3203549598616 1 0
17.87208 5.5893536 -1.5286757 4 3203549598616 1 0
21.638275 9.166523 -1.5060722 6 3203549600920 1 0
46.158066 14.428575 0.84413797 27 3203549600920 1 0
23.314594 6.051637 -1.4027783 5 3203549603224 1 0
42.646397 15.6492815 2.645558 27 3203549603224 1 0
27.211775 9.981215 -1.3501471 4 3203549605528 1 0
49.957245 15.601009 2.1322474 45 3203549605528 1 0
49.307945 18.078306 6.448351 50 3203549607832 1 0
26.272142 8.20047 -1.442379 4 3203549607832 1 0
49.947582 15.582844 4.2713094 59 3203549610136 1 0
30.7838 13.020738 -1.36174 5 3203549610136 1 0
32.89799 8.519741 -1.1867225 5 3203549612440 1 0
49.38789 15.393252 9.431932 43 3203549614744 1 0
49.29641 18.058626 14.067332 37 3203549612440 1 0
42.84934 15.690172 -1.0618228 24 3203549614744 1 0
0 0 0 8 3203549635480 1 0
64.21415 27.04591 -1.2162234 100 3203549635480 1 0
0 0 0 1 3203549637784 1 0
40.792873 12.652214 -1.2429804 27 3203549637784 1 0
8.1484995 2.5260189 -1.7062204 1 3203549640088 1 0
0 0 0 54 3203549640088 1 0
54.500626 14.008593 -0.6551136 8 3203549642392 1 0
10.064227 3.6660633 -1.6664056 3 3203549642392 1 0
12.413538 3.8442147 -1.6541138 3 3203549644696 1 0
79.245514 33.322598 0.4996386 78 3203549644696 1 0
42.349068 13.107876 -0.25765374 72 3203549647000 1 0
13.7865 5.0174217 -1.580324 3 3203549647000 1 0
16.106043 4.132333 -1.552166 2 3203549649304 1 0
42.66824 15.521537 1.0565188 36 3203549649304 1 0
67.732056 17.367537 0.8140377 19 3203549651608 1 0
20.212774 7.3495245 -1.5039495 5 3203549651608 1 0
17.860365 5.519599 -1.526072 4 3203549653912 1 0
83.605 35.09853 2.6388605 36 3203549653912 1 0
45.686905 14.111882 0.8346439 27 3203549656216 1 0
23.245993 5.9498196 -1.3974295 5 3203549658520 1 0
42.616608 15.474686 2.640442 53 3203549658520 1 0
49.987026 15.424188 2.1312704 45 3203549660824 1 0
21.562403 9.048505 -1.498653 4 3203549656216 1 0
27.245516 9.888742 -1.3501471 4 3203549660824 1 0
26.185385 8.075692 -1.4360987 4 3203549663128 1 0
49.320667 17.892786 6.4420133 50 3203549663128 1 0
49.95472 15.398306 4.267404 59 3203549665432 1 0
30.665836 12.847716 -1.3545755 5 3203549665432 1 0
32.91917 8.40527 -1.1864433 5 3203549667736 1 0
49.256138 17.853165 14.038345 24 3203549667736 1 0
49.42152 15.218208 9.428345 43 3203549670040 1 0
0 0 0 9 3203549670040 1 0
0 0 0 4 3203549690776 1 0
64.32662 26.829294 -1.2165724 59 3203549690776 1 0
40.924717 12.536678 -1.2456566 27 3203549693080 1 0
0 0 0 1 3203549693080 1 0
8.153517 2.4964116 -1.705436 1 3203549695384 1 0
42.694668 15.39067 0 76 3203549695384 1 0
52.88585 13.39691 -0.6351375 7 3203549697688 1 0
10.073244 3.6295705 -1.6657907 4 3203549697688 1 0
