# .PCD v.7 - Point Cloud Data file format
VERSION .7
FIELDS x y z rgb timestamp_ns device_id active
SIZE 4 4 4 4 8 1 1
TYPE F F F F F U U
COUNT 1 1 1 1 1 1 1
WIDTH 979
HEIGHT 1
VIEWPOINT 0 0 0 1 0 0 0
POINTS 979               
DATA ascii
21.861187 23.296091 -0.5576393 9 3201042956664 1 0
26.375666 23.099976 -1.0203795 20 3201042958968 1 0
4.6318965 4.4748588 -1.80292 6 3201042958968 1 0
6.834575 5.984096 -1.8168306 2 3201042961272 1 0
21.915306 21.166445 0 63 3201042961272 1 0
8.39353 8.104476 -1.8152137 3 3201042963576 1 0
22.444624 17.786999 -0.33340064 100 3201042963576 1 0
10.92615 9.5611925 -1.8480617 3 3201042965880 1 0
21.72913 23.129734 0.18444689 27 3201042965880 1 0
22.678165 19.839546 -0.17512459 32 3201042968184 1 0
12.368503 11.935957 -1.8514937 6 3201042968184 1 0
15.246637 12.072426 -1.8153836 4 3201042970488 1 0
22.004526 21.229124 0.7114799 28 3201042970488 1 0
22.43877 17.762178 0.3331678 70 3201042972792 1 0
18.691385 18.027746 -1.8159006 9 3201042972792 1 0
16.70127 14.598559 -1.8108478 7 3201042975096 1 0
21.9303 23.318031 0.93159527 34 3201042975096 1 0
22.743275 19.874325 0.5272023 42 3201042977400 1 0
19.553831 20.785425 -1.8289298 9 3201042977400 1 0
22.472322 17.77359 -1.66859 81 3201042979704 1 0
22.882076 22.051344 1.8506813 17 3201042979704 1 0
23.56721 20.582842 1.2747892 10 3201042982008 1 0
22.97676 22.136469 -1.4862041 15 3201042982008 1 0
23.11195 20.179604 -1.6079699 15 3201042984312 1 0
24.428875 23.52897 4.1645193 11 3201042984312 1 0
56.696655 49.48942 6.1436687 28 3201042986616 1 0
21.756649 23.101393 -1.2928632 4 3201042986616 1 0
22.465738 17.748209 -0.9998008 80 3201042988920 1 0
21.411198 20.611055 7.9633446 8 3201042988920 1 0
24.861174 21.688738 6.015314 11 3201042991224 1 0
28.989403 27.898344 -0.9362018 12 3201042991224 1 0
0 0 0 4 3201043011960 1 0
21.943813 23.229282 -0.5577789 9 3201043011960 1 0
26.43419 22.996447 -1.0196815 13 3201043014264 1 0
4.649522 4.462107 -1.8039984 4 3201043014264 1 0
6.848549 5.9561515 -1.8152616 2 3201043016568 1 0
21.94816 21.057335 0 42 3201043016568 1 0
22.491299 17.702085 -0.33321437 100 3201043018872 1 0
8.406273 8.062734 -1.8121392 2 3201043018872 1 0
10.943099 9.511574 -1.8455364 3 3201043021176 1 0
21.778898 23.027855 0.18421441 18 3201043021176 1 0
12.382609 11.869656 -1.8476382 5 3201043023480 1 0
22.777761 19.792265 -0.1753803 32 3201043023480 1 0
15.258936 11.998976 -1.8120376 4 3201043025784 1 0
22.087276 21.166142 0.7118521 28 3201043025784 1 0
22.485872 17.676638 0.33298156 70 3201043028088 1 0
16.735382 14.529054 -1.8092204 7 3201043030392 1 0
18.705877 17.920544 -1.811436 9 3201043028088 1 0
22.069336 23.307774 0.9341552 23 3201043030392 1 0
22.94325 19.912647 0.5302739 29 3201043032696 1 0
19.610281 20.704693 -1.8276507 9 3201043032696 1 0
22.516724 17.685001 -1.6674271 77 3201043035000 1 0
22.61339 21.64509 1.8230071 27 3201043035000 1 0
22.976748 21.986486 -1.4813648 15 3201043037304 1 0
42.835793 37.15572 2.3102195 46 3201043037304 1 0
23.268013 20.17672 -1.6140409 15 3201043039608 1 0
24.43709 23.377083 4.1523323 11 3201043039608 1 0
23.38829 20.275059 2.526855 10 3201043041912 1 0
22.99583 24.25091 -1.3615772 15 3201043041912 1 0
22.510544 17.658981 -0.9991028 84 3201043044216 1 0
21.531788 20.585814 7.9819794 13 3201043044216 1 0
27.827272 26.596966 -0.89572394 17 3201043046520 1 0
22.814743 19.766235 5.503754 9 3201043046520 1 0
0 0 0 4 3201043067256 1 0
0 0 0 36 3201043067256 1 0
4.659492 4.4405355 -1.8018417 5 3201043069560 1 0
26.344862 22.757666 -1.0131651 19 3201043069560 1 0
6.8663297 5.9296455 -1.8144772 2 3201043071864 1 0
21.879623 20.845394 0 51 3201043071864 1 0
22.52774 17.603765 -0.33284184 100 3201043074168 1 0
8.411469 8.011534 -1.8072199 2 3201043074168 1 0
10.958211 9.457762 -1.8425059 3 3201043076472 1 0
21.75432 22.841625 0.18333101 45 3201043076472 1 0
22.864882 19.728313 -0.1755198 48 3201043078776 1 0
12.395161 11.79894 -1.8433543 5 3201043078776 1 0
15.278752 11.928483 -1.8094351 4 3201043081080 1 0
22.07412 21.00621 0.7090605 36 3201043081080 1 0
18.748081 17.835886 -1.8094829 9 3201043083384 1 0
16.773918 14.460135 -1.8079185 7 3201043085688 1 0
22.139524 23.219019 0.9336898 19 3201043085688 1 0
22.490683 17.553743 0.3321434 66 3201043083384 1 0
23.085327 19.895102 0.53194934 39 3201043087992 1 0
19.693455 20.647669 -1.828674 9 3201043087992 1 0
22.688808 21.566023 1.8230071 5 3201043090296 1 0
22.562574 17.594017 -1.6662643 81 3201043090296 1 0
42.931915 36.977276 2.3084285 45 3201043092600 1 0
22.972252 21.82908 -1.4761534 15 3201043092600 1 0
24.541569 23.313513 4.156232 17 3201043094904 1 0
23.341084 20.09186 2.5141623 10 3201043097208 1 0
23.426085 20.170961 -1.6201118 15 3201043094904 1 0
22.986498 24.072214 -1.356041 15 3201043097208 1 0
22.556278 17.568016 -0.9984048 80 3201043099512 1 0
21.113163 20.044983 7.800806 8 3201043099512 1 0
22.889566 19.691608 5.505189 19 3201043101816 1 0
0 0 0 16 3201043101816 1 0
0 0 0 4 3201043122552 1 0
23.975695 25.027843 -0.6049702 10 3201043122552 1 0
26.384687 22.631725 -1.0116525 39 3201043124856 1 0
4.6721663 4.421596 -1.8007634 6 3201043124856 1 0
6.881031 5.900535 -1.8129083 3 3201043127160 1 0
21.897047 20.716661 0 38 3201043127160 1 0
22.576412 17.515215 -0.33265558 100 3201043129464 1 0
8.430769 7.9739757 -1.8053752 8 3201043129464 1 0
10.973081 9.40396 -1.8394755 3 3201043131768 1 0
21.814539 22.745342 0.18316828 13 3201043131768 1 0
23.015621 19.718645 -0.17614748 20 3201043134072 1 0
12.398699 11.720085 -1.8377854 5 3201043134072 1 0
15.276228 11.840919 -1.8042302 4 3201043136376 1 0
22.054302 20.841139 0.7060828 44 3201043136376 1 0
22.523365 17.45308 0.33172432 66 3201043138680 1 0
18.804424 17.764854 -1.8089249 9 3201043138680 1 0
16.812176 14.391125 -1.8066168 7 3201043140984 1 0
21.979515 22.890684 0.9235663 19 3201043140984 1 0
19.770939 20.584558 -1.8291856 9 3201043143288 1 0
23.27618 19.91841 0.53474176 39 3201043143288 1 0
22.614378 17.507818 -1.6655667 73 3201043145592 1 0
22.900434 21.61552 1.8339373 16 3201043145592 1 0
22.975657 21.680204 -1.4715003 15 3201043147896 1 0
0 0 0 43 3201043147896 1 0
23.593508 20.172132 -1.6268109 10 3201043150200 1 0
22.8467 21.552238 3.8564334 15 3201043150200 1 0
26.47194 22.626492 2.8428748 7 3201043152504 1 0
22.976196 23.893879 -1.3505048 15 3201043152504 1 0
22.604815 17.479391 -0.9978464 84 3201043154808 1 0
21.213928 20.000319 7.812194 34 3201043154808 1 0
22.958164 19.61159 5.505189 19 3201043157112 1 0
23.300882 21.96148 -0.7450718 13 3201043157112 1 0
0 0 0 4 3201043178296 1 0
26.345364 27.310024 -0.66235375 12 3201043178296 1 0
26.697905 22.739113 -1.0206122 13 3201043180600 1 0
4.6931863 4.410536 -1.80292 6 3201043180600 1 0
6.904572 5.8790226 -1.8136927 2 3201043182904 1 0
22.120821 20.782522 0 25 3201043182904 1 0
22.621569 17.424099 -0.33242276 100 3201043185208 1 0
8.449909 7.9363804 -1.8035305 53 3201043185208 1 0
21.815998 22.588497 0.18251733 40 3201043187512 1 0
23.197039 19.734083 -0.17700765 12 3201043189816 1 0
12.401839 11.641351 -1.8322163 5 3201043189816 1 0
15.292217 11.768091 -1.8012561 4 3201043192120 1 0
10.990729 9.352741 -1.8369501 3 3201043187512 1 0
22.13275 20.7695 0.7062689 28 3201043192120 1 0
22.5683 17.362158 0.33149147 80 3201043194424 1 0
18.84595 17.679995 -1.8069717 9 3201043194424 1 0
16.844082 14.31686 -1.804664 7 3201043196728 1 0
21.83972 22.586748 0.9143737 41 3201043196728 1 0
23.36995 19.857758 0.5353002 43 3201043199032 1 0
19.848223 20.521158 -1.8296973 9 3201043199032 1 0
22.653193 17.411737 -1.6639388 65 3201043201336 1 0
22.905823 21.469912 1.8283559 16 3201043201336 1 0
26.43983 22.453037 1.413194 19 3201043203640 1 0
22.972471 21.526106 -1.4664749 14 3201043203640 1 0
23.758177 20.169796 -1.6333005 10 3201043205944 1 0
22.904408 21.456072 3.8535087 10 3201043205944 1 0
0 0 0 25 3201043208248 1 0
22.973274 23.724525 -1.3454571 15 3201043208248 1 0
22.646666 17.385773 -0.9970088 88 3201043210552 1 0
21.201818 19.849567 7.7821712 12 3201043210552 1 0
23.017479 19.523695 5.5030365 9 3201043212856 1 0
23.3774 21.88001 -0.7450718 13 3201043212856 1 0
0 0 0 4 3201043233592 1 0
24.149837 24.859852 -0.6049702 10 3201043233592 1 0
26.73116 22.607246 -1.0188669 39 3201043235896 1 0
4.700073 4.3862767 -1.7996851 6 3201043235896 1 0
6.915981 5.8473887 -1.8113393 3 3201043238200 1 0
22.032068 20.555422 0 55 3201043238200 1 0
22.672342 17.338234 -0.33228308 100 3201043240504 1 0
8.457156 7.88815 -1.799226 65 3201043240504 1 0
11.013947 9.306957 -1.8354349 3 3201043242808 1 0
21.721159 22.335058 0.18107599 30 3201043242808 1 0
23.384233 19.754505 -0.1779143 52 3201043245112 1 0
12.421614 11.579459 -1.8292176 5 3201043245112 1 0
15.285221 11.679038 -1.7956795 4 3201043247416 1 0
22.110596 20.605843 0.70329124 32 3201043247416 1 0
22.631065 17.286854 0.33153805 84 3201043249720 1 0
18.877459 17.587866 -1.8041815 9 3201043249720 1 0
16.883986 14.251245 -1.8036877 7 3201043252024 1 0
21.85018 22.442896 0.911581 37 3201043252024 1 0
24.156124 20.383715 0.5517055 46 3201043254328 1 0
19.88776 20.421597 -1.8268832 9 3201043254328 1 0
55.43387 51.604057 4.410659 56 3201043256632 1 0
22.690351 17.317251 -1.6623108 73 3201043256632 1 0
26.531534 22.375612 1.4140081 13 3201043258936 1 0
22.960934 21.368689 -1.4610773 14 3201043258936 1 0
23.918303 20.166065 -1.6395808 10 3201043261240 1 0
22.831964 21.242777 3.8291347 10 3201043261240 1 0
23.563566 19.861408 2.5157895 10 3201043263544 1 0
22.967224 23.557655 -1.3404093 15 3201043263544 1 0
22.692738 17.299232 -0.9964504 88 3201043265848 1 0
21.611326 20.09596 7.907439 8 3201043265848 1 0
23.026186 19.397577 5.4894047 14 3201043268152 1 0
28.934052 26.897768 -0.9192662 6 3201043268152 1 0
0 0 0 4 3201043288888 1 0
24.10072 24.64524 -0.60168916 15 3201043288888 1 0
4.7033567 4.3601236 -1.7953719 7 3201043291192 1 0
26.775694 22.492373 -1.0177033 19 3201043291192 1 0
6.935503 5.8242207 -1.8113393 2 3201043293496 1 0
22.05083 20.435385 0 34 3201043293496 1 0
22.711355 17.24745 -0.33200368 100 3201043295800 1 0
8.486509 7.862378 -1.799841 60 3201043295800 1 0
11.027052 9.254435 -1.8324045 3 3201043298104 1 0
21.785208 22.250204 0.18098299 26 3201043298104 1 0
23.438787 19.664864 -0.17782131 8 3201043300408 1 0
12.431602 11.510278 -1.8249336 5 3201043300408 1 0
15.299499 11.607692 -1.7927052 4 3201043302712 1 0
22.162989 20.514174 0.7027329 28 3201043302712 1 0
22.712326 17.226322 0.331864 70 3201043305016 1 0
18.914032 17.50156 -1.8019493 8 3201043305016 1 0
21.865509 22.304949 0.909021 30 3201043307320 1 0
16.905304 14.170157 -1.8007585 7 3201043307320 1 0
24.122019 20.212992 0.54933196 23 3201043309624 1 0
19.949652 20.34437 -1.8261156 9 3201043309624 1 0
22.734245 17.226543 -1.6611481 77 3201043311928 1 0
55.559387 51.363068 4.4064727 56 3201043311928 1 0
22.095648 18.503515 1.1741608 30 3201043314232 1 0
22.952911 21.21281 -1.4558657 14 3201043314232 1 0
24.080437 20.159376 -1.6458611 10 3201043316536 1 0
23.07511 21.319212 3.8574085 30 3201043316536 1 0
22.079924 18.478876 2.350457 41 3201043318840 1 0
22.968456 23.3943 -1.3356873 15 3201043318840 1 0
22.737547 17.207191 -0.99575245 84 3201043321144 1 0
27.83337 25.69964 10.150883 13 3201043321144 1 0
23.055359 19.283255 5.4800773 14 3201043323448 1 0
28.194414 26.02503 -0.8928393 11 3201043323448 1 0
0 0 0 4 3201043344184 1 0
24.092653 24.457022 -0.59924585 15 3201043344184 1 0
22.131727 18.453644 -0.8386219 28 3201043346488 1 0
6.950693 5.79384 -1.8097703 2 3201043348792 1 0
22.078186 20.311417 0 51 3201043348792 1 0
22.758074 17.152552 -0.33177087 99 3201043351096 1 0
4.7221084 4.345498 -1.7964503 7 3201043346488 1 0
8.518008 7.834082 -1.8004559 26 3201043351096 1 0
11.0392885 9.1965 -1.828869 3 3201043353400 1 0
21.79013 22.093952 0.18035531 30 3201043353400 1 0
0 0 0 38 3201043355704 1 0
12.458649 11.451633 -1.8227918 5 3201043355704 1 0
15.322347 11.537833 -1.7904745 4 3201043358008 1 0
22.298973 20.490595 0.70468706 20 3201043358008 1 0
22.742483 17.120066 0.33139837 63 3201043360312 1 0
18.94484 17.40339 -1.79888 8 3201043360312 1 0
16.93792 14.093788 -1.7988057 4 3201043362616 1 0
22.131516 18.409855 0.5024897 35 3201043364920 1 0
21.920538 22.200327 0.90797377 30 3201043362616 1 0
22.78322 17.13516 -1.6602179 73 3201043367224 1 0
19.924578 20.173023 -1.8171616 9 3201043364920 1 0
25.956583 23.823748 2.0518422 14 3201043367224 1 0
22.131111 18.398628 1.1725326 91 3201043369528 1 0
22.961102 21.06825 -1.4515849 14 3201043369528 1 0
0 0 0 25 3201043371832 1 0
23.168795 21.252617 3.8603332 25 3201043371832 1 0
22.121233 18.379538 2.3478532 41 3201043374136 1 0
22.956297 23.215515 -1.3301511 15 3201043374136 1 0
22.779541 17.111654 -0.9949148 92 3201043376440 1 0
27.896292 25.574186 10.140531 20 3201043376440 1 0
25.049253 20.799984 5.936392 5 3201043378744 1 0
29.094557 26.66492 -0.91833574 18 3201043378744 1 0
0 0 0 4 3201043399480 1 0
23.7582 23.949713 -0.5888442 15 3201043399480 1 0
22.171236 18.35604 -0.837691 97 3201043401784 1 0
4.745747 4.336818 -1.7996851 5 3201043401784 1 0
6.961726 5.7621408 -1.8074169 2 3201043404088 1 0
22.204767 20.285809 0 29 3201043404088 1 0
22.801424 17.061523 -0.33153805 90 3201043406392 1 0
0 0 0 11 3201043406392 1 0
11.061884 9.150644 -1.8273537 3 3201043408696 1 0
21.841112 21.992847 0.18014608 21 3201043408696 1 0
22.168818 18.333395 -0.16719714 36 3201043411000 1 0
12.474633 11.387079 -1.8193647 5 3201043411000 1 0
15.32375 11.456331 -1.7860132 4 3201043413304 1 0
22.32221 20.37048 0.7031982 24 3201043413304 1 0
22.788424 17.032158 0.3312121 63 3201043415608 1 0
18.975113 17.31123 -1.7960896 8 3201043415608 1 0
16.973902 14.025408 -1.797504 6 3201043417912 1 0
22.061447 22.19017 0.9106501 26 3201043417912 1 0
22.17286 18.316113 0.50200105 100 3201043420216 1 0
19.945705 20.056541 -1.8128124 9 3201043420216 1 0
22.828856 17.047632 -1.6592877 69 3201043422520 1 0
0 0 0 9 3201043422520 1 0
22.169077 18.302683 1.1712298 70 3201043424824 1 0
22.95013 20.914457 -1.4463735 14 3201043424824 1 0
22.196556 18.320213 -1.5083222 91 3201043427128 1 0
23.314363 21.240486 3.8725202 21 3201043427128 1 0
22.158924 18.284006 2.3452497 41 3201043429432 1 0
22.814968 17.01763 -0.9939377 84 3201043431736 1 0
22.958872 23.060946 -1.3257548 15 3201043429432 1 0
24.46602 22.277332 8.866105 11 3201043431736 1 0
0 0 0 13 3201043434040 1 0
29.107674 26.496393 -0.9159164 11 3201043434040 1 0
0 0 0 4 3201043454776 1 0
23.693363 23.726469 -0.5852839 30 3201043454776 1 0
22.216677 18.269556 -0.8371092 92 3201043457080 1 0
4.760134 4.3210225 -1.7996851 4 3201043457080 1 0
6.9808793 5.7389216 -1.8074169 2 3201043459384 1 0
22.224815 20.168732 0 29 3201043459384 1 0
22.832563 16.966234 -0.33116552 82 3201043461688 1 0
8.562353 7.7679534 -1.7986112 4 3201043461688 1 0
11.077104 9.100994 -1.8248284 3 3201043463992 1 0
21.908905 21.914003 0.18009958 35 3201043463992 1 0
22.205427 18.238663 -0.16701116 34 3201043466296 1 0
12.477383 11.313139 -1.814224 5 3201043466296 1 0
15.342966 11.390538 -1.7837826 4 3201043468600 1 0
22.41719 20.319538 0.7040357 24 3201043468600 1 0
22.836006 16.948181 0.33107242 63 3201043470904 1 0
18.99781 17.215088 -1.7927414 5 3201043470904 1 0
17.027296 13.973111 -1.7981548 6 3201043473208 1 0
22.09094 22.070387 0.90878826 22 3201043473208 1 0
22.209934 18.220736 0.50144255 100 3201043475512 1 0
22.860834 16.951143 -1.6574272 58 3201043477816 1 0
26.091501 23.622396 2.0497494 14 3201043477816 1 0
19.914562 19.890247 -1.8038584 9 3201043475512 1 0
22.215654 18.214619 1.1704158 70 3201043480120 1 0
22.95289 20.774727 -1.4420925 14 3201043480120 1 0
22.243332 18.231903 -1.5072756 87 3201043482424 1 0
22.812452 20.641579 3.7774622 10 3201043482424 1 0
22.205736 18.195688 2.3436222 46 3201043484728 1 0
22.94685 22.89218 -1.3205441 15 3201043484728 1 0
22.860151 16.930033 -0.9933793 84 3201043487032 1 0
24.791338 22.419039 8.956174 16 3201043487032 1 0
29.026207 26.240997 -0.9105193 5 3201043489336 1 0
0 0 0 4 3201043510072 1 0
23.87246 23.739502 -0.58765745 15 3201043510072 1 0
22.294928 18.257935 5.2540727 61 3201043489336 1 0
22.258635 18.174194 -0.83629465 92 3201043512376 1 0
4.763744 4.294064 -1.7953719 6 3201043512376 1 0
7.0008693 5.714519 -1.8074169 2 3201043514680 1 0
22.289139 20.085674 0 29 3201043514680 1 0
8.580606 7.7300816 -1.7967664 5 3201043516984 1 0
22.88199 16.879307 -0.33102584 99 3201043516984 1 0
11.096505 9.052239 -1.822808 3 3201043519288 1 0
21.937021 21.789474 0.17970437 30 3201043519288 1 0
22.259657 18.153456 -0.1669414 34 3201043521592 1 0
12.490197 11.245566 -1.8103685 5 3201043521592 1 0
15.356985 11.318009 -1.7808083 4 3201043523896 1 0
22.517704 20.267916 0.7049662 36 3201043523896 1 0
19.013294 17.108633 -1.788556 8 3201043526200 1 0
17.08524 13.9211445 -1.7991313 6 3201043528504 1 0
22.051474 21.877684 0.90401745 37 3201043528504 1 0
22.260998 18.132994 0.5011633 100 3201043530808 1 0
22.882147 16.858875 0.33088616 66 3201043526200 1 0
20.017881 19.854343 -1.8069284 9 3201043530808 1 0
22.907001 16.86177 -1.656497 58 3201043533112 1 0
22.260502 18.121822 1.1694387 70 3201043535416 1 0
41.8175 37.595417 3.2748547 24 3201043533112 1 0
22.94503 20.622364 -1.4370673 14 3201043535416 1 0
22.291348 18.14154 -1.5062288 83 3201043537720 1 0
21.28373 19.123636 3.5132494 26 3201043537720 1 0
22.25056 18.10297 2.3416696 41 3201043540024 1 0
22.944279 22.73037 -1.3158221 15 3201043540024 1 0
22.909445 16.843029 -0.99296045 88 3201043542328 1 0
21.471493 19.281057 7.7324777 8 3201043542328 1 0
22.386002 18.202343 5.26053 52 3201043544632 1 0
0 0 0 6 3201043544632 1 0
0 0 0 4 3201043565368 1 0
23.99502 23.695368 -0.5886348 15 3201043565368 1 0
22.300198 18.07876 -0.83548015 87 3201043567672 1 0
4.7729635 4.272271 -1.7932153 5 3201043567672 1 0
7.0085855 5.680168 -1.8042791 2 3201043569976 1 0
22.362097 20.010414 0 38 3201043569976 1 0
22.918182 16.78279 -0.3306999 100 3201043572280 1 0
11.109535 8.998465 -1.8197776 3 3201043574584 1 0
22.030033 21.72962 0.17984386 26 3201043574584 1 0
22.307346 18.063059 -0.16682518 100 3201043576888 1 0
8.601646 7.6948123 -1.7955366 5 3201043572280 1 0
12.499727 11.175391 -1.8060846 5 3201043576888 1 0
22.59726 20.197186 0.7052454 36 3201043579192 1 0
15.344971 11.226708 -1.7748599 4 3201043579192 1 0
22.924713 16.767092 0.33065334 66 3201043581496 1 0
19.049093 17.020891 -1.7863238 8 3201043581496 1 0
17.164722 13.886497 -1.8023858 7 3201043583800 1 0
22.016626 21.69114 0.8994793 37 3201043583800 1 0
22.3055 18.040089 0.50074446 100 3201043586104 1 0
20.075687 19.773142 -1.8059051 6 3201043586104 1 0
41.960396 37.459858 3.275785 24 3201043588408 1 0
22.9496 16.769928 -1.6553342 58 3201043588408 1 0
22.304974 18.028933 1.1684618 70 3201043590712 1 0
22.942348 20.47563 -1.432414 14 3201043590712 1 0
22.326574 18.041025 -1.5043447 83 3201043593016 1 0
22.298111 18.012665 2.3400424 41 3201043595320 1 0
22.93801 22.566053 -1.3109373 15 3201043595320 1 0
21.231857 18.9435 3.4937503 17 3201043593016 1 0
22.951954 16.751175 -0.9922625 88 3201043597624 1 0
0 0 0 67 3201043597624 1 0
22.49533 18.16117 5.271292 39 3201043599928 1 0
23.468447 20.920647 -0.73157924 17 3201043599928 1 0
0 0 0 4 3201043620664 1 0
23.457943 23.003819 -0.5734861 14 3201043620664 1 0
22.34448 17.985765 -0.83478194 92 3201043622968 1 0
4.7820897 4.2504663 -1.7910587 6 3201043622968 1 0
7.0283704 5.6556687 -1.8042791 2 3201043625272 1 0
22.488623 19.982716 0 34 3201043625272 1 0
8.616633 7.65424 -1.793077 5 3201043627576 1 0
22.97339 16.700336 -0.33065334 100 3201043627576 1 0
11.1285095 8.949684 -1.8177574 3 3201043629880 1 0
21.897152 21.448267 0.17814678 34 3201043629880 1 0
22.351559 17.970043 -0.16668569 34 3201043632184 1 0
12.517842 11.113209 -1.8030859 5 3201043632184 1 0
15.361508 11.156693 -1.7722574 4 3201043634488 1 0
22.811184 20.245598 0.7097119 40 3201043634488 1 0
22.970156 16.677568 0.33046708 67 3201043636792 1 0
17.194443 13.811516 -1.800433 7 3201043639096 1 0
19.060637 16.91192 -1.7818594 8 3201043636792 1 0
21.972172 21.496717 0.8945921 29 3201043639096 1 0
22.349625 17.947092 0.50032556 100 3201043641400 1 0
20.153149 19.711319 -1.8066726 6 3201043641400 1 0
22.9983 16.682684 -1.6546365 58 3201043643704 1 0
21.756626 19.287031 1.6932409 9 3201043643704 1 0
22.35842 17.94346 1.1679733 70 3201043646008 1 0
22.935934 20.326519 -1.4275749 14 3201043646008 1 0
22.376951 17.952982 -1.5035074 87 3201043648312 1 0
21.167099 18.753428 3.4723012 21 3201043648312 1 0
22.342192 17.919752 2.3380895 46 3201043650616 1 0
22.939451 22.410439 -1.3065408 14 3201043650616 1 0
23.000574 16.66392 -0.9918437 92 3201043652920 1 0
21.787815 19.292055 7.7977004 17 3201043652920 1 0
22.586222 18.104687 5.2777495 39 3201043655224 1 0
23.52037 20.820045 -0.7309279 43 3201043655224 1 0
0 0 0 4 3201043675960 1 0
28.83023 28.075361 -0.70242447 6 3201043675960 1 0
22.397757 17.900171 -0.8344329 92 3201043678264 1 0
4.799785 4.2362967 -1.792137 5 3201043678264 1 0
7.045005 5.6286526 -1.8034946 2 3201043680568 1 0
22.567236 19.912033 0 34 3201043680568 1 0
0 0 0 7 3201043682872 1 0
11.134876 8.890976 -1.8137168 3 3201043685176 1 0
8.646263 7.6267304 -1.7936919 4 3201043682872 1 0
21.883001 21.285244 0.1774261 38 3201043685176 1 0
22.392267 17.874445 -0.16652295 34 3201043687480 1 0
12.529709 11.045776 -1.7992305 5 3201043687480 1 0
15.3680525 11.079712 -1.7685398 4 3201043689784 1 0
26.13349 18.835358 0.37502915 24 3201043692088 1 0
22.791712 20.086529 0.7069203 44 3201043689784 1 0
19.098595 16.826818 -1.7799062 8 3201043692088 1 0
17.223848 13.736497 -1.7984803 6 3201043694392 1 0
22.061415 21.433819 0.8951739 21 3201043694392 1 0
22.396502 17.856503 0.49997655 100 3201043696696 1 0
20.050022 19.473978 -1.7913227 6 3201043696696 1 0
23.03371 16.585968 -1.6530087 15 3201043699000 1 0
0 0 0 9 3201043699000 1 0
22.399038 17.84787 1.1668335 70 3201043701304 1 0
22.955753 20.20146 -1.4244107 19 3201043701304 1 0
22.41761 17.85734 -1.5020419 83 3201043703608 1 0
23.474014 20.65148 3.8388844 10 3201043703608 1 0
22.392132 17.83172 2.3367877 41 3201043705912 1 0
22.928612 22.243958 -1.3014932 14 3201043705912 1 0
0 0 0 32 3201043708216 1 0
21.802795 19.169962 7.779065 12 3201043708216 1 0
22.670835 18.042889 5.2827716 39 3201043710520 1 0
23.622938 20.76422 -0.7318584 35 3201043710520 1 0
0 0 0 4 3201043731256 1 0
0 0 0 29 3201043731256 1 0
22.44144 17.806805 -0.8337347 92 3201043733560 1 0
4.8145742 4.2194815 -1.792137 4 3201043733560 1 0
7.0616183 5.601486 -1.8027102 2 3201043735864 1 0
22.603798 19.803814 0 42 3201043735864 1 0
8.658133 7.583293 -1.7906173 5 3201043738168 1 0
24.120546 17.27737 -0.34541422 74 3201043738168 1 0
11.147445 8.83694 -1.8106863 3 3201043740472 1 0
21.88298 21.13584 0.17682166 38 3201043740472 1 0
22.439495 17.782934 -0.1664067 100 3201043742776 1 0
12.544649 10.98056 -1.7958033 5 3201043742776 1 0
15.387682 11.011421 -1.766309 4 3201043745080 1 0
22.910713 20.047985 0.70840913 36 3201043745080 1 0
26.265093 18.78923 0.3759604 24 3201043747384 1 0
19.137045 16.740685 -1.777953 8 3201043747384 1 0
17.272488 13.675286 -1.7984803 6 3201043749688 1 0
22.03087 21.252682 0.8908685 29 3201043749688 1 0
22.441042 17.761852 0.49955767 100 3201043751992 1 0
20.107653 19.391472 -1.7902994 9 3201043751992 1 0
23.865887 17.056389 -1.708357 28 3201043754296 1 0
0 0 0 6 3201043754296 1 0
22.443815 17.752901 1.1658565 70 3201043756600 1 0
23.093937 20.1772 -1.4285055 14 3201043756600 1 0
22.468826 17.767107 -1.5012046 87 3201043758904 1 0
23.712214 20.711004 3.8656955 10 3201043758904 1 0
22.443407 17.741436 2.335486 41 3201043761208 1 0
26.218872 18.713825 -1.1248806 10 3201043763512 1 0
22.930492 22.08675 -1.2970967 14 3201043761208 1 0
21.737627 18.974636 7.7314425 37 3201043763512 1 0
22.751078 17.97336 5.2863593 39 3201043765816 1 0
26.439394 23.071665 -0.81653625 10 3201043765816 1 0
0 0 0 4 3201043786552 1 0
23.026394 22.104673 -0.5571506 9 3201043786552 1 0
22.490849 17.712063 -0.8331529 87 3201043788856 1 0
4.8241944 4.1967506 -1.7899804 4 3201043788856 1 0
7.0790195 5.57314 -1.8019257 2 3201043791160 1 0
22.760742 19.79433 0 63 3201043791160 1 0
24.291292 17.265316 -0.34695083 20 3201043793464 1 0
8.685868 7.5515084 -1.7906173 5 3201043793464 1 0
11.167285 8.786208 -1.808666 3 3201043795768 1 0
21.870796 20.969675 0.17610098 38 3201043795768 1 0
22.488804 17.688206 -0.16629048 100 3201043798072 1 0
12.563796 10.916248 -1.7928046 5 3201043798072 1 0
15.401959 10.936502 -1.7633349 4 3201043800376 1 0
22.996115 19.974367 0.70878136 32 3201043800376 1 0
26.464245 18.785444 0.377823 16 3201043802680 1 0
19.18321 16.65735 -1.7765579 8 3201043802680 1 0
17.325628 13.61435 -1.7988057 6 3201043804984 1 0
22.088402 21.152435 0.890054 32 3201043804984 1 0
22.487122 17.66466 0.49913883 85 3201043807288 1 0
23.911955 16.95725 -1.7071942 12 3201043809592 1 0
20.193008 19.331446 -1.7915787 9 3201043807288 1 0
31.795446 27.583387 2.4513736 11 3201043809592 1 0
22.486727 17.653246 1.1647167 70 3201043811896 1 0
23.252256 20.165722 -1.433717 14 3201043811896 1 0
22.51494 17.669838 -1.4999485 87 3201043814200 1 0
26.8777 23.302729 4.3677974 12 3201043814200 1 0
22.467506 17.627068 2.331255 37 3201043816504 1 0
22.939074 21.933506 -1.2930261 14 3201043816504 1 0
24.346241 17.242884 -1.0418198 12 3201043818808 1 0
21.786585 18.877125 7.7241955 20 3201043818808 1 0
22.844671 17.911705 5.292816 48 3201043821112 1 0
23.918251 20.717726 -0.7363249 8 3201043821112 1 0
0 0 0 4 3201043841296 1 0
23.185432 22.117802 -0.5593147 9 3201043841296 1 0
22.527359 17.6267 -0.83245474 92 3201043843600 1 0
4.828583 4.1740522 -1.7867455 4 3201043843600 1 0
7.080965 5.538893 -1.7980033 2 3201043845904 1 0
23.4369 20.253996 0 13 3201043845904 1 0
26.557035 18.751287 -0.3784749 9 3201043848208 1 0
8.697422 7.514038 -1.7881577 5 3201043848208 1 0
11.182073 8.741632 -1.8066458 3 3201043850512 1 0
21.883833 20.851833 0.17568253 34 3201043850512 1 0
22.527863 17.605972 -0.16617423 100 3201043852816 1 0
12.570541 10.853791 -1.7889491 3 3201043852816 1 0
15.41624 10.874961 -1.7611042 4 3201043855120 1 0
23.09421 19.934387 0.709898 36 3201043855120 1 0
26.59082 18.751968 0.37880084 17 3201043857424 1 0
19.225538 16.59016 -1.7757208 8 3201043857424 1 0
17.367525 13.5608635 -1.7988057 6 3201043859728 1 0
22.13614 21.067688 0.8893558 25 3201043859728 1 0
22.52559 17.583097 0.4987898 100 3201043862032 1 0
20.191648 19.211454 -1.7862061 9 3201043862032 1 0
23.95409 16.876888 -1.7064966 12 3201043864336 1 0
22.331991 19.253798 1.7171941 14 3201043864336 1 0
23.401659 20.17009 -1.4391146 14 3201043866640 1 0
22.531216 17.576942 1.1642282 65 3201043866640 1 0
22.553057 17.588705 -1.4989018 87 3201043868944 1 0
26.897617 23.17647 4.35951 12 3201043868944 1 0
22.473951 17.521757 2.326373 37 3201043871248 1 0
22.930475 21.791924 -1.2887925 14 3201043871248 1 0
24.532583 17.263119 -1.0475433 8 3201043873552 1 0
22.923716 17.861696 5.2985563 43 3201043875856 1 0
21.893639 18.853672 7.741795 16 3201043873552 1 0
23.980968 20.645098 -0.7363249 13 3201043875856 1 0
0 0 0 4 3201043896592 1 0
23.213139 21.989977 -0.55812794 13 3201043896592 1 0
22.569807 17.53324 -0.83175653 87 3201043898896 1 0
7.106452 5.5189543 -1.7995722 2 3201043901200 1 0
4.851892 4.1646986 -1.7899804 5 3201043898896 1 0
23.043015 19.773518 0 68 3201043901200 1 0
27.729408 19.434378 -0.39421365 45 3201043903504 1 0
8.714598 7.475912 -1.7863129 5 3201043903504 1 0
21.944864 20.764322 0.17558953 34 3201043905808 1 0
11.199981 8.692815 -1.8046255 3 3201043905808 1 0
22.57022 17.512516 -0.16603474 34 3201043908112 1 0
12.587216 10.791725 -1.7859504 5 3201043908112 1 0
15.43127 10.805091 -1.7585018 4 3201043910416 1 0
23.297249 19.968157 0.7139923 37 3201043910416 1 0
27.74071 19.418242 0.39421365 48 3201043912720 1 0
19.271212 16.512564 -1.7746047 8 3201043912720 1 0
17.399002 13.487945 -1.7971785 6 3201043915024 1 0
22.119465 20.905153 0.88574857 32 3201043915024 1 0
22.574186 17.494562 0.49851054 96 3201043917328 1 0
20.249882 19.132631 -1.7854387 6 3201043917328 1 0
24.016127 16.79546 -1.706729 12 3201043919632 1 0
26.397163 22.59848 2.023703 14 3201043919632 1 0
22.573475 17.483503 1.1632513 61 3201043921936 1 0
23.556921 20.161026 -1.444326 14 3201043921936 1 0
22.598522 17.497646 -1.4978551 87 3201043924240 1 0
26.896904 23.01275 4.3463483 19 3201043924240 1 0
22.544436 17.450521 2.3273494 37 3201043926544 1 0
22.945364 21.654142 -1.2853731 14 3201043926544 1 0
26.892675 22.995586 9.481059 6 3201043928848 1 0
26.696705 18.646978 -1.1371652 15 3201043928848 1 0
23.01705 17.805645 5.305731 40 3201043931152 1 0
26.48766 22.642595 -0.81086004 60 3201043931152 1 0
0 0 0 4 3201043951888 1 0
22.618206 17.444582 -0.8312911 87 3201043954192 1 0
27.971012 26.3125 -0.67031205 6 3201043951888 1 0
4.8693314 4.1502357 -1.7910587 2 3201043954192 1 0
7.119461 5.4893246 -1.7980033 2 3201043956496 1 0
23.197145 19.7656 0 29 3201043956496 1 0
24.973373 17.373112 -0.35416833 66 3201043958800 1 0
8.731614 7.4377584 -1.7844683 5 3201043958800 1 0
11.2145405 8.641557 -1.8021001 3 3201043961104 1 0
21.970572 20.64377 0.17521757 29 3201043961104 1 0
12.603612 10.729676 -1.7829517 3 3201043963408 1 0
22.61537 17.42142 -0.16591851 100 3201043963408 1 0
15.459081 10.744341 -1.7573864 4 3201043965712 1 0
23.61348 20.096647 0.72152954 33 3201043965712 1 0
24.963768 17.344887 0.35388893 42 3201043968016 1 0
19.319616 16.437437 -1.7737676 8 3201043968016 1 0
17.436499 13.419833 -1.7962021 6 3201043970320 1 0
22.107756 20.748465 0.8823741 32 3201043970320 1 0
22.609758 17.396147 0.49795207 81 3201043972624 1 0
20.31072 19.056366 -1.784927 6 3201043972624 1 0
24.045084 16.69103 -1.7046361 12 3201043974928 1 0
0 0 0 9 3201043974928 1 0
23.718494 20.156298 -1.4499098 14 3201043977232 1 0
22.621693 17.394855 1.1625999 70 3201043977232 1 0
22.64363 17.406483 -1.4968083 87 3201043979536 1 0
26.196442 22.25553 4.220579 12 3201043979536 1 0
22.617855 17.381437 2.3286512 41 3201043981840 1 0
22.985815 21.54112 -1.2834191 9 3201043981840 1 0
24.93832 17.289585 -1.0596883 13 3201043984144 1 0
0 0 0 38 3201043984144 1 0
23.110271 17.749163 5.312906 40 3201043986448 1 0
26.715923 22.6768 -0.8154196 35 3201043986448 1 0
0 0 0 4 3201044007184 1 0
27.937017 26.097307 -0.66731024 18 3201044007184 1 0
22.659914 17.350939 -0.83059293 92 3201044009488 1 0
4.9220123 4.165562 -1.8050766 0 3201044009488 1 0
7.138579 5.4644394 -1.7980033 2 3201044011792 1 0
24.95158 17.229015 -0.35300422 96 3201044014096 1 0
23.284323 19.700008 0 38 3201044011792 1 0
8.760542 7.409786 -1.7850832 4 3201044014096 1 0
11.232031 8.592714 -1.8000798 3 3201044016400 1 0
21.984005 20.512377 0.17475262 25 3201044016400 1 0
22.653803 17.325361 -0.16575578 35 3201044018704 1 0
15.430925 10.645082 -1.7499509 4 3201044021008 1 0
12.619728 10.667644 -1.779953 5 3201044018704 1 0
23.85453 20.158642 0.7267405 42 3201044021008 1 0
24.994526 17.237204 0.35346985 42 3201044023312 1 0
19.361635 16.357023 -1.7723725 8 3201044023312 1 0
17.442055 13.32742 -1.7919712 6 3201044025616 1 0
22.147871 20.641182 0.8810941 36 3201044025616 1 0
22.663988 17.312262 0.49781245 100 3201044027920 1 0
20.318705 18.93093 -1.7798104 9 3201044027920 1 0
24.037436 16.561684 -1.699985 12 3201044030224 1 0
26.487152 22.356977 2.0185869 14 3201044030224 1 0
22.672743 17.30851 1.1621114 74 3201044032528 1 0
23.886429 20.15584 -1.4558657 14 3201044032528 1 0
22.69155 17.317642 -1.495971 91 3201044034832 1 0
33.19903 28.005732 5.3330026 9 3201044034832 1 0
22.659372 17.287872 2.3266985 41 3201044037136 1 0
23.022833 21.425358 -1.2813023 14 3201044037136 1 0
25.014986 17.21376 -1.0603863 61 3201044039440 1 0
23.33645 19.67433 8.178681 9 3201044039440 1 0
23.181475 17.675543 5.315058 40 3201044041744 1 0
26.785744 22.575674 -0.8151404 15 3201044041744 1 0
0 0 0 4 3201044062480 1 0
28.854795 26.766645 -0.6869965 6 3201044062480 1 0
22.701244 17.257217 -0.8298948 87 3201044064784 1 0
0 0 0 1 3201044064784 1 0
7.154487 5.4371147 -1.7972188 2 3201044067088 1 0
23.38051 19.641768 0 29 3201044067088 1 0
8.774246 7.3689938 -1.7826235 4 3201044069392 1 0
11.249317 8.543855 -1.7980595 3 3201044071696 1 0
25.14354 17.23226 -0.35486677 48 3201044069392 1 0
22.043737 20.424639 0.17465962 21 3201044071696 1 0
12.644704 10.6133 -1.7782394 5 3201044074000 1 0
15.448273 10.577653 -1.7477202 4 3201044076304 1 0
0 0 0 1 3201044076304 1 0
25.133757 17.204073 0.3545874 23 3201044078608 1 0
22.70777 17.241343 -0.16570929 87 3201044074000 1 0
19.375814 16.253437 -1.7684661 8 3201044078608 1 0
17.456707 13.24236 -1.7887166 6 3201044080912 1 0
22.252068 20.59362 0.8823741 29 3201044080912 1 0
20.36708 18.843624 -1.7782754 9 3201044083216 1 0
22.711535 17.22338 0.4975332 81 3201044083216 1 0
24.062138 16.455135 -1.6976594 12 3201044085520 1 0
25.750942 21.582088 1.9567269 13 3201044085520 1 0
22.717096 17.217192 1.1612973 78 3201044087824 1 0
24.05771 20.15702 -1.4620079 14 3201044087824 1 0
22.729574 17.221443 -1.4945055 87 3201044090128 1 0
26.351175 22.072104 4.220579 6 3201044090128 1 0
22.70687 17.199041 2.3253965 46 3201044092432 1 0
23.103352 21.350288 -1.281628 14 3201044092432 1 0
25.213566 17.221031 -1.0662494 48 3201044094736 1 0
0 0 0 96 3201044094736 1 0
23.25872 17.606392 5.3186455 58 3201044097040 1 0
31.39085 26.270105 -0.95248604 6 3201044097040 1 0
22.308916 20.550058 -0.52943623 12 3201044117776 1 0
0 0 0 4 3201044117776 1 0
22.745388 17.165827 -0.8293129 92 3201044120080 1 0
0 0 0 1 3201044120080 1 0
7.160898 5.4026585 -1.794081 2 3201044122384 1 0
22.109694 18.442905 0 81 3201044122384 1 0
25.345743 17.241121 -0.35686904 48 3201044124688 1 0
8.79081 7.3307266 -1.7807788 4 3201044124688 1 0
11.266398 8.49498 -1.7960392 3 3201044126992 1 0
22.070745 20.306942 0.17431092 33 3201044126992 1 0
22.751844 17.149933 -0.16559304 83 3201044129296 1 0
12.660289 10.551274 -1.7752407 5 3201044129296 1 0
15.462044 10.507994 -1.7451178 4 3201044131600 1 0
0 0 0 28 3201044131600 1 0
25.27306 17.17018 0.35570493 7 3201044133904 1 0
19.414036 16.170382 -1.7667919 8 3201044133904 1 0
17.467794 13.154963 -1.7851366 6 3201044136208 1 0
22.323816 20.51582 0.8823741 32 3201044136208 1 0
22.75554 17.131968 0.49718416 78 3201044138512 1 0
20.388641 18.731905 -1.774438 9 3201044138512 1 0
24.096302 16.355345 -1.6960316 12 3201044140816 1 0
0 0 0 54 3201044140816 1 0
22.764284 17.128178 1.160646 78 3201044143120 1 0
22.14363 18.422112 -1.3417715 59 3201044143120 1 0
22.767202 17.125189 -1.4930402 83 3201044145424 1 0
0 0 0 40 3201044145424 1 0
22.757208 17.112488 2.3244202 40 3201044147728 1 0
23.192461 21.283024 -1.2824422 14 3201044147728 1 0
25.415808 17.229368 -1.0722522 49 3201044150032 1 0
22.57293 18.762602 7.864993 17 3201044150032 1 0
23.338913 17.53928 5.3229504 63 3201044152336 1 0
0 0 0 66 3201044152336 1 0
0 0 0 4 3201044173072 1 0
28.887505 26.424183 -0.6833664 13 3201044173072 1 0
22.79237 17.076736 -0.82884747 92 3201044175376 1 0
0 0 0 1 3201044175376 1 0
7.1797132 5.3776293 -1.794081 2 3201044177680 1 0
22.161613 18.35541 0 36 3201044177680 1 0
25.545 17.246542 -0.35882476 45 3201044179984 1 0
11.286453 8.448467 -1.794524 3 3201044182288 1 0
8.810256 7.2949553 -1.779549 5 3201044179984 1 0
22.79876 17.060823 -0.16550006 79 3201044184592 1 0
22.123777 20.213589 0.17417143 20 3201044182288 1 0
12.67253 10.486733 -1.7718135 5 3201044184592 1 0
22.166288 18.33755 0.6694201 94 3201044186896 1 0
15.4821205 10.442822 -1.743259 4 3201044186896 1 0
25.379269 17.113163 0.35635683 7 3201044189200 1 0
19.458063 16.092344 -1.7656759 8 3201044189200 1 0
17.48487 13.072424 -1.7822074 6 3201044191504 1 0
22.37462 20.418903 0.88155955 36 3201044191504 1 0
22.799187 17.04046 0.4968351 78 3201044193808 1 0
20.338894 18.555695 -1.7644606 9 3201044193808 1 0
24.110191 16.24213 -1.6930083 12 3201044196112 1 0
22.807922 17.036652 1.1598319 74 3201044198416 1 0
22.163904 18.313868 1.6744038 78 3201044196112 1 0
22.195478 18.334524 -1.341027 30 3201044198416 1 0
22.81404 17.03605 -1.4922028 83 3201044200720 1 0
22.151474 18.292755 3.5273862 78 3201044200720 1 0
23.177988 21.121178 -1.2775573 14 3201044203024 1 0
25.62173 17.238733 -1.0783944 45 3201044205328 1 0
22.653187 18.695992 7.8701696 8 3201044205328 1 0
22.79444 17.01625 2.3221421 45 3201044203024 1 0
23.431534 17.481237 5.3301253 18 3201044207632 1 0
22.20878 18.323788 -0.66997844 50 3201044207632 1 0
0 0 0 4 3201044228368 1 0
0 0 0 21 3201044228368 1 0
22.839008 16.987528 -0.8283821 85 3201044230672 1 0
7.1952934 5.350194 -1.7932965 2 3201044232976 1 0
0 0 0 1 3201044230672 1 0
22.200836 18.257612 0 33 3201044232976 1 0
25.747923 17.253006 -0.36082703 43 3201044235280 1 0
11.296766 8.394818 -1.7914935 3 3201044237584 1 0
22.203089 20.144302 0.17424117 16 3201044237584 1 0
8.823454 7.254117 -1.7770894 6 3201044235280 1 0
22.83891 16.966825 -0.16536057 79 3201044239888 1 0
12.67833 10.417187 -1.7675297 5 3201044239888 1 0
15.495312 10.373207 -1.7406565 4 3201044242192 1 0
22.205442 18.239756 0.6686757 83 3201044242192 1 0
25.362396 16.973303 0.35528585 7 3201044244496 1 0
19.4987 16.011663 -1.7642807 8 3201044244496 1 0
17.475973 12.970917 -1.7766746 6 3201044246800 1 0
22.487238 20.378265 0.8831886 32 3201044246800 1 0
22.839258 16.946474 0.49641624 78 3201044249104 1 0
20.385792 18.468506 -1.7629256 9 3201044249104 1 0
24.073792 16.095724 -1.6864967 8 3201044251408 1 0
22.206085 18.21866 1.6727759 69 3201044251408 1 0
22.851202 16.94503 1.1590177 74 3201044253712 1 0
22.243895 18.244267 -1.3400964 100 3201044253712 1 0
22.860533 16.946796 -1.4913654 83 3201044256016 1 0
22.196772 18.200216 3.5244615 61 3201044256016 1 0
22.837683 16.924711 2.3205147 45 3201044258320 1 0
23.260464 21.04819 -1.2780458 14 3201044258320 1 0
25.81473 17.237991 -1.0839784 40 3201044260624 1 0
22.703367 18.604557 7.864993 8 3201044260624 1 0
23.707445 17.558601 5.3789134 4 3201044262928 1 0
22.24786 18.22588 -0.66923404 38 3201044262928 1 0
0 0 0 4 3201044283664 1 0
23.001024 20.74659 -0.5406756 8 3201044283664 1 0
22.885178 16.898367 -0.8279166 90 3201044285968 1 0
0 0 0 1 3201044285968 1 0
7.210692 5.3228207 -1.792512 2 3201044288272 1 0
22.248676 18.16768 0 34 3201044288272 1 0
25.970808 17.27212 -0.36310866 46 3201044290576 1 0
8.842441 7.218467 -1.7758595 5 3201044290576 1 0
11.312985 8.346241 -1.7894733 3 3201044292880 1 0
22.254856 20.05126 0.17410168 28 3201044292880 1 0
22.878067 16.873587 -0.16522108 87 3201044295184 1 0
12.692669 10.355731 -1.764531 3 3201044295184 1 0
15.517708 10.310916 -1.7391694 4 3201044297488 1 0
25.26071 16.779734 0.35305077 7 3201044299792 1 0
22.25269 18.150467 0.66821045 83 3201044297488 1 0
19.513456 15.9117155 -1.7606534 8 3201044299792 1 0
17.494717 12.891934 -1.774071 6 3201044302096 1 0
22.607576 20.346428 0.88516676 39 3201044302096 1 0
20.431126 18.382551 -1.7613907 9 3201044304400 1 0
22.88429 16.858656 0.49613702 78 3201044304400 1 0
24.038832 15.953729 -1.6802177 8 3201044306704 1 0
22.252747 18.130043 1.6716131 69 3201044306704 1 0
22.895988 16.857515 1.1583663 78 3201044309008 1 0
22.284304 18.15063 -1.3387935 100 3201044309008 1 0
22.90199 16.857056 -1.4903187 83 3201044311312 1 0
22.237036 18.10702 3.521049 61 3201044311312 1 0
22.888607 16.842329 2.3198638 45 3201044313616 1 0
23.299114 20.939684 -1.2762547 14 3201044313616 1 0
26.02627 17.25201 -1.0903999 46 3201044315920 1 0
22.976057 18.698229 7.9374623 13 3201044315920 1 0
23.715963 17.44103 5.367434 13 3201044318224 1 0
22.287651 18.132875 -0.6685827 37 3201044318224 1 0
0 0 0 4 3201044338960 1 0
22.931538 16.815125 -0.8275675 90 3201044341264 1 0
0 0 0 43 3201044338960 1 0
7.231544 5.3010936 -1.7932965 2 3201044343568 1 0
0 0 0 1 3201044341264 1 0
22.290422 18.07836 0 33 3201044343568 1 0
26.168505 17.277895 -0.36506438 46 3201044345872 1 0
8.860346 7.183933 -1.7746297 5 3201044345872 1 0
11.33444 8.303659 -1.7884631 3 3201044348176 1 0
22.928053 16.792067 -0.16517459 94 3201044350480 1 0
22.357574 20.00871 0.17438066 25 3201044348176 1 0
12.705686 10.295594 -1.7615323 5 3201044350480 1 0
15.482447 10.21267 -1.7313621 4 3201044352784 1 0
25.29703 16.681374 0.35277137 3 3201044355088 1 0
19.548315 15.830855 -1.7589792 8 3201044355088 1 0
22.291794 18.057981 0.6675591 87 3201044352784 1 0
17.496292 12.802224 -1.76984 6 3201044357392 1 0
22.75957 20.344639 0.88842493 32 3201044357392 1 0
22.928257 16.77173 0.49585778 82 3201044359696 1 0
20.49317 18.313358 -1.7613907 9 3201044359696 1 0
24.052742 15.845811 -1.677427 11 3201044362000 1 0
22.301641 18.044481 1.6706829 69 3201044362000 1 0
22.9402 16.770226 1.1577151 78 3201044364304 1 0
22.949554 16.771944 -1.4896907 78 3201044366608 1 0
22.327177 18.059769 -1.3376768 100 3201044364304 1 0
22.286182 18.021248 3.5190992 61 3201044366608 1 0
22.93304 16.754759 2.318562 45 3201044368912 1 0
23.34058 20.833483 -1.2746264 13 3201044368912 1 0
26.238703 17.264027 -1.0968214 46 3201044371216 1 0
0 0 0 67 3201044371216 1 0
23.791454 17.371298 5.3710213 9 3201044373520 1 0
22.327854 18.03884 -0.66793126 34 3201044373520 1 0
0 0 0 4 3201044394256 1 0
23.246286 20.682592 -0.5431189 8 3201044394256 1 0
22.967466 16.718504 -0.82675296 90 3201044396560 1 0
0 0 0 1 3201044396560 1 0
22.337814 17.987896 0 36 3201044398864 1 0
26.395931 17.296051 -0.3673926 46 3201044401168 1 0
8.879211 7.1480036 -1.7733998 5 3201044401168 1 0
7.24049 5.268895 -1.7909431 2 3201044398864 1 0
11.353729 8.257043 -1.7869478 3 3201044403472 1 0
22.561827 20.050114 0.1754268 34 3201044403472 1 0
22.980059 16.707226 -0.1651281 79 3201044405776 1 0
12.729152 10.241209 -1.7598187 16 3201044405776 1 0
15.4913435 10.141113 -1.728388 4 3201044408080 1 0
25.274782 16.540403 0.35165384 11 3201044410384 1 0
22.339111 17.967527 0.6670938 87 3201044408080 1 0
19.57547 15.740019 -1.756468 8 3201044410384 1 0
17.505392 12.7153 -1.76626 6 3201044412688 1 0
22.905203 20.331425 0.89133394 32 3201044412688 1 0
23.031967 16.724493 0.4968351 63 3201044414992 1 0
20.568914 18.25231 -1.762414 9 3201044414992 1 0
24.08117 15.744273 -1.6755666 11 3201044417296 1 0
22.348928 17.95402 1.6695201 64 3201044417296 1 0
22.98566 16.680658 1.1570637 17 3201044419600 1 0
22.374506 17.969213 -1.3367461 100 3201044419600 1 0
22.995026 16.68235 -1.4888533 83 3201044421904 1 0
22.317995 17.91849 3.5142243 61 3201044421904 1 0
0 0 0 17 3201044424208 1 0
23.425123 20.762487 -1.2752777 14 3201044424208 1 0
26.449429 17.270685 -1.1031033 47 3201044426512 1 0
23.288511 18.68655 8.000614 13 3201044426512 1 0
25.607546 18.560621 5.7663503 15 3201044428816 1 0
22.37509 17.948278 -0.66746604 34 3201044428816 1 0
0 0 0 4 3201044449552 1 0
23.561115 20.815807 -0.54877347 13 3201044449552 1 0
0 0 0 28 3201044451856 1 0
0 0 0 1 3201044451856 1 0
7.2588377 5.243589 -1.7909431 2 3201044454160 1 0
22.387972 17.899822 0 36 3201044454160 1 0
26.607037 17.301928 -0.36948797 46 3201044456464 1 0
8.891759 7.1070952 -1.7709402 5 3201044456464 1 0
11.382483 8.217361 -1.7869478 3 3201044458768 1 0
0 0 0 47 3201044461072 1 0
12.743072 10.179338 -1.75682 7 3201044461072 1 0
15.503269 10.071789 -1.7257855 4 3201044463376 1 0
22.389194 17.879457 0.6667216 87 3201044463376 1 0
25.651033 16.659037 0.35607746 7 3201044465680 1 0
19.605347 15.651676 -1.7542357 8 3201044465680 1 0
17.5141 12.6284685 -1.7626799 6 3201044467984 1 0
23.075016 20.33859 0.8951739 39 3201044467984 1 0
23.288113 16.78665 0.5010935 34 3201044470288 1 0
22.613682 19.955357 0.17528732 29 3201044458768 1 0
24.062283 15.612301 -1.6704503 7 3201044472592 1 0
20.63849 18.185677 -1.7629256 9 3201044470288 1 0
22.392733 17.860956 1.6681248 69 3201044472592 1 0
25.398062 18.29633 1.2752777 15 3201044474896 1 0
22.424597 17.881037 -1.3360016 100 3201044474896 1 0
0 0 0 17 3201044477200 1 0
26.019608 18.732586 2.6173325 17 3201044479504 1 0
23.527456 20.706997 -1.276906 14 3201044479504 1 0
26.663874 17.278254 -1.1095248 47 3201044481808 1 0
23.272005 18.540142 7.972662 8 3201044481808 1 0
25.809532 18.569946 5.7972016 5 3201044484112 1 0
22.421965 17.857609 -0.6670008 35 3201044484112 1 0
0 0 0 4 3201044505296 1 0
23.618599 20.72025 -0.5484244 13 3201044505296 1 0
24.110283 17.294174 -0.8635234 14 3201044507600 1 0
0 0 0 1 3201044507600 1 0
22.361778 17.825626 3.5112996 61 3201044477200 1 0
7.2739096 5.2159333 -1.7901586 2 3201044509904 1 0
26.81514 17.30437 -0.37153682 48 3201044512208 1 0
22.43152 17.806643 0 34 3201044509904 1 0
8.901032 7.063729 -1.7678657 5 3201044512208 1 0
11.391745 8.163711 -1.7839174 3 3201044514512 1 0
22.635067 19.83412 0.17491536 34 3201044514512 1 0
12.747367 10.110082 -1.752536 5 3201044516816 1 0
15.521596 10.006821 -1.7239265 4 3201044519120 1 0
26.305468 18.8456 -0.18807353 30 3201044516816 1 0
22.438936 17.791258 0.6663494 83 3201044519120 1 0
25.974623 16.740572 0.35975602 8 3201044521424 1 0
19.641098 15.568274 -1.7525617 8 3201044521424 1 0
17.532139 12.548693 -1.7600763 6 3201044523728 1 0
22.953314 20.08939 0.8877267 39 3201044523728 1 0
23.473415 16.796022 0.50381607 42 3201044526032 1 0
20.59069 18.016268 -1.7534599 9 3201044526032 1 0
24.079702 15.504434 -1.6678922 7 3201044528336 1 0
22.44242 17.772766 1.6671946 69 3201044528336 1 0
26.251764 18.77248 1.3148452 33 3201044530640 1 0
22.471212 17.79025 -1.335071 100 3201044530640 1 0
25.271893 18.066225 -1.6280669 15 3201044532944 1 0
22.4083 17.735142 3.508862 56 3201044532944 1 0
26.311888 18.80391 2.6401143 18 3201044535248 1 0
23.536398 20.569513 -1.2734866 13 3201044535248 1 0
26.871967 17.28021 -1.1156671 43 3201044537552 1 0
0 0 0 57 3201044537552 1 0
22.46848 17.766832 -0.6665355 34 3201044539856 1 0
23.664642 16.901646 5.3021436 8 3201044539856 1 0
0 0 0 4 3201044560592 1 0
23.841564 20.76903 -0.55191493 36 3201044560592 1 0
24.29753 17.300352 -0.86806154 14 3201044562896 1 0
0 0 0 1 3201044562896 1 0
7.2856812 5.1859617 -1.7885897 2 3201044565200 1 0
22.474691 17.713377 0 33 3201044565200 1 0
27.026953 17.307728 -0.3736322 55 3201044567504 1 0
8.925635 7.0326157 -1.7678657 4 3201044567504 1 0
11.410472 8.116996 -1.7824023 3 3201044569808 1 0
22.761497 19.804874 0.17535706 29 3201044569808 1 0
26.345013 18.735117 -0.18788755 21 3201044572112 1 0
12.757584 10.04584 -1.749109 3 3201044572112 1 0
15.543012 9.943994 -1.7224395 4 3201044574416 1 0
22.488333 17.70293 0.6659772 83 3201044574416 1 0
26.093552 16.688593 0.36059418 12 3201044576720 1 0
19.692186 15.49715 -1.7522826 8 3201044576720 1 0
17.543335 12.464327 -1.7568218 6 3201044579024 1 0
23.38846 20.326502 0.90180653 26 3201044579024 1 0
23.646023 16.795038 0.5062594 46 3201044581328 1 0
20.641401 17.933811 -1.7524366 9 3201044581328 1 0
22.479208 17.674574 1.6653341 60 3201044583632 1 0
26.483347 18.798714 1.3231494 16 3201044585936 1 0
24.086565 15.390184 -1.6646365 7 3201044583632 1 0
22.51747 17.699358 -1.3341404 93 3201044585936 1 0
24.341217 17.272839 -1.5642171 13 3201044588240 1 0
22.445097 17.63719 3.5049622 48 3201044588240 1 0
23.526554 20.416504 -1.2690902 13 3201044590544 1 0
27.083767 17.283073 -1.1219491 63 3201044592848 1 0
27.533476 21.622648 9.380637 12 3201044592848 1 0
25.43775 18.034271 5.6852756 15 3201044595152 1 0
26.273314 18.638136 2.6296997 18 3201044590544 1 0
0 0 0 4 3201044615888 1 0
22.876417 19.788237 -0.5279702 8 3201044615888 1 0
24.488375 17.307741 -0.872716 10 3201044618192 1 0
0 0 0 1 3201044618192 1 0
22.505196 17.66854 -0.6657911 100 3201044595152 1 0
7.3005357 5.158235 -1.7878052 2 3201044620496 1 0
22.526934 17.627422 0 100 3201044620496 1 0
27.218859 17.296946 -0.37544823 48 3201044622800 1 0
8.943903 6.996546 -1.7666359 5 3201044622800 1 0
11.429012 8.0702505 -1.780887 3 3201044625104 1 0
22.851679 19.743607 0.1755198 17 3201044625104 1 0
26.567104 18.753763 -0.18900344 26 3201044627408 1 0
12.767508 9.98165 -1.7456819 3 3201044627408 1 0
15.520469 9.853389 -1.7161193 4 3201044629712 1 0
22.496428 17.58246 0.6643953 36 3201044629712 1 0
26.28335 16.680994 0.3624102 8 3201044632016 1 0
19.73044 15.416034 -1.7508875 8 3201044632016 1 0
17.560673 12.384632 -1.754218 6 3201044634320 1 0
23.51073 20.289145 0.9037847 30 3201044634320 1 0
23.835253 16.804577 0.5090518 36 3201044636624 1 0
20.667606 17.830359 -1.7493666 9 3201044636624 1 0
