# .PCD v.7 - Point Cloud Data file format
VERSION .7
FIELDS x y z rgb timestamp_ns device_id active
SIZE 4 4 4 4 8 1 1
TYPE F F F F F U U
COUNT 1 1 1 1 1 1 1
WIDTH 940
HEIGHT 1
VIEWPOINT 0 0 0 1 0 0 0
POINTS 940               
DATA ascii
1.048385 18.874876 -1.1009206 26 3203629506704 1 0
-1.003249 23.730558 1.3832436 17 3203629506704 1 0
0.15544423 23.008387 0.93740726 15 3203629509008 1 0
-0.7443786 17.665152 -0.8236009 50 3203629509008 1 0
0.13091657 18.989489 -0.99522054 49 3203629511312 1 0
-0.9282965 22.102383 2.716224 13 3203629511312 1 0
0.16770773 23.848076 1.9468892 10 3203629513616 1 0
-1.5060332 16.557858 -0.6773692 54 3203629513616 1 0
-0.9515732 22.806917 6.1164117 13 3203629515920 1 0
0.17253055 23.6062 4.3041353 18 3203629518224 1 0
1.1439289 20.391489 -0.7132061 90 3203629515920 1 0
-0.7352128 17.67993 -0.4117576 70 3203629518224 1 0
0.03490939 4.081861 -1.9034727 2 3203629538960 1 0
-1.4843616 16.599226 -0.2908967 55 3203629538960 1 0
0.16601618 19.087196 -0.55551285 45 3203629541264 1 0
-0.28680694 7.135693 -1.9991709 5 3203629541264 1 0
0.095625564 10.813418 -2.1627815 1 3203629543568 1 0
1.1804832 20.380457 -0.23766436 72 3203629545872 1 0
-0.57093084 14.3083515 -2.2278183 7 3203629545872 1 0
-2.1238644 53.03349 0 71 3203629543568 1 0
0.15674937 17.160818 -2.1844404 28 3203629548176 1 0
-1.8649554 20.992968 0.122491896 15 3203629548176 1 0
0.49093565 52.904827 -0.30749673 87 3203629550480 1 0
0 0 0 4 3203629550480 1 0
1.0713065 18.356825 -1.7164911 30 3203629552784 1 0
-0.95199966 24.122686 0.5617583 15 3203629552784 1 0
1.4203421 24.276838 0.28311116 7 3203629555088 1 0
-0.6528016 16.602598 -1.1618638 25 3203629555088 1 0
0 0 0 104 3203629557392 1 0
-1.8087561 20.49563 0.5987995 22 3203629557392 1 0
-1.385588 15.72669 -1.0118083 16 3203629559696 1 0
1.1222117 19.038641 -1.1106879 36 3203629562000 1 0
0.25161314 25.514874 0.44538543 34 3203629559696 1 0
-0.9375633 24.112892 1.4053364 29 3203629562000 1 0
0.23370415 23.019716 0.9378957 31 3203629564304 1 0
-0.6877841 17.755417 -0.8276956 48 3203629564304 1 0
0.19644926 19.076807 -0.99982613 47 3203629566608 1 0
-0.83791137 21.712658 2.6679637 32 3203629566608 1 0
0.24837826 23.78358 1.9416817 27 3203629568912 1 0
-1.4554749 16.630583 -0.6801372 49 3203629568912 1 0
1.2129064 20.37549 -0.71278733 82 3203629571216 1 0
-0.88026935 22.983774 6.162999 13 3203629571216 1 0
0.21989083 20.485094 3.7351773 4 3203629573520 1 0
-0.67754793 17.758268 -0.41352558 67 3203629573520 1 0
0.049113873 4.078089 -1.9017822 2 3203629594256 1 0
-1.4332566 16.684 -0.2922929 54 3203629594256 1 0
0.23386018 19.186451 -0.5584219 42 3203629596560 1 0
-0.26161444 7.128952 -1.9970143 5 3203629596560 1 0
-1.9416522 53.120525 0 41 3203629598864 1 0
0.13312899 10.793408 -2.1588593 1 3203629598864 1 0
1.2518623 20.380205 -0.23771092 70 3203629601168 1 0
0.21765271 17.23952 -2.1945417 27 3203629603472 1 0
-0.5204067 14.294458 -2.2253585 7 3203629601168 1 0
-1.8470913 21.64898 0.12628126 16 3203629603472 1 0
0.6755539 52.898792 -0.30747348 87 3203629605776 1 0
-0.5432809 15.043117 -1.6214494 2 3203629605776 1 0
1.1425086 18.46825 -1.7272725 23 3203629608080 1 0
-0.86865246 24.149841 0.5623166 35 3203629608080 1 0
3.594853 57.972713 0.67620724 20 3203629610384 1 0
-0.5964151 16.64864 -1.1649331 25 3203629610384 1 0
0.23902474 18.098211 -1.4775789 19 3203629612688 1 0
-1.7439536 20.581501 0.6011268 13 3203629612688 1 0
0.33805865 25.317886 0.44196475 50 3203629614992 1 0
-1.329001 15.711543 -1.0105292 16 3203629614992 1 0
1.1948841 19.134243 -1.1165018 26 3203629617296 1 0
0.31574675 23.142647 0.94294345 28 3203629619600 1 0
-0.62932 17.857538 -0.83234876 48 3203629619600 1 0
-0.85960156 24.29161 1.4155688 25 3203629617296 1 0
0.26458067 19.187841 -1.0056877 44 3203629621904 1 0
-0.76225424 21.71942 2.668451 20 3203629621904 1 0
0.3295083 23.647032 1.9306163 20 3203629624208 1 0
-1.4031018 16.703266 -0.6829053 55 3203629624208 1 0
-0.77933925 22.392057 6.0035667 18 3203629626512 1 0
0.28512684 20.043512 3.65482 4 3203629628816 1 0
-0.6187417 17.852446 -0.41566578 60 3203629628816 1 0
1.2837712 20.367142 -0.71264774 90 3203629626512 1 0
0.06329245 4.0742683 -1.9000916 2 3203629649552 1 0
-1.3812495 16.764633 -0.29361928 52 3203629649552 1 0
0.3024618 19.289461 -0.5614473 45 3203629651856 1 0
-0.236856 7.1336713 -1.9980925 5 3203629651856 1 0
0.17074214 10.788957 -2.1580746 2 3203629654160 1 0
-1.7609726 53.2709 0 20 3203629654160 1 0
1.3229948 20.375711 -0.23771092 75 3203629656464 1 0
-0.46998653 14.280386 -2.222899 7 3203629656464 1 0
0.27949104 17.341808 -2.2076735 21 3203629658768 1 0
-1.7499868 21.392178 0.12474692 30 3203629658768 1 0
0.8619571 53.004097 -0.30810118 39 3203629661072 1 0
-0.5297953 16.24136 -1.7503941 3 3203629661072 1 0
1.2142419 18.575428 -1.7376823 22 3203629663376 1 0
-0.78720397 24.240656 0.5643638 23 3203629663376 1 0
0 0 0 32 3203629665680 1 0
-0.53919935 16.678537 -1.1668863 20 3203629665680 1 0
0.30492693 18.2607 -1.4909226 27 3203629667984 1 0
-1.6708055 20.571522 0.60066134 19 3203629667984 1 0
0.4054847 24.072918 0.42025393 13 3203629670288 1 0
-1.2828587 15.823513 -1.0174365 18 3203629670288 1 0
1.2698144 19.253479 -1.123711 24 3203629672592 1 0
-0.73967123 23.19289 1.3513834 20 3203629672592 1 0
0.3961854 23.121422 0.9421293 28 3203629674896 1 0
-0.5691371 17.927519 -0.8355129 46 3203629674896 1 0
0.33328253 19.286648 -1.0109214 44 3203629677200 1 0
-0.68831563 21.78147 2.6757634 18 3203629677200 1 0
0.411772 23.629793 1.9293144 10 3203629679504 1 0
-1.3518422 16.795706 -0.68648756 54 3203629679504 1 0
1.3553888 20.370514 -0.7129269 79 3203629681808 1 0
-0.7005671 22.375332 5.99839 27 3203629681808 1 0
0.35592648 20.08961 3.6634297 10 3203629684112 1 0
-0.55916166 17.94243 -0.41771296 66 3203629684112 1 0
0.07751392 4.0740223 -1.9000916 2 3203629704296 1 0
-1.3280679 16.837132 -0.29480606 54 3203629704296 1 0
0.37178543 19.392223 -0.56447273 42 3203629706600 1 0
-0.21161024 7.1229043 -1.9948577 5 3203629706600 1 0
0.20862885 10.800059 -2.160428 2 3203629708904 1 0
1.3943844 20.374958 -0.23775749 73 3203629711208 1 0
-0.41978714 14.270087 -2.2210543 8 3203629711208 1 0
-1.5696929 53.0968 0 100 3203629708904 1 0
0.34134597 17.40817 -2.21626 13 3203629713512 1 0
-1.6447072 21.007359 0.12246864 22 3203629713512 1 0
1.0475236 53.02876 -0.3082639 39 3203629715816 1 0
0 0 0 76 3203629715816 1 0
1.2894738 18.72206 -1.7518098 20 3203629718120 1 0
3.7290363 54.027794 0.63048106 28 3203629720424 1 0
-0.48500252 16.81992 -1.1766522 21 3203629720424 1 0
-0.6935478 23.93147 0.55710566 30 3203629718120 1 0
0.36963254 18.307356 -1.4948281 14 3203629722728 1 0
-1.67333 21.53394 0.62858826 14 3203629722728 1 0
0.4887806 24.035368 0.41962567 22 3203629725032 1 0
-1.2273078 15.823915 -1.0171807 11 3203629725032 1 0
1.3478051 19.404291 -1.1327807 36 3203629727336 1 0
-0.6596153 23.227264 1.3532438 37 3203629727336 1 0
-0.50926316 18.025253 -0.8399798 48 3203629729640 1 0
0.40184784 19.345272 -1.0140615 39 3203629731944 1 0
0.47466642 23.01201 0.93773293 21 3203629729640 1 0
-0.6191958 22.029795 2.705987 21 3203629731944 1 0
0.5063424 24.206163 1.9765058 7 3203629734248 1 0
-1.2981138 16.86408 -0.6890928 57 3203629734248 1 0
-0.6189131 22.250189 5.9642262 17 3203629736552 1 0
1.4264868 20.365658 -0.7129269 82 3203629736552 1 0
0.4279693 20.178732 3.6799316 6 3203629738856 1 0
-0.4987397 18.02422 -0.419574 60 3203629738856 1 0
0.09181605 4.0773516 -1.9017822 2 3203629759592 1 0
-1.2752985 16.921427 -0.29620224 48 3203629759592 1 0
0.44183013 19.494738 -0.56749815 42 3203629761896 1 0
-0.18694726 7.1313004 -1.9970143 4 3203629761896 1 0
0.24596904 10.78358 -2.1572902 2 3203629764200 1 0
-1.3822559 53.021984 0 51 3203629764200 1 0
1.4657848 20.373957 -0.23780404 69 3203629766504 1 0
-0.36956298 14.255662 -2.2185946 7 3203629766504 1 0
0.40339267 17.46241 -2.223331 6 3203629768808 1 0
1.2328081 53.032776 -0.3083104 98 3203629771112 1 0
-1.6274455 21.762865 0.1268392 8 3203629768808 1 0
-0.41802776 16.308273 -1.7572484 45 3203629771112 1 0
1.37552 19.00345 -1.7785777 24 3203629773416 1 0
3.9016924 53.795036 0.62792003 28 3203629775720 1 0
-0.42921865 16.937191 -1.184744 20 3203629775720 1 0
0.43806562 18.497263 -1.5104501 16 3203629778024 1 0
-0.6024674 23.637922 0.5502198 28 3203629773416 1 0
-3.9418328 53.12741 1.5504091 17 3203629778024 1 0
0.5725814 24.029518 0.41955584 24 3203629780328 1 0
-1.1723593 15.832084 -1.0174365 15 3203629780328 1 0
1.4201802 19.46319 -1.1365016 26 3203629782632 1 0
-0.5694856 22.866154 1.3320812 27 3203629782632 1 0
-0.44831818 18.106812 -0.8437023 50 3203629784936 1 0
0.55441225 22.98624 0.93675596 21 3203629784936 1 0
0.47305512 19.495499 -1.0220165 44 3203629787240 1 0
-0.54082835 21.972286 2.6986747 23 3203629787240 1 0
0.5909319 24.208233 1.9768312 7 3203629789544 1 0
-1.2450957 16.948229 -0.69234943 49 3203629789544 1 0
1.4975675 20.360556 -0.7129269 77 3203629791848 1 0
-0.544342 22.379679 5.99839 10 3203629791848 1 0
0.50335944 20.377745 3.716523 13 3203629794152 1 0
-0.43823677 18.125795 -0.4219003 43 3203629794152 1 0
-1.2222434 17.009546 -0.29766825 54 3203629814888 1 0
0.10614237 4.08063 -1.9034727 1 3203629814888 1 0
0.51290864 19.608988 -0.57087266 42 3203629817192 1 0
-0.16187823 7.124208 -1.9948577 5 3203629817192 1 0
0.28319675 10.766972 -2.1541524 2 3203629819496 1 0
-1.196444 52.994495 0 82 3203629819496 1 0
1.5365933 20.364727 -0.23775749 66 3203629821800 1 0
-0.31953326 14.24501 -2.21675 7 3203629821800 1 0
0.46466187 17.472795 -2.2248461 6 3203629824104 1 0
-3.6292884 50.92197 0.2967098 22 3203629824104 1 0
0.64406174 24.086985 -0.14004387 5 3203629826408 1 0
-0.36277127 16.385178 -1.7653878 41 3203629826408 1 0
1.4505863 19.113699 -1.7893592 23 3203629828712 1 0
-0.5194244 23.615894 0.54966146 28 3203629828712 1 0
3.8183348 50.215626 0.5862915 17 3203629831016 1 0
-0.37166312 17.010393 -1.1897664 22 3203629831016 1 0
0.5016557 18.459753 -1.5075209 11 3203629833320 1 0
0.64815533 23.723532 0.4142503 30 3203629835624 1 0
-1.1263572 15.967483 -1.0258789 19 3203629835624 1 0
1.502118 19.641268 -1.1471992 36 3203629837928 1 0
-3.7557957 53.13287 1.5501764 34 3203629833320 1 0
0.6636588 24.034893 0.97958 16 3203629840232 1 0
-0.48949343 22.860018 1.3316162 23 3203629837928 1 0
-0.38714987 18.20414 -0.8481693 50 3203629840232 1 0
0.54398596 19.597546 -1.0274595 42 3203629842536 1 0
0.6421819 23.014452 1.8795193 9 3203629844840 1 0
-1.1909482 17.024237 -0.6952804 55 3203629844840 1 0
1.5689372 20.35919 -0.7130665 82 3203629847144 1 0
-0.480381 23.061306 6.1805987 27 3203629847144 1 0
-0.47091833 22.295555 2.7381604 16 3203629842536 1 0
0.5749316 20.391598 3.7193928 11 3203629849448 1 0
-0.37669995 18.211174 -0.4238544 55 3203629849448 1 0
0.12038578 4.0802345 -1.9034727 1 3203629870184 1 0
-1.1683159 17.09351 -0.29906443 57 3203629870184 1 0
0.5844346 19.710989 -0.5738981 40 3203629872488 1 0
-0.1372313 7.1362834 -1.9980925 4 3203629872488 1 0
0.3211292 10.777679 -2.1565058 2 3203629874792 1 0
1.6076701 20.35924 -0.23775749 66 3203629877096 1 0
-1.0113751 52.99435 0 41 3203629874792 1 0
-0.26935792 14.222328 -2.2130604 7 3203629877096 1 0
0.5255311 17.4671 -2.224341 4 3203629879400 1 0
-3.4590876 51.04607 0.29736075 22 3203629879400 1 0
0.7249944 23.980639 -0.13943943 28 3203629881704 1 0
-0.30698296 16.461895 -1.7735271 35 3203629881704 1 0
1.5267543 19.227625 -1.8005124 23 3203629884008 1 0
-0.4431265 23.949417 0.55738485 27 3203629884008 1 0
4.265419 53.618965 0.62619716 27 3203629886312 1 0
-0.31389475 17.099358 -1.195905 25 3203629886312 1 0
0 0 0 101 3203629888616 1 0
-3.5686965 53.12172 1.5494782 25 3203629888616 1 0
0.7861475 25.512003 0.44552502 18 3203629890920 1 0
-1.0706135 15.971316 -1.0258789 21 3203629890920 1 0
1.5690776 19.616003 -1.1460364 28 3203629893224 1 0
0.7468066 24.008461 0.978603 27 3203629895528 1 0
-0.40998027 22.877558 1.3325464 20 3203629893224 1 0
-0.3252365 18.297266 -0.8524502 46 3203629895528 1 0
0.6146368 19.667395 -1.0312277 23 3203629897832 1 0
-0.3937193 22.332788 2.7425478 8 3203629897832 1 0
0 0 0 85 3203629900136 1 0
-1.1368151 17.108047 -0.69853693 52 3203629900136 1 0
1.6393523 20.34562 -0.71278733 82 3203629902440 1 0
-0.3891621 22.444742 6.0149546 26 3203629902440 1 0
0.64860076 20.46813 3.7337422 27 3203629904744 1 0
-0.31464118 18.30034 -0.42590156 36 3203629904744 1 0
0.1343886 4.072543 -1.9000916 2 3203629925480 1 0
-1.1135583 17.173313 -0.3003908 55 3203629925480 1 0
0.6570645 19.828716 -0.57738894 40 3203629927784 1 0
-0.11219016 7.1251636 -1.9948577 5 3203629927784 1 0
0.35833076 10.768658 -2.1549368 3 3203629930088 1 0
-0.4023727 25.78086 0 46 3203629930088 1 0
0 0 0 9 3203629932392 1 0
-0.21983798 14.211321 -2.2112157 7 3203629932392 1 0
0.5858584 17.46121 -2.223836 4 3203629934696 1 0
-3.2821112 51.053745 0.2973375 22 3203629934696 1 0
0.80728745 23.962 -0.13934644 26 3203629937000 1 0
-0.25120443 16.534433 -1.7812381 46 3203629937000 1 0
1.6019043 19.329412 -1.8105505 48 3203629939304 1 0
-0.3540085 23.514969 0.5472421 26 3203629939304 1 0
0 0 0 17 3203629941608 1 0
-0.25692037 17.22402 -1.2045548 21 3203629941608 1 0
0.6428952 18.850296 -1.5397413 14 3203629943912 1 0
-3.3843021 53.101734 1.5485473 25 3203629943912 1 0
0.8863927 25.884882 0.45208713 9 3203629946216 1 0
-1.032116 16.22985 -1.0422521 16 3203629946216 1 0
1.5793419 18.930046 -1.1062692 6 3203629948520 1 0
-0.33051014 22.790983 1.3274301 27 3203629948520 1 0
0.80400556 23.290794 0.94945663 25 3203629950824 1 0
-0.26414877 18.39016 -0.85673106 48 3203629950824 1 0
-0.34899524 24.533258 3.0126102 26 3203629953128 1 0
0.68807197 19.852818 -1.0410669 52 3203629953128 1 0
0.80454284 23.121044 1.8886322 9 3203629955432 1 0
-1.0839881 17.195574 -0.70195633 52 3203629955432 1 0
0 0 0 21 3203629957736 1 0
0.71339756 20.339973 3.710783 15 3203629960040 1 0
-0.25402564 18.393267 -0.4280418 40 3203629960040 1 0
0.14802447 4.075698 -1.9017822 1 3203629980776 1 0
-0.2923507 20.958551 5.616373 6 3203629957736 1 0
-1.0607777 17.244774 -0.3015776 54 3203629980776 1 0
0.7266027 19.930315 -0.58041435 42 3203629983080 1 0
-0.08837016 7.11009 -1.9905444 5 3203629983080 1 0
-0.31820536 25.890045 0 25 3203629985384 1 0
1.5201112 17.717705 -0.20702502 2 3203629987688 1 0
0.39705124 10.849724 -2.1714106 3 3203629985384 1 0
-0.17261426 14.204068 -2.2099857 8 3203629987688 1 0
0.64375865 17.459171 -2.223836 4 3203629989992 1 0
-3.1505163 51.68319 0.3009409 23 3203629989992 1 0
-0.19741191 16.622663 -1.7906626 45 3203629992296 1 0
0.88866705 24.011154 -0.13964866 15 3203629992296 1 0
1.6666783 19.33193 -1.811294 22 3203629994600 1 0
4.6220565 53.525166 0.6254521 16 3203629996904 1 0
-0.20063512 17.296597 -1.2095772 26 3203629996904 1 0
-0.27612197 23.524012 0.5474282 19 3203629994600 1 0
0 0 0 52 3203629999208 1 0
-3.2067454 53.08872 1.5478492 34 3203629999208 1 0
2.1972651 58.493828 1.0217336 82 3203630001512 1 0
-0.98933625 16.416475 -1.0540203 13 3203630001512 1 0
-0.2618533 23.410866 1.3634763 31 3203630003816 1 0
1.4971243 17.253824 -1.0085957 3 3203630003816 1 0
0.88350314 23.347908 0.95189905 29 3203630006120 1 0
-0.20426679 18.49082 -0.86138415 48 3203630006120 1 0
0.7282822 19.17584 -1.0056877 13 3203630008424 1 0
-0.2652129 24.311964 2.9853115 6 3203630008424 1 0
0.8850069 23.217846 1.8967686 16 3203630010728 1 0
-1.031724 17.278866 -0.70521295 51 3203630010728 1 0
1.5142057 17.339401 -0.60780966 4 3203630013032 1 0
-0.23821121 22.404348 6.0035667 26 3203630013032 1 0
0.77752197 20.250986 3.6949985 6 3203630015336 1 0
-0.19416298 18.501972 -0.4305542 58 3203630015336 1 0
0.16153917 4.075185 -1.9017822 2 3203630036072 1 0
-1.008697 17.336035 -0.3031134 60 3203630036072 1 0
0.79743123 20.039648 -0.58367246 42 3203630038376 1 0
-0.06465331 7.106493 -1.9894662 5 3203630038376 1 0
0.42739454 10.699406 -2.1416008 3 3203630040680 1 0
-0.47371095 52.957882 0 51 3203630040680 1 0
1.5373499 17.23841 -0.20148386 4 3203630042984 1 0
-0.12478689 14.192711 -2.208141 7 3203630042984 1 0
0.70234823 17.44897 -2.2228258 4 3203630045288 1 0
-3.002313 52.148766 0.30359113 34 3203630045288 1 0
2.1406264 52.979877 -0.3081709 100 3203630047592 1 0
-0.14182173 16.710728 -1.8000872 42 3203630047592 1 0
1.6272063 18.15198 -1.7012482 19 3203630049896 1 0
-0.19512597 23.41285 0.54482275 26 3203630049896 1 0
-0.14207035 17.365013 -1.2143207 23 3203630052200 1 0
4.810698 53.572796 0.62619716 15 3203630052200 1 0
0 0 0 59 3203630054504 1 0
-3.023364 53.079456 1.5472673 34 3203630054504 1 0
-0.9338745 16.439714 -1.0552994 16 3203630056808 1 0
2.3988812 58.48591 1.0217336 96 3203630056808 1 0
1.5381743 17.04173 -0.9965028 5 3203630059112 1 0
-0.18158455 23.511461 1.3692902 24 3203630059112 1 0
0.96020234 23.236876 0.9475027 28 3203630061416 1 0
-0.14068519 18.583317 -0.865665 43 3203630061416 1 0
0.7866063 18.965645 -0.9948019 26 3203630063720 1 0
-0.20420052 27.528503 3.3801682 8 3203630063720 1 0
0.9685402 23.266384 1.9009995 19 3203630066024 1 0
-0.9760849 17.370165 -0.7087952 49 3203630066024 1 0
1.5336208 16.876131 -0.59175587 4 3203630068328 1 0
-0.16473818 23.162315 6.2064805 38 3203630068328 1 0
1.0922757 26.047329 4.753275 7 3203630070632 1 0
-0.12941062 18.594517 -0.4326944 57 3203630070632 1 0
0.17647438 4.0745654 -1.9017822 1 3203630091368 1 0
0.87558967 20.148445 -0.58693063 42 3203630093672 1 0
-0.9497217 17.423477 -0.3045794 58 3203630091368 1 0
-0.03867891 7.1105337 -1.9905444 5 3203630093672 1 0
0.46645135 10.697774 -2.1416008 3 3203630095976 1 0
-0.13589 25.66764 0 28 3203630095976 1 0
1.5269243 16.444141 -0.19226412 4 3203630098280 1 0
-0.073015764 14.181214 -2.2062964 7 3203630098280 1 0
0.7657897 17.4463 -2.2228258 4 3203630100584 1 0
-2.79566 51.8438 0.30175456 34 3203630100584 1 0
2.332515 52.963768 -0.30812442 58 3203630102888 1 0
-0.08158624 16.79465 -1.8090833 37 3203630102888 1 0
1.6207919 17.372702 -1.6287519 12 3203630105192 1 0
-0.110239655 23.393408 0.5443575 23 3203630105192 1 0
4.9912696 53.415672 0.6245674 18 3203630107496 1 0
-0.07992703 17.501081 -1.2238076 22 3203630107496 1 0
0.8462124 19.025837 -1.5547123 31 3203630109800 1 0
-2.8308215 53.070053 1.5466855 25 3203630109800 1 0
2.389394 53.54655 0.9355886 33 3203630112104 1 0
-0.8744778 16.438984 -1.0550436 18 3203630112104 1 0
1.5333204 16.332388 -0.9553404 3 3203630114408 1 0
-0.0972843 23.551893 1.3716158 21 3203630114408 1 0
1.0438634 23.24127 0.9478283 21 3203630116712 1 0
-0.07444173 18.679596 -0.870132 44 3203630116712 1 0
0.8600329 19.086414 -1.0012915 26 3203630119016 1 0
-0.105689265 27.525087 3.3796806 8 3203630119016 1 0
1.0528703 23.290657 1.9032778 13 3203630121320 1 0
1.5204324 16.094488 -0.56453425 6 3203630123624 1 0
-0.07119074 20.06022 5.375154 20 3203630123624 1 0
-0.91804564 17.449371 -0.7118889 52 3203630121320 1 0
0 0 0 12 3203630125928 1 0
-0.06363969 18.69883 -0.4351138 63 3203630125928 1 0
0.19052668 4.070303 -1.9000916 1 3203630146664 1 0
0.9515415 20.265083 -0.5904215 42 3203630148968 1 0
-0.89297134 17.50657 -0.3059756 56 3203630146664 1 0
0.5037907 10.69608 -2.1416008 3 3203630151272 1 0
-0.013843264 7.102922 -1.9883878 6 3203630148968 1 0
-0.04622025 25.627958 0 21 3203630151272 1 0
0 0 0 10 3203630153576 1 0
0.826684 17.443521 -2.2228258 6 3203630155880 1 0
-2.6809478 53.167553 0.30940303 36 3203630155880 1 0
-0.023533305 14.19324 -2.208141 16 3203630153576 1 0
-0.02309741 16.894257 -1.8197931 38 3203630158184 1 0
1.1525166 24.244211 -0.14106677 13 3203630158184 1 0
1.5493971 16.003271 -1.5008608 41 3203630160488 1 0
-0.028624719 23.42964 0.5451949 33 3203630160488 1 0
5.107053 52.66939 0.61604613 27 3203630162792 1 0
-0.018900787 17.561108 -1.227993 27 3203630162792 1 0
0.9076526 18.919231 -1.5462505 21 3203630165096 1 0
-2.644162 53.05166 1.545871 25 3203630165096 1 0
1.1718457 24.352108 0.4255595 25 3203630167400 1 0
-0.8182785 16.465857 -1.0565785 17 3203630167400 1 0
1.4521171 14.908066 -0.87231785 3 3203630169704 1 0
-0.015010926 23.456251 1.3660344 24 3203630169704 1 0
1.1690482 24.147663 0.98495334 23 3203630172008 1 0
-0.009284741 18.775639 -0.874599 44 3203630172008 1 0
0.92452055 19.039408 -0.99898875 23 3203630174312 1 0
1.139012 23.386389 1.9114141 9 3203630176616 1 0
-0.008365026 23.964033 2.9424133 40 3203630174312 1 0
-0.8610514 17.532307 -0.7151455 46 3203630176616 1 0
1.5637379 15.957792 -0.5599275 6 3203630178920 1 0
-0.001172908 20.160805 5.402071 8 3203630178920 1 0
1.0017651 20.446007 3.7323072 15 3203630181224 1 0
0.0016394675 18.786915 -0.43716094 65 3203630181224 1 0
0.20491567 4.073234 -1.9017822 1 3203630201960 1 0
-0.836032 17.597467 -0.3075114 53 3203630201960 1 0
1.029071 20.393408 -0.5942614 65 3203630204264 1 0
0.0110082645 7.1067786 -1.9894662 6 3203630204264 1 0
0.5410812 10.690331 -2.1408165 3 3203630206568 1 0
1.5923356 15.935556 -0.18644358 6 3203630208872 1 0
0.086929396 51.083927 0 19 3203630206568 1 0
0.026239516 14.149758 -2.2013772 7 3203630208872 1 0
0.88767195 17.432579 -2.2218156 6 3203630211176 1 0
-2.487237 53.036816 0.30858937 59 3203630211176 1 0
0.03665218 16.969795 -1.8279325 41 3203630213480 1 0
1.605152 15.98977 -1.5001173 30 3203630215784 1 0
0.054247204 23.457588 0.54584634 38 3203630215784 1 0
5.2935524 52.650974 0.61604613 27 3203630218088 1 0
1.2369989 24.220022 -0.14095053 22 3203630213480 1 0
0.043529075 17.65683 -1.2346896 23 3203630218088 1 0
0.99202275 19.250332 -1.573589 17 3203630220392 1 0
1.2563725 24.307846 0.42486137 17 3203630222696 1 0
-0.76928455 16.676018 -1.0698817 14 3203630222696 1 0
1.5032244 14.882932 -0.8711551 4 3203630225000 1 0
0.068315715 23.368305 1.3609182 28 3203630225000 1 0
1.2569236 24.175264 0.986256 30 3203630227304 1 0
0.058100615 18.88743 -0.8798105 42 3203630227304 1 0
-2.4549499 53.040737 1.5452892 34 3203630220392 1 0
1.0017886 19.211498 -1.0081998 23 3203630229608 1 0
0.07776093 24.083014 2.9570377 25 3203630229608 1 0
1.2422132 23.752417 1.9416817 16 3203630231912 1 0
-0.80218744 17.623117 -0.71872777 46 3203630231912 1 0
1.6198431 15.940141 -0.55950874 6 3203630234216 1 0
1.0472448 19.907831 3.6347306 12 3203630236520 1 0
0.06909645 19.550217 5.2384973 5 3203630234216 1 0
0.06960646 18.878761 -0.43930113 61 3203630236520 1 0
0.21964803 4.0688353 -1.9000916 1 3203630257256 1 0
-0.7746811 17.672335 -0.30876797 53 3203630257256 1 0
1.1037291 20.393507 -0.5943778 94 3203630259560 1 0
0.036932446 7.1028395 -1.9883878 4 3203630259560 1 0
0.5801612 10.69221 -2.1416008 3 3203630261864 1 0
0.28251767 52.927246 0 100 3203630261864 1 0
1.6504487 15.933663 -0.18649015 9 3203630264168 1 0
0.9503295 17.4253 -2.2213106 6 3203630266472 1 0
-2.2955709 53.03745 0.30854288 35 3203630266472 1 0
1.3268393 24.267344 -0.14125276 13 3203630268776 1 0
0.07739683 14.13376 -2.1989174 6 3203630264168 1 0
0.09816433 17.065 -1.8382137 38 3203630268776 1 0
0.1381055 23.445246 0.54556715 26 3203630271080 1 0
0 0 0 84 3203630271080 1 0
5.482791 52.64769 0.6162324 27 3203630273384 1 0
0.10731268 17.800209 -1.2447345 17 3203630273384 1 0
-2.2665312 53.04512 1.5451728 25 3203630275688 1 0
1.3431576 24.319227 0.42514062 23 3203630277992 1 0
1.0662538 19.35417 -1.5823762 28 3203630275688 1 0
-0.7213826 16.937864 -1.0865107 18 3203630277992 1 0
1.5580908 14.901379 -0.8725504 4 3203630280296 1 0
0.15326719 23.7872 1.3853366 24 3203630280296 1 0
1.3427625 24.190662 0.98707014 27 3203630282600 1 0
0.12485663 18.971018 -0.8837191 44 3203630282600 1 0
1.0706186 19.23979 -1.0098746 39 3203630284904 1 0
0.16219935 24.138178 2.9638624 12 3203630284904 1 0
1.3727353 24.607754 2.0119808 14 3203630287208 1 0
-0.7446156 17.713648 -0.72231 45 3203630287208 1 0
1.6741754 15.926487 -0.55922955 9 3203630289512 1 0
0.13658114 19.522816 5.231251 26 3203630289512 1 0
1.1140991 19.872671 3.628991 27 3203630291816 1 0
0.13542321 18.982378 -0.44172052 61 3203630291816 1 0
0.23334698 4.071704 -1.9017822 1 3203630312552 1 0
-0.7199588 17.770712 -0.3104434 53 3203630312552 1 0
1.1713504 20.389734 -0.5943778 89 3203630314856 1 0
0.060420502 7.094974 -1.9862313 5 3203630314856 1 0
0.6135852 10.654985 -2.1345406 3 3203630317160 1 0
0.22229923 25.687038 0 12 3203630317160 1 0
1.6909442 15.812769 -0.18513979 73 3203630319464 1 0
0.12426564 14.133427 -2.1989174 6 3203630319464 1 0
1.0081086 17.422054 -2.2213106 4 3203630321768 1 0
-2.1190407 53.02878 0.3084499 35 3203630321768 1 0
3.0696213 52.922157 -0.30810118 100 3203630324072 1 0
0.15554678 17.152071 -1.8476382 37 3203630324072 1 0
1.5729331 14.651747 -1.3755722 3 3203630326376 1 0
0.21603607 23.464653 0.5460324 9 3203630326376 1 0
2.270377 21.120884 0.24730317 5 3203630328680 1 0
0.16880068 18.0631 -1.2631502 24 3203630328680 1 0
1.1369388 19.461966 -1.5914891 19 3203630330984 1 0
0 0 0 80 3203630330984 1 0
1.4273026 24.374527 0.42618775 31 3203630333288 1 0
-0.65221035 16.609098 -1.0652767 19 3203630333288 1 0
1.6486269 15.277267 -0.8948758 4 3203630335592 1 0
0.23210858 23.78257 1.3851041 21 3203630335592 1 0
1.4295468 24.29779 0.99162936 33 3203630337896 1 0
0.18887341 19.082373 -0.88893056 42 3203630337896 1 0
1.1374713 19.287973 -1.0125961 23 3203630340200 1 0
0.24104826 24.018408 2.949238 21 3203630340200 1 0
1.4519775 24.563269 2.0087261 7 3203630342504 1 0
-0.68911785 17.799889 -0.7257294 46 3203630342504 1 0
1.7093053 15.757903 -0.553506 42 3203630344808 1 0
0.20084228 19.475893 5.2188272 13 3203630344808 1 0
1.1778935 19.833513 3.6225336 25 3203630347112 1 0
0.1994986 19.08979 -0.4442329 58 3203630347112 1 0
0.24777852 4.0744834 -1.9034727 1 3203630368296 1 0
-0.6613258 17.86504 -0.31204903 47 3203630368296 1 0
1.2431515 20.393494 -0.5946105 81 3203630370600 1 0
0.08523781 7.0947194 -1.9862313 4 3203630370600 1 0
0.6511684 10.656684 -2.135325 3 3203630372904 1 0
0.6430561 52.88409 0 100 3203630372904 1 0
0.17381082 14.124998 -2.1976876 7 3203630375208 1 0
1.740326 15.751074 -0.18448788 32 3203630375208 1 0
1.0689372 17.410477 -2.2203004 6 3203630377512 1 0
-1.936895 53.15983 0.30917057 24 3203630377512 1 0
3.256505 52.914993 -0.30812442 100 3203630379816 1 0
0.21719347 17.24288 -1.8574913 35 3203630379816 1 0
0 0 0 40 3203630382120 1 0
0.32545865 25.543013 0.5944198 23 3203630382120 1 0
2.337657 21.045132 0.24651158 9 3203630384424 1 0
0.23529062 18.257896 -1.2768224 27 3203630384424 1 0
1.2121644 19.557287 -1.5996256 8 3203630386728 1 0
-0.8469435 23.622814 0.68793297 30 3203630386728 1 0
3.3237944 53.500687 0.9356584 56 3203630389032 1 0
-0.59684616 16.715033 -1.0719284 19 3203630389032 1 0
1.6464046 14.76331 -0.8651086 4 3203630391336 1 0
0.30887341 23.18266 1.3502207 23 3203630391336 1 0
1.5145537 24.26461 0.99048954 20 3203630393640 1 0
0.2583001 19.177464 -0.89339757 40 3203630393640 1 0
1.2748176 20.376143 -1.0699563 49 3203630395944 1 0
0.32600975 23.945934 2.9404635 21 3203630395944 1 0
0 0 0 100 3203630398248 1 0
-0.62838393 17.890118 -0.72931165 39 3203630398248 1 0
1.6803923 14.988907 -0.5267032 14 3203630400552 1 0
0.27365458 19.679802 5.273697 20 3203630400552 1 0
1.2435904 19.738815 3.6060317 19 3203630402856 1 0
0.26962003 19.188911 -0.44655925 55 3203630402856 1 0
0.26176694 4.069976 -1.9017822 1 3203630423592 1 0
-0.6020431 17.959175 -0.31365466 48 3203630423592 1 0
1.313925 20.38505 -0.59449416 81 3203630425896 1 0
0.10983151 7.0866766 -1.9840747 6 3203630425896 1 0
0.6861856 10.623043 -2.1290493 3 3203630428200 1 0
0.39793193 25.448889 0 27 3203630428200 1 0
1.7650527 15.482659 -0.18141463 13 3203630430504 1 0
1.1289414 17.402712 -2.2197955 8 3203630432808 1 0
0.22311877 14.14407 -2.2007623 6 3203630430504 1 0
-1.7528673 53.166214 0.30917057 24 3203630432808 1 0
3.4397883 52.91141 -0.3081709 100 3203630435112 1 0
1.6597888 14.505876 -1.3629318 36 3203630437416 1 0
0.27828595 17.337461 -1.8677726 38 3203630435112 1 0
0.38087934 23.526548 0.5475213 26 3203630437416 1 0
2.4095778 21.032993 0.24646501 13 3203630439720 1 0
0.29815692 18.26097 -1.2771015 24 3203630439720 1 0
1.2964658 19.815575 -1.6211058 17 3203630442024 1 0
-0.7676674 23.681528 0.689562 20 3203630442024 1 0
3.5245566 53.756374 0.94033563 16 3203630444328 1 0
-0.5446127 16.87258 -1.0819057 25 3203630444328 1 0
1.6690302 14.515604 -0.8509227 3 3203630446632 1 0
0.3825601 22.850077 1.3309184 20 3203630446632 1 0
1.5720949 23.87645 0.9748579 16 3203630448936 1 0
0.32559463 19.288334 -0.89860904 40 3203630448936 1 0
1.2834066 19.450954 -1.0215979 21 3203630451240 1 0
0.407978 23.972473 2.9438758 18 3203630451240 1 0
1.6160598 24.441147 1.9996133 7 3203630453544 1 0
-0.57015806 17.972042 -0.7325682 45 3203630453544 1 0
1.7284247 14.959299 -0.5258656 18 3203630455848 1 0
0.33920893 19.613089 5.2560973 11 3203630455848 1 0
0.3364588 19.299843 -0.44916472 56 3203630458152 1 0
1.3118957 19.758057 3.6103365 8 3203630458152 1 0
0.27501735 4.0654683 -1.9000916 1 3203630478888 1 0
-0.5448998 18.041023 -0.31505084 52 3203630478888 1 0
1.382625 20.392529 -0.59484327 89 3203630481192 1 0
0.13343424 7.0862713 -1.9840747 6 3203630481192 1 0
0.7217181 10.6206875 -2.1290493 4 3203630483496 1 0
1.7942075 15.281992 -0.17913298 22 3203630485800 1 0
1.0068147 53.038445 0 30 3203630483496 1 0
0.27101618 14.162999 -2.2038367 6 3203630485800 1 0
1.1873866 17.394846 -2.2192903 6 3203630488104 1 0
-1.5690812 53.02389 0.3083104 83 3203630488104 1 0
3.619077 52.899452 -0.3081709 100 3203630490408 1 0
0.3388162 17.427874 -1.8776255 31 3203630490408 1 0
1.7082158 14.492231 -1.3621882 42 3203630492712 1 0
0.460242 23.489132 0.5466838 45 3203630492712 1 0
2.4842658 21.048468 0.2467444 9 3203630495016 1 0
0.36301202 18.383516 -1.2857513 24 3203630495016 1 0
1.3652964 19.822939 -1.6220821 14 3203630497320 1 0
-0.6842918 23.612085 0.6874675 34 3203630497320 1 0
3.7299402 54.035168 0.94543177 69 3203630499624 1 0
-0.48460898 16.810514 -1.0778124 17 3203630499624 1 0
1.7197367 14.513705 -0.8511553 3 3203630501928 1 0
0.47496477 23.507364 1.3692902 24 3203630501928 1 0
1.6572942 23.902739 0.9761606 13 3203630504232 1 0
0.39467412 19.386957 -0.9032622 40 3203630504232 1 0
1.4185832 20.414688 -1.0724684 75 3203630506536 1 0
0.50191313 24.47104 3.005298 13 3203630506536 1 0
1.4399816 20.676968 1.6920556 13 3203630508840 1 0
-0.50975174 18.065817 -0.7363133 45 3203630508840 1 0
1.8552977 15.576335 -0.5477825 4 3203630511144 1 0
0.40888306 19.642675 5.2643795 11 3203630511144 1 0
1.3902303 19.874989 3.6325781 10 3203630513448 1 0
0.4065122 19.38649 -0.45121187 53 3203630513448 1 0
0.29507482 4.136754 -1.9339012 1 3203630534184 1 0
-0.48100033 18.126858 -0.31651685 40 3203630534184 1 0
1.4563546 20.37537 -0.59449416 86 3203630536488 1 0
0.15909448 7.074183 -1.9808397 7 3203630536488 1 0
0.7599251 10.610158 -2.1274803 3 3203630538792 1 0
0.58700067 25.933357 0 28 3203630538792 1 0
1.8407371 15.19991 -0.17824827 42 3203630541096 1 0
0.32297543 14.177724 -2.2062964 8 3203630541096 1 0
1.2500589 17.382498 -2.21828 8 3203630543400 1 0
-1.3752332 52.98926 0.30807793 35 3203630543400 1 0
3.8095784 52.86602 -0.3080547 78 3203630545704 1 0
0.40425816 17.521952 -1.8879068 33 3203630545704 1 0
0 0 0 84 3203630548008 1 0
2.5704713 21.12273 0.24772225 5 3203630550312 1 0
0.54233587 23.35938 0.5437061 28 3203630548008 1 0
0.4280548 18.322247 -1.2815659 26 3203630550312 1 0
1.4794545 20.406378 -1.6702499 35 3203630552616 1 0
-0.599524 23.630388 0.68793297 30 3203630552616 1 0
3.8360467 52.804783 0.9241398 14 3203630554920 1 0
-0.43174282 17.11543 -1.0972556 17 3203630554920 1 0
1.9190369 15.712422 -0.9218523 4 3203630557224 1 0
0.5615962 23.597324 1.374639 10 3203630557224 1 0
1.7345479 23.781046 0.9714385 19 3203630559528 1 0
0.46666434 19.489275 -0.9081014 38 3203630559528 1 0
1.4884135 20.36566 -1.0701656 44 3203630561832 1 0
0.58458894 24.266668 2.9804366 19 3203630561832 1 0
1.5120555 20.647839 1.6901028 5 3203630564136 1 0
-0.44740802 18.155422 -0.7398955 40 3203630564136 1 0
1.9424418 15.827532 -0.5568564 6 3203630566440 1 0
0.48056978 19.71062 5.2830143 9 3203630566440 1 0
1.4542624 19.779654 3.6160762 21 3203630568744 1 0
0.47848952 19.50885 -0.4540965 55 3203630568744 1 0
0.30897188 4.1284685 -1.9305202 1 3203630589480 1 0
-0.42039466 18.244377 -0.31854132 39 3203630589480 1 0
1.527768 20.37415 -0.5946105 86 3203630591784 1 0
0.18378702 7.0735846 -1.9808397 5 3203630591784 1 0
0.7960753 10.595707 -2.125127 4 3203630594088 1 0
0.6282092 24.043795 0 11 3203630594088 1 0
1.8918046 15.177516 -0.178062 47 3203630596392 1 0
0.37225536 14.168608 -2.2050664 7 3203630596392 1 0
1.3095337 17.362202 -2.21626 6 3203630598696 1 0
-0.5768061 25.68109 0.14929643 18 3203630598696 1 0
0 0 0 19 3203630601000 1 0
0.46805894 17.619823 -1.8986164 30 3203630601000 1 0
1.8196473 14.546898 -1.3685085 11 3203630603304 1 0
0.6255804 23.421305 0.5451949 30 3203630603304 1 0
6.59357 52.649136 0.61772245 27 3203630605608 1 0
0.489545 18.228899 -1.2751484 23 3203630605608 1 0
1.4932669 19.645788 -1.6084129 12 3203630607912 1 0
-0.51677257 23.620344 0.68758386 30 3203630607912 1 0
3.8256764 50.234863 0.87939185 19 3203630610216 1 0
-0.37260333 17.14477 -1.0990463 18 3203630610216 1 0
0.62467986 22.888681 1.3334765 33 3203630612520 1 0
1.9723779 15.693742 -0.9211547 4 3203630612520 1 0
1.8096278 23.671234 0.967205 22 3203630614824 1 0
0.5375411 19.591375 -0.9129406 38 3203630614824 1 0
1.5585786 20.34839 -1.0695376 49 3203630617128 1 0
0.6690729 24.256542 2.9794617 9 3203630617128 1 0
1.9038123 24.808287 2.0311828 10 3203630619432 1 0
-0.38605937 18.252773 -0.74380344 40 3203630619432 1 0
0.5514152 19.782206 5.302685 15 3203630621736 1 0
1.986661 15.733401 -0.5537852 6 3203630621736 1 0
1.5299468 19.860775 3.6318607 12 3203630624040 1 0
0.5493853 19.606995 -0.4564228 50 3203630624040 1 0
0.32309788 4.1237507 -1.9288298 1 3203630644776 1 0
-0.35811445 18.317709 -0.3197979 34 3203630644776 1 0
1.5988777 20.368692 -0.5946105 70 3203630647080 1 0
0.20847732 7.0729 -1.9808397 6 3203630647080 1 0
0.8324413 10.585043 -2.123558 5 3203630649384 1 0
0.71035737 23.981482 0 26 3203630649384 1 0
1.9442639 15.166852 -0.17801544 48 3203630651688 1 0
0.42159316 14.163271 -2.2044516 7 3203630651688 1 0
1.3691944 17.345657 -2.2147446 8 3203630653992 1 0
-0.48867604 25.76293 0.1497614 9 3203630653992 1 0
4.1826563 52.889977 -0.30835688 19 3203630656296 1 0
0.5325479 17.717463 -1.9093262 27 3203630656296 1 0
1.8709226 14.544408 -1.3688803 9 3203630658600 1 0
0.7064871 23.390999 0.54454356 26 3203630658600 1 0
6.8207345 52.96299 0.6216804 27 3203630660904 1 0
0.5591039 18.422512 -1.2888206 27 3203630660904 1 0
1.557094 19.580843 -1.603531 12 3203630663208 1 0
-0.43365753 23.586025 0.6865366 26 3203630663208 1 0
4.5168133 56.695698 0.9927627 25 3203630665512 1 0
-0.31479308 17.257717 -1.1062096 16 3203630665512 1 0
2.030218 15.710524 -0.92254996 4 3203630667816 1 0
0.708996 23.030048 1.3418486 30 3203630667816 1 0
1.8989345 23.748438 0.9706244 6 3203630670120 1 0
0.6090128 19.689224 -0.9175938 38 3203630670120 1 0
1.6206672 20.231337 -1.063676 27 3203630672424 1 0
0.7611393 24.492155 3.0087104 22 3203630672424 1 0
1.9939059 24.845203 2.0347629 14 3203630674728 1 0
-0.32382485 18.337927 -0.74722284 39 3203630674728 1 0
2.033849 15.666906 -0.55169123 4 3203630677032 1 0
1.5875748 19.710182 3.6053143 19 3203630679336 1 0
0.6170728 19.67203 5.273697 15 3203630677032 1 0
0.62135 19.716871 -0.45902827 50 3203630679336 1 0
0.3389694 4.1406636 -1.9372821 1 3203630700072 1 0
0 0 0 37 3203630702376 1 0
-0.29596958 18.430817 -0.32175258 35 3203630700072 1 0
0.8685888 10.574266 -2.121989 4 3203630704680 1 0
0.79411227 23.99086 0 26 3203630704680 1 0
1.9984305 15.171913 -0.17815514 52 3203630706984 1 0
0.47058937 14.157773 -2.2038367 6 3203630706984 1 0
0.23311365 7.072131 -1.9808397 5 3203630702376 1 0
1.4272736 17.317085 -2.2117143 6 3203630709288 1 0
-0.39930707 25.75247 0.14969166 18 3203630709288 1 0
1.520493 18.417028 -0.107404165 4 3203630711592 1 0
0.5969432 17.810911 -1.9196075 26 3203630711592 1 0
1.9252201 14.569459 -1.3718544 19 3203630713896 1 0
0.8067496 23.971935 0.55812925 22 3203630713896 1 0
7.0013 52.92732 0.6215407 27 3203630716200 1 0
0.62502986 18.49625 -1.2941221 24 3203630716200 1 0
1.6111085 19.41646 -1.5905128 7 3203630718504 1 0
0 0 0 20 3203630720808 1 0
-0.3519792 23.5394 0.68514025 16 3203630718504 1 0
-0.2561531 17.290627 -1.1082562 18 3203630720808 1 0
2.0844288 15.707451 -0.92278254 4 3203630723112 1 0
0.78852606 23.051437 1.343244 37 3203630723112 1 0
1.9729462 23.658182 0.967205 9 3203630725416 1 0
0.6801399 19.802837 -0.9229914 36 3203630725416 1 0
1.5661495 18.748882 -0.9860094 5 3203630727720 1 0
0.87076175 25.251245 3.102306 17 3203630727720 1 0
2.0653074 24.683348 2.02207 10 3203630730024 1 0
-0.26302713 18.442823 -0.7514564 39 3203630730024 1 0
0.68413734 19.681408 5.2768025 16 3203630732328 1 0
2.1196704 15.9056015 -0.5603463 4 3203630732328 1 0
1.6568507 19.736073 3.611054 29 3203630734632 1 0
0.69178617 19.822563 -0.4615407 47 3203630734632 1 0
0.35023636 4.1106195 -1.9237583 1 3203630755368 1 0
-0.2358173 18.507679 -0.32307896 43 3203630755368 1 0
1.4913129 17.47305 -0.51036435 4 3203630757672 1 0
0.25647613 7.0674677 -1.9797615 5 3203630757672 1 0
0.9028009 10.559591 -2.1196356 4 3203630759976 1 0
0.8759067 24.040049 0 11 3203630759976 1 0
2.0458488 15.141376 -0.17787576 52 3203630762280 1 0
0.5178445 14.156124 -2.2038367 6 3203630762280 1 0
1.4834992 17.292448 -2.209189 6 3203630764584 1 0
-0.3129143 25.733664 0.14957541 30 3203630764584 1 0
1.538733 17.905703 -0.104451716 4 3203630766888 1 0
0.6607537 17.92009 -1.9316024 28 3203630766888 1 0
1.9602491 14.460298 -1.3621882 13 3203630769192 1 0
1.9828552 53.564804 1.2472765 97 3203630769192 1 0
7.1961417 53.02631 0.62298423 18 3203630771496 1 0
0.68626636 18.46613 -1.292169 20 3203630771496 1 0
0 0 0 106 3203630773800 1 0
-0.26889145 23.22461 0.67594767 28 3203630773800 1 0
4.904345 56.683563 0.9931117 38 3203630776104 1 0
-0.19832106 17.347275 -1.1118379 20 3203630776104 1 0
2.1387243 15.70821 -0.92324764 3 3203630778408 1 0
0.86273813 22.944881 1.3371975 16 3203630778408 1 0
1.6785742 19.335175 0.79069823 7 3203630780712 1 0
0.75175935 19.916206 -0.92838895 38 3203630780712 1 0
1.5032915 17.286945 -0.90938956 4 3203630783016 1 0
0.920918 24.30391 2.9862864 9 3203630783016 1 0
1.8138955 20.823612 1.7063757 5 3203630785320 1 0
-0.20107746 18.531534 -0.7550386 37 3203630785320 1 0
2.19352 16.040848 -0.5653719 6 3203630787624 1 0
0.75449884 19.760035 5.2985435 16 3203630787624 1 0
1.6980587 19.428427 3.5558083 14 3203630789928 1 0
0.7639669 19.931965 -0.46414617 50 3203630789928 1 0
0.36810705 4.149093 -1.9423535 1 3203630810664 1 0
-0.17217387 18.612368 -0.324894 42 3203630810664 1 0
1.5079327 16.969921 -0.49581906 4 3203630812968 1 0
0.28094015 7.0626826 -1.9786831 5 3203630812968 1 0
0.939154 10.552482 -2.1188512 5 3203630815272 1 0
2.1148481 52.981808 0 100 3203630815272 1 0
2.0967116 15.122303 -0.17773606 52 3203630817576 1 0
0.5674212 14.16609 -2.2056816 8 3203630817576 1 0
1.5429963 17.283257 -2.2086837 4 3203630819880 1 0
-0.22125934 25.438608 0.14785509 42 3203630819880 1 0
1.5254092 17.059649 -0.099546455 4 3203630822184 1 0
0.72617686 18.005123 -1.9410269 27 3203630822184 1 0
0 0 0 188 3203630824488 1 0
0.9736206 24.057789 0.5602695 25 3203630824488 1 0
7.3906293 53.088398 0.6240086 27 3203630826792 1 0
0.7497811 18.46366 -1.292169 16 3203630826792 1 0
1.4981753 16.67714 -1.3669231 12 3203630829096 1 0
-0.18959536 23.277372 0.6774604 40 3203630829096 1 0
5.0991855 56.6744 0.9932514 38 3203630831400 1 0
-0.13960512 17.435669 -1.1174661 21 3203630831400 1 0
2.1924014 15.700809 -0.92324764 3 3203630833704 1 0
0.9390293 22.88993 1.3341743 16 3203630833704 1 0
1.7430731 19.313416 0.7900469 23 3203630836008 1 0
0.82411927 20.021318 -0.93341434 40 3203630836008 1 0
1.5311911 16.939596 -0.89138603 7 3203630838312 1 0
1.0005155 24.225266 2.9770243 32 3203630838312 1 0
0 0 0 76 3203630840616 1 0
-0.13891567 18.636023 -0.7592722 39 3203630840616 1 0
2.2306616 15.910599 -0.56104434 6 3203630842920 1 0
1.7673064 19.461765 3.562983 6 3203630845224 1 0
0.82402617 19.81913 5.315108 4 3203630842920 1 0
0.8361974 20.045135 -0.4668447 54 3203630845224 1 0
0.37986985 4.12619 -1.9322107 1 3203630865960 1 0
-0.110974215 18.700823 -0.3264298 45 3203630865960 1 0
1.4950532 16.212318 -0.47382662 6 3203630868264 1 0
0.30446202 7.0617075 -1.9786831 5 3203630868264 1 0
0.97336674 10.537564 -2.1164978 3 3203630870568 1 0
2.2915528 52.96245 0 12 3203630870568 1 0
2.147507 15.115172 -0.17773606 50 3203630872872 1 0
0.615184 14.168053 -2.2062964 8 3203630872872 1 0
1.5998416 17.262148 -2.2066634 8 3203630875176 1 0
-0.13610202 25.567205 0.14859901 9 3203630875176 1 0
1.5296011 16.476873 -0.09617555 4 3203630877480 1 0
0.7922275 18.11778 -1.9534502 27 3203630877480 1 0
2.0570133 14.430758 -1.3607012 116 3203630879784 1 0
2.3504481 53.56594 1.2476487 39 3203630879784 1 0
7.5935097 53.21329 0.6257781 83 3203630882088 1 0
0.83201706 18.895506 -1.3225827 28 3203630882088 1 0
1.4968972 16.044718 -1.3155009 26 3203630884392 1 0
-0.108979285 23.125952 0.6730386 28 3203630884392 1 0
0 0 0 52 3203630886696 1 0
-0.079885446 17.519875 -1.1228386 21 3203630886696 1 0
2.2467377 15.693126 -0.92324764 4 3203630889000 1 0
1.0478994 23.552753 1.3730111 17 3203630889000 1 0
1.8116904 19.323156 0.79069823 4 3203630891304 1 0
0.89852214 20.126108 -0.9384397 38 3203630891304 1 0
1.401327 14.921776 -0.785458 4 3203630893608 1 0
1.0838276 24.193861 2.973612 22 3203630893608 1 0
1.9549481 20.782814 1.7040975 10 3203630895912 1 0
-0.07392334 18.720324 -0.7626916 37 3203630895912 1 0
0.8906456 19.74663 5.296473 18 3203630898216 1 0
2.2951832 15.962002 -0.5631383 6 3203630898216 1 0
1.8456918 19.557257 3.5816374 32 3203630900520 1 0
0.91209954 20.15391 -0.46945018 49 3203630900520 1 0
-0.04267654 18.809086 -0.32831466 45 3203630921256 1 0
0.3956817 4.1319876 -1.9355917 1 3203630921256 1 0
1.5314435 15.967937 -0.4668449 8 3203630923560 1 0
0.32993108 7.052851 -1.9765265 6 3203630923560 1 0
1.0110791 10.526132 -2.114929 3 3203630925864 1 0
1.1396006 24.285276 0 11 3203630925864 1 0
2.2037168 15.115164 -0.17782919 53 3203630928168 1 0
0.66698515 14.169665 -2.2069113 8 3203630928168 1 0
1.6618367 17.248316 -2.2056534 6 3203630930472 1 0
-0.04338604 25.715528 0.14945917 42 3203630930472 1 0
1.5444328 16.005386 -0.093455575 13 3203630932776 1 0
0.86286044 18.218073 -1.9645883 24 3203630932776 1 0
0 0 0 100 3203630935080 1 0
2.7785997 58.486183 1.3624756 34 3203630935080 1 0
7.696569 52.57604 0.61860716 27 3203630937384 1 0
0.8934675 18.748888 -1.3125378 18 3203630937384 1 0
1.551299 16.003502 -1.3125716 48 3203630939688 1 0
-0.02557639 23.13819 0.6733877 24 3203630939688 1 0
5.1146812 52.68425 0.9239304 66 3203630941992 1 0
-0.01691001 17.615852 -1.1289785 20 3203630941992 1 0
0 0 0 12 3203630944296 1 0
1.1349986 23.600689 1.3760344 10 3203630944296 1 0
1.8786318 19.29267 0.78972125 7 3203630946600 1 0
0.9766403 20.246479 -0.9442096 40 3203630946600 1 0
1.4535438 14.904739 -0.78483 4 3203630948904 1 0
1.2030015 24.863972 3.056483 13 3203630948904 1 0
2.0303063 20.787605 1.705074 7 3203630951208 1 0
-0.00712004 18.828379 -0.767088 37 3203630951208 1 0
2.3403862 15.874626 -0.5603463 6 3203630953512 1 0
0.95987755 19.720177 5.2902613 9 3203630953512 1 0
1.9252028 19.652397 3.6002917 21 3203630955816 1 0
0.989808 20.274359 -0.4723348 47 3203630955816 1 0
0.40974444 4.1269736 -1.9339012 1 3203630976552 1 0
0.023096956 18.905106 -0.3299901 45 3203630976552 1 0
0.3545481 7.0516567 -1.9765265 5 3203630978856 1 0
1.586777 15.958516 -0.46672854 6 3203630978856 1 0
1.0470386 10.514732 -2.11336 4 3203630981160 1 0
1.2227535 24.249191 0 30 3203630981160 1 0
2.257056 15.111336 -0.17787576 52 3203630983464 1 0
0.7172409 14.183041 -2.2093709 9 3203630983464 1 0
1.7196685 17.21872 -2.202623 4 3203630985768 1 0
0.04640703 25.731524 0.14955217 12 3203630985768 1 0
1.5987003 15.983977 -0.093362585 9 3203630988072 1 0
0.9323066 18.330135 -1.9770116 23 3203630988072 1 0
0 0 0 84 3203630990376 1 0
1.2436562 24.381695 0.5680859 28 3203630990376 1 0
7.990373 53.284576 0.62726814 74 3203630992680 1 0
0.966858 18.901072 -1.3234198 16 3203630992680 1 0
0 0 0 38 3203630994984 1 0
0.055124357 23.11015 0.67257315 28 3203630994984 1 0
5.299353 52.67403 0.92407 66 3203630997288 1 0
2.2129219 14.713305 -0.86650395 4 3203630999592 1 0
1.2171677 23.592596 1.3758018 10 3203630999592 1 0
0.044742525 17.679672 -1.1330718 21 3203630997288 1 0
2.1229067 21.039627 0.8615289 5 3203631001896 1 0
1.0010635 19.349112 -0.9025177 18 3203631001896 1 0
1.5019479 14.863807 -0.78294593 6 3203631004200 1 0
1.9398938 19.17 1.572938 11 3203631006504 1 0
1.2877285 24.819973 3.0516083 20 3203631004200 1 0
0.058876984 18.916216 -0.77067024 37 3203631006504 1 0
2.3963816 15.870313 -0.5604859 6 3203631008808 1 0
1.0293119 19.728281 5.293367 20 3203631008808 1 0
1.9806789 19.516361 3.576615 16 3203631011112 1 0
0.42379785 4.1291986 -1.9355917 1 3203631031296 1 0
0.08626028 19.00891 -0.33180514 45 3203631031296 1 0
1.6381693 15.937245 -0.4662631 8 3203631033600 1 0
0.37777537 7.046593 -1.9754483 5 3203631033600 1 0
1.0666319 20.38659 -0.4750333 96 3203631011112 1 0
1.0808489 10.499481 -2.1110065 4 3203631035904 1 0
1.3043717 24.260962 0 22 3203631035904 1 0
2.3092964 15.115579 -0.17801544 53 3203631038208 1 0
0.76479185 14.184514 -2.2099857 8 3203631038208 1 0
1.6097623 15.590654 -1.9950379 9 3203631040512 1 0
0.13161911 25.563229 0.14857577 9 3203631040512 1 0
0.9989207 18.422215 -1.9872929 22 3203631042816 1 0
1.6522772 15.978528 -0.093362585 9 3203631042816 1 0
2.2068098 14.400553 -1.3599576 2 3203631045120 1 0
1.3255656 24.377378 0.5680859 18 3203631045120 1 0
8.166706 53.237602 0.6270353 46 3203631047424 1 0
1.0324483 18.933569 -1.3259311 21 3203631047424 1 0
0.13361117 23.197794 0.6751331 26 3203631049728 1 0
1.5490928 14.913885 -1.2240472 2 3203631049728 1 0
2.19975 21.146656 0.37110797 10 3203631052032 1 0
0.105353326 17.81913 -1.1420258 16 3203631052032 1 0
2.2749162 14.7846575 -0.8711551 1 3203631054336 1 0
1.307198 23.771748 1.3864994 10 3203631054336 1 0
2.1910295 21.000496 0.8602263 27 3203631056640 1 0
1.1255089 20.410826 -0.9522129 46 3203631056640 1 0
1.63804 15.677024 -0.8260707 10 3203631058944 1 0
1.3710971 24.795626 3.049171 13 3203631058944 1 0
0 0 0 38 3203631061248 1 0
2.3145 14.981025 -0.5293556 2 3203631063552 1 0
0.124123365 19.02781 -0.77522945 37 3203631061248 1 0
1.1031708 19.84038 5.324425 14 3203631063552 1 0
2.0483363 19.51729 3.5780501 20 3203631065856 1 0
1.1364539 20.382816 -0.4750333 100 3203631065856 1 0
0.4366292 4.105988 -1.9254488 1 3203631086592 1 0
0.1566854 19.100449 -0.33341077 40 3203631086592 1 0
1.6862944 15.835727 -0.4634704 9 3203631088896 1 0
0.4031081 7.0374727 -1.9732916 6 3203631088896 1 0
1.1183397 10.487665 -2.1094375 4 3203631091200 1 0
3.0401855 52.94078 0 92 3203631091200 1 0
2.3643527 15.107065 -0.17801544 50 3203631093504 1 0
0.81692046 14.189525 -2.2112157 7 3203631093504 1 0
1.6322682 15.265113 -1.9541271 4 3203631095808 1 0
1.6898084 15.781522 -0.0922467 81 3203631098112 1 0
1.0721978 18.529638 -1.9992877 22 3203631098112 1 0
0.22439286 25.542583 0.14845952 24 3203631095808 1 0
2.259565 14.396401 -1.3603294 3 3203631100416 1 0
7.904056 50.31146 0.5929037 17 3203631102720 1 0
1.4129144 24.35645 0.5677137 18 3203631100416 1 0
1.1448891 19.686583 -1.378946 30 3203631102720 1 0
0 0 0 23 3203631105024 1 0
0.21750958 23.22115 0.67583126 14 3203631105024 1 0
2.268152 21.067026 0.3698514 17 3203631107328 1 0
0.1707118 17.946367 -1.1502124 21 3203631107328 1 0
2.3255289 14.760612 -0.8702249 4 3203631109632 1 0
1.3967931 23.838654 1.3906854 10 3203631109632 1 0
2.067259 19.148758 0.7846735 7 3203631111936 1 0
1.1993814 20.418627 -0.9527713 100 3203631111936 1 0
1.6936913 15.667091 -0.8258614 4 3203631114240 1 0
1.4614387 24.818304 3.0525832 6 3203631114240 1 0
2.2174146 20.48379 1.6819664 7 3203631116544 1 0
0.19303231 19.123161 -0.7791374 35 3203631116544 1 0
2.3672438 14.968734 -0.529216 2 3203631118848 1 0
1.177286 19.894178 5.3399544 18 3203631118848 1 0
2.1177287 19.509882 3.5780501 28 3203631121152 1 0
1.2091669 20.382639 -0.4751264 100 3203631121152 1 0
