# .PCD v.7 - Point Cloud Data file format
VERSION .7
FIELDS x y z rgb timestamp_ns device_id active
SIZE 4 4 4 4 8 1 1
TYPE F F F F F U U
COUNT 1 1 1 1 1 1 1
WIDTH 978
HEIGHT 1
VIEWPOINT 0 0 0 1 0 0 0
POINTS 978               
DATA ascii
-21.303335 20.370955 -1.2008648 8 3207418008544 1 0
-16.121479 20.728848 -0.9170192 3 3207418010848 1 0
0 0 0 9 3207418010848 1 0
0 0 0 29 3207418013152 1 0
-27.811605 29.343195 -0.9407614 18 3207418013152 1 0
-2.6865895 3.135605 -1.9254488 4 3207418033888 1 0
-27.646124 26.520945 -0.6687064 50 3207418033888 1 0
0 0 0 37 3207418036192 1 0
-5.055949 5.349944 -2.0606341 5 3207418036192 1 0
-7.467244 8.720394 -2.2961411 3 3207418038496 1 0
-27.700718 29.320011 0 17 3207418038496 1 0
-19.855898 25.630384 -0.37745047 29 3207418040800 1 0
-11.05925 11.709148 -2.5057573 2 3207418040800 1 0
-13.684228 15.990122 -2.6789067 12 3207418043104 1 0
-27.634434 26.540617 0.22268929 17 3207418043104 1 0
-26.98345 31.539646 -0.24124092 36 3207418045408 1 0
-16.527035 17.508448 -2.5934622 7 3207418045408 1 0
-12.234912 15.807306 -1.8659451 1 3207418047712 1 0
-19.865461 25.673565 0.37791613 12 3207418050016 1 0
0 0 0 15 3207418047712 1 0
-17.089079 18.11442 -1.7414006 5 3207418050016 1 0
-16.179722 18.928406 -2.03281 6 3207418052320 1 0
-30.685862 29.505606 1.2389077 34 3207418052320 1 0
0 0 0 21 3207418054624 1 0
-18.976877 18.25229 -1.6874558 5 3207418054624 1 0
-15.877641 20.538326 -1.5118471 3 3207418056928 1 0
-27.704695 29.392654 2.3523047 28 3207418056928 1 0
-28.384941 33.236454 1.7806993 18 3207418059232 1 0
-18.312874 19.434282 -1.24387 3 3207418059232 1 0
-16.4726 19.293755 -1.3295426 3 3207418061536 1 0
-27.721395 29.427519 4.963982 24 3207418061536 1 0
-22.02307 25.802414 2.7693212 6 3207418063840 1 0
-21.272404 20.484005 -1.2031444 4 3207418063840 1 0
-16.168737 20.940037 -0.9238595 3 3207418066144 1 0
0 0 0 9 3207418066144 1 0
0 0 0 29 3207418068448 1 0
-27.618565 29.344002 -0.9376907 18 3207418068448 1 0
-2.6709297 3.1394417 -1.9220679 4 3207418089184 1 0
-27.613787 26.675638 -0.6701724 62 3207418089184 1 0
-27.03868 31.790945 -1.2145879 17 3207418091488 1 0
-5.0398793 5.370369 -2.0617123 5 3207418091488 1 0
-7.434218 8.743418 -2.2953568 4 3207418093792 1 0
-27.633783 29.454449 0 17 3207418093792 1 0
-11.03183 11.762095 -2.508832 2 3207418096096 1 0
-25.272396 32.85838 -0.48259273 4 3207418096096 1 0
-13.615481 16.022673 -2.6763813 12 3207418098400 1 0
-27.573248 26.667507 0.222945 17 3207418098400 1 0
-26.909447 31.676323 -0.24156637 30 3207418100704 1 0
-16.4359 17.534115 -2.58875 7 3207418100704 1 0
-12.15782 15.821496 -1.8625991 1 3207418103008 1 0
0 0 0 5 3207418103008 1 0
-19.790342 25.761784 0.37819552 4 3207418105312 1 0
-17.033928 18.182697 -1.7422377 5 3207418105312 1 0
-16.239962 19.133703 -2.0487573 6 3207418107616 1 0
-30.487892 29.520756 1.2350677 11 3207418107616 1 0
-27.10214 31.940792 0.73118603 61 3207418109920 1 0
-18.89011 18.296204 -1.6854091 5 3207418109920 1 0
-15.835027 20.631638 -1.5146378 3 3207418112224 1 0
-26.963385 28.806982 2.2978866 18 3207418112224 1 0
-28.475544 33.57919 1.7937256 28 3207418114528 1 0
-18.253113 19.50684 -1.2444284 3 3207418114528 1 0
-16.48781 19.448639 -1.3362416 3 3207418116832 1 0
-27.531715 29.431326 4.948383 24 3207418116832 1 0
-21.842651 25.772684 2.7579303 6 3207418119136 1 0
-20.34574 19.729021 -1.1546214 3 3207418119136 1 0
-16.115002 21.02173 -0.9249763 3 3207418121440 1 0
0 0 0 9 3207418121440 1 0
0 0 0 29 3207418123744 1 0
-27.559656 29.486975 -0.9391795 18 3207418123744 1 0
-2.666973 3.157054 -1.9271393 4 3207418144480 1 0
-20.279171 19.727518 -0.4938333 39 3207418144480 1 0
-16.66253 19.730537 -0.75158304 11 3207418146784 1 0
-5.0210633 5.387965 -2.0617123 4 3207418146784 1 0
-7.4136457 8.781411 -2.2984946 2 3207418149088 1 0
-27.432213 29.445768 0 16 3207418149088 1 0
0 0 0 15 3207418151392 1 0
-11.003917 11.815234 -2.5119066 2 3207418151392 1 0
-13.548767 16.058367 -2.674361 14 3207418153696 1 0
-20.266994 19.739786 0.16443066 22 3207418153696 1 0
-26.965187 31.969776 -0.24307747 18 3207418156000 1 0
-16.349567 17.565775 -2.5848944 7 3207418156000 1 0
0 0 0 9 3207418158304 1 0
-27.316906 29.357937 0.9331311 12 3207418158304 1 0
-25.093039 32.905056 0.48175457 5 3207418160608 1 0
-16.87974 18.146496 -1.7330298 2 3207418160608 1 0
-20.255291 19.75251 0.8233785 9 3207418162912 1 0
-16.161682 19.179022 -2.0474555 3 3207418162912 1 0
-27.088877 32.156258 0.7339086 61 3207418165216 1 0
-18.742062 18.282429 -1.67799 5 3207418165216 1 0
-15.821908 20.767344 -1.5204517 3 3207418167520 1 0
-26.923086 28.970156 2.3032355 27 3207418167520 1 0
-28.65405 34.035313 1.8126138 28 3207418169824 1 0
-18.202383 19.592382 -1.2457312 3 3207418169824 1 0
-16.31009 19.379148 -1.3274492 3 3207418172128 1 0
-27.32897 29.42492 4.930834 23 3207418172128 1 0
-21.729578 25.826424 2.7553265 6 3207418174432 1 0
0 0 0 7 3207418174432 1 0
-16.063585 21.111301 -0.92637223 3 3207418176736 1 0
0 0 0 9 3207418176736 1 0
0 0 0 29 3207418179040 1 0
-26.172195 28.205332 -0.89535177 5 3207418179040 1 0
-2.6623719 3.1751413 -1.9322107 3 3207418199776 1 0
-27.462185 26.911743 -0.67114973 25 3207418199776 1 0
-16.549438 19.742088 -0.7497212 38 3207418202080 1 0
-4.996168 5.400568 -2.0595558 4 3207418202080 1 0
-7.376756 8.80219 -2.2969258 3 3207418204384 1 0
-27.032068 29.227772 0 16 3207418204384 1 0
-10.97473 11.869279 -2.514981 2 3207418206688 1 0
-13.478485 16.09153 -2.6718357 12 3207418208992 1 0
-24.905191 32.861965 -0.4800317 18 3207418206688 1 0
-27.520336 26.996992 0.2240609 11 3207418208992 1 0
-26.920666 32.148266 -0.24370517 18 3207418211296 1 0
-16.265406 17.60044 -2.5814672 7 3207418211296 1 0
-11.939891 15.767337 -1.846241 57 3207418213600 1 0
-23.894123 25.862097 0.8193278 10 3207418213600 1 0
-24.941093 32.945156 0.48105612 5 3207418215904 1 0
-16.75904 18.144117 -1.7271703 2 3207418215904 1 0
-16.112545 19.256723 -2.0497339 3 3207418218208 1 0
-29.979786 29.440489 1.2228497 16 3207418218208 1 0
-27.06698 32.3574 0.7363519 62 3207418220512 1 0
-18.644356 18.313765 -1.6749201 2 3207418220512 1 0
-15.84659 20.949148 -1.5297539 3 3207418222816 1 0
-37.04692 40.140335 3.1811347 22 3207418222816 1 0
-28.780842 34.424553 1.8280826 19 3207418225120 1 0
-18.24626 19.775013 -1.2533623 3 3207418225120 1 0
-16.228668 19.416157 -1.3261931 3 3207418227424 1 0
-27.145218 29.427296 4.915722 23 3207418227424 1 0
-21.544977 25.783503 2.742959 6 3207418229728 1 0
0 0 0 1 3207418229728 1 0
-16.072094 21.270403 -0.93097895 3 3207418232032 1 0
0 0 0 9 3207418232032 1 0
0 0 0 29 3207418234336 1 0
-2.6431015 3.172349 -1.9254488 4 3207418255072 1 0
-27.221622 29.533384 -0.9346199 18 3207418234336 1 0
-26.323866 25.958857 -0.6453202 23 3207418255072 1 0
-16.43587 19.732777 -0.747394 23 3207418257376 1 0
-4.9790983 5.41631 -2.0595558 4 3207418257376 1 0
-7.3563395 8.834578 -2.2992792 3 3207418259680 1 0
-27.201805 29.599016 0 16 3207418259680 1 0
-10.952912 11.9216385 -2.5186706 2 3207418261984 1 0
-24.737844 32.858047 -0.47882104 22 3207418261984 1 0
-13.432003 16.140676 -2.6728458 12 3207418264288 1 0
-26.315168 25.980495 0.21492457 11 3207418264288 1 0
-26.873472 32.30228 -0.2442166 19 3207418266592 1 0
-16.18723 17.629194 -2.5780401 7 3207418266592 1 0
-11.829066 15.726236 -1.8369466 52 3207418268896 1 0
-23.721254 25.841896 0.81625706 10 3207418268896 1 0
-24.730743 32.888416 0.47905385 5 3207418271200 1 0
-16.605677 18.09548 -1.7174044 7 3207418271200 1 0
-16.075205 19.339773 -2.0529883 3 3207418273504 1 0
-29.775652 29.431198 1.2184279 11 3207418273504 1 0
-27.063189 32.56884 0.7391443 54 3207418275808 1 0
-18.564455 18.355034 -1.6731292 2 3207418275808 1 0
-15.885578 21.14479 -1.540219 3 3207418278112 1 0
-37.149563 40.517963 3.2013671 22 3207418278112 1 0
-28.912155 34.814556 1.8437141 19 3207418280416 1 0
-18.205172 19.861658 -1.2550374 3 3207418280416 1 0
-16.164194 19.469866 -1.3261931 3 3207418282720 1 0
-26.961655 29.423483 4.9001226 7 3207418282720 1 0
-21.428429 25.818306 2.7390537 6 3207418285024 1 0
-21.198147 20.983418 -1.2151937 4 3207418285024 1 0
0 0 0 9 3207418287328 1 0
-16.084826 21.43596 -0.9358649 3 3207418287328 1 0
0 0 0 29 3207418289632 1 0
-27.100641 29.60108 -0.9338755 18 3207418289632 1 0
-2.6343226 3.184349 -1.9271393 4 3207418310368 1 0
-27.504448 27.313099 -0.6765949 19 3207418310368 1 0
-27.045788 32.703392 -1.2350677 27 3207418312672 1 0
-4.9652762 5.439419 -2.0617123 4 3207418312672 1 0
-7.3226995 8.857392 -2.2984946 3 3207418314976 1 0
-24.530573 32.823524 -0.4770516 13 3207418317280 1 0
-26.897932 29.47593 0 16 3207418314976 1 0
-10.934683 11.986555 -2.5242047 3 3207418317280 1 0
-13.3847475 16.200478 -2.674866 12 3207418319584 1 0
-26.875366 32.5397 -0.245286 44 3207418321888 1 0
-27.916151 27.757442 0.22880341 17 3207418319584 1 0
-16.11091 17.672068 -2.5758982 7 3207418321888 1 0
-11.722688 15.701441 -1.8291392 49 3207418324192 1 0
-24.574156 32.925762 0.47830883 5 3207418326496 1 0
-16.650743 18.275953 -1.7288444 8 3207418326496 1 0
-23.537058 25.826113 0.8130933 10 3207418324192 1 0
-16.106834 19.520634 -2.0660067 3 3207418328800 1 0
-29.58713 29.456598 1.2150534 33 3207418328800 1 0
-27.0494 32.793133 0.74200654 54 3207418331104 1 0
-18.486546 18.410877 -1.6721059 2 3207418331104 1 0
-26.951834 29.611025 2.3318398 28 3207418333408 1 0
-15.830071 21.231224 -1.5423119 3 3207418333408 1 0
-29.367022 35.626102 1.8810021 20 3207418335712 1 0
-18.154055 19.951628 -1.2565265 3 3207418335712 1 0
-16.06224 19.491987 -1.323681 3 3207418338016 1 0
-26.920418 29.595528 4.9123096 23 3207418338016 1 0
-22.585493 27.417076 2.8998299 7 3207418340320 1 0
-21.067019 21.007658 -1.2121 4 3207418340320 1 0
-16.031788 21.530506 -0.93740046 3 3207418342624 1 0
0 0 0 9 3207418342624 1 0
0 0 0 29 3207418344928 1 0
-26.802412 29.494223 -0.92736185 18 3207418344928 1 0
-2.6220763 3.1944406 -1.9271393 4 3207418365664 1 0
-27.433296 27.452454 -0.6774326 12 3207418365664 1 0
-27.004671 32.908215 -1.2389077 45 3207418367968 1 0
-4.9419265 5.4554453 -2.0606341 4 3207418367968 1 0
-7.2916403 8.888052 -2.2992792 2 3207418370272 1 0
-24.361967 32.8543 -0.47616687 22 3207418372576 1 0
-10.897586 12.036292 -2.5260494 2 3207418372576 1 0
-13.32685 16.253271 -2.6753712 12 3207418374880 1 0
-27.710875 27.759281 0.2279665 17 3207418374880 1 0
-27.04405 32.991413 -0.24793623 46 3207418377184 1 0
-16.0215 17.704926 -2.5720427 7 3207418377184 1 0
-11.617641 15.6803 -1.8217038 46 3207418379488 1 0
-23.375174 25.83807 0.81076694 10 3207418379488 1 0
-26.823866 29.618942 0 11 3207418370272 1 0
-24.356665 32.88312 0.4763997 5 3207418381792 1 0
0 0 0 28 3207418381792 1 0
-16.054 19.600195 -2.068285 3 3207418384096 1 0
-29.254826 29.336634 1.2057445 38 3207418384096 1 0
-27.033249 33.013477 0.7447989 55 3207418386400 1 0
-18.457193 18.513653 -1.6754317 2 3207418386400 1 0
-15.785508 21.328997 -1.5453352 3 3207418388704 1 0
-26.870676 29.73315 2.3339329 18 3207418388704 1 0
-26.907597 32.877586 1.7308736 9 3207418391008 1 0
-18.177471 20.119171 -1.2630408 3 3207418391008 1 0
-16.082636 19.65614 -1.3310081 3 3207418393312 1 0
-22.54346 27.559896 2.9066644 7 3207418395616 1 0
-26.878153 29.75708 4.9235215 15 3207418393312 1 0
-21.112625 21.199396 -1.2189388 4 3207418395616 1 0
-15.981555 21.617552 -0.93879646 3 3207418397920 1 0
0 0 0 9 3207418397920 1 0
0 0 0 29 3207418400224 1 0
-26.776897 29.668392 -0.9299673 42 3207418400224 1 0
-2.6143188 3.2054718 -1.9288298 4 3207418420960 1 0
-44.960087 45.27507 -1.1137428 14 3207418420960 1 0
-26.986578 33.09864 -1.242864 27 3207418423264 1 0
-4.927261 5.4738784 -2.0617123 4 3207418423264 1 0
-7.2659006 8.914167 -2.3000636 2 3207418425568 1 0
0 0 0 56 3207418425568 1 0
-25.28669 34.329384 -0.4963758 14 3207418427872 1 0
-10.864479 12.076819 -2.5272794 2 3207418427872 1 0
-27.517687 27.742731 0.22710633 17 3207418430176 1 0
-13.292318 16.317366 -2.6789067 12 3207418430176 1 0
-26.99091 33.143307 -0.24842444 13 3207418432480 1 0
-15.945894 17.73563 -2.569044 7 3207418432480 1 0
-11.519739 15.653576 -1.8142682 49 3207418434784 1 0
-23.200735 25.81229 0.8076032 9 3207418434784 1 0
-16.361935 18.209019 -1.7118238 7 3207418437088 1 0
-24.164555 32.845963 0.47472337 5 3207418437088 1 0
-16.098255 19.785368 -2.0822797 3 3207418439392 1 0
-26.008974 31.97552 0.719458 15 3207418441696 1 0
-29.130953 29.403385 1.2045808 33 3207418439392 1 0
-18.494825 18.673222 -1.6843858 2 3207418441696 1 0
-15.897417 21.628521 -1.563242 3 3207418444000 1 0
-37.312786 41.56145 3.2527618 47 3207418444000 1 0
-26.052668 32.048275 1.6826762 17 3207418446304 1 0
-17.523796 19.524876 -1.2220935 3 3207418446304 1 0
-16.118135 19.83336 -1.3393818 3 3207418448608 1 0
-26.845613 29.919924 4.9357085 7 3207418448608 1 0
-22.446514 27.62864 2.9060135 7 3207418450912 1 0
-21.055954 21.283804 -1.2197529 4 3207418450912 1 0
-16.003777 21.799791 -0.9443804 3 3207418453216 1 0
0 0 0 9 3207418453216 1 0
0 0 0 29 3207418455520 1 0
-27.125511 30.258427 -0.94560015 43 3207418455520 1 0
-2.603114 3.214578 -1.9288298 5 3207418476256 1 0
-27.076515 27.457237 -0.6731044 18 3207418476256 1 0
-27.021824 33.379097 -1.2498457 9 3207418478560 1 0
-4.9081235 5.4910445 -2.0617123 4 3207418478560 1 0
-27.167019 30.40245 0 47 3207418480864 1 0
-23.99336 32.8128 -0.4732333 13 3207418483168 1 0
-7.2347403 8.939476 -2.3000636 2 3207418480864 1 0
-10.811724 12.10288 -2.5248196 3 3207418483168 1 0
-13.247755 16.37909 -2.681432 19 3207418485472 1 0
-27.339277 27.755976 0.22643216 17 3207418485472 1 0
-27.013376 33.40839 -0.24970306 47 3207418487776 1 0
-15.8626995 17.76745 -2.5656168 7 3207418487776 1 0
-11.42039 15.632589 -1.8072045 50 3207418490080 1 0
-23.025282 25.79765 0.8046255 9 3207418490080 1 0
-16.314215 18.283884 -1.713498 7 3207418492384 1 0
-24.004932 32.868744 0.47383866 5 3207418492384 1 0
-16.106758 19.937578 -2.0923688 3 3207418494688 1 0
-28.918777 29.393736 1.2000427 26 3207418494688 1 0
-27.017921 33.453796 0.7505931 63 3207418496992 1 0
-18.429531 18.737665 -1.6843858 2 3207418496992 1 0
-15.835945 21.703238 -1.5646373 3 3207418499296 1 0
-37.22594 41.75702 3.257878 23 3207418499296 1 0
-26.814198 33.22131 1.7393407 9 3207418501600 1 0
-17.412998 19.538198 -1.2191155 3 3207418501600 1 0
-16.111517 19.96722 -1.3446153 3 3207418503904 1 0
-17.145939 19.24418 3.1647031 3 3207418503904 1 0
-22.372463 27.73475 2.9089427 7 3207418506208 1 0
-21.01234 21.388535 -1.221544 4 3207418506208 1 0
-15.9629 21.903982 -0.9464744 3 3207418508512 1 0
0 0 0 9 3207418508512 1 0
0 0 0 29 3207418510816 1 0
-27.094173 30.436562 -0.9482056 57 3207418510816 1 0
-27.014084 27.585875 -0.67394215 25 3207418531552 1 0
-2.5896053 3.2208195 -1.9271393 4 3207418531552 1 0
0 0 0 56 3207418533856 1 0
-4.8889265 5.5081434 -2.0617123 4 3207418533856 1 0
-7.225603 8.992193 -2.307124 3 3207418536160 1 0
-27.13772 30.583864 0 17 3207418536160 1 0
-10.772034 12.143502 -2.5254345 3 3207418538464 1 0
-23.810537 32.802483 -0.47188294 8 3207418538464 1 0
-13.207893 16.44689 -2.6849675 19 3207418540768 1 0
-27.340118 27.95132 0.22724582 35 3207418540768 1 0
-26.99175 33.621006 -0.25058648 54 3207418543072 1 0
-15.768924 17.787003 -2.5604763 7 3207418543072 1 0
-11.318989 15.607877 -1.7997689 49 3207418545376 1 0
-22.863478 25.797062 0.80211306 9 3207418545376 1 0
-23.810232 32.842236 0.47225547 5 3207418547680 1 0
-16.303215 18.400454 -1.7190785 2 3207418547680 1 0
-16.059515 20.02167 -2.0952978 3 3207418549984 1 0
-28.707026 29.382965 1.1955045 26 3207418549984 1 0
-26.986048 33.653988 0.75296664 23 3207418552288 1 0
-18.478369 18.918966 -1.6948748 2 3207418552288 1 0
-15.788199 21.797192 -1.567428 3 3207418554592 1 0
0 0 0 3 3207418554592 1 0
-30.0497 37.49698 1.9576945 20 3207418556896 1 0
-17.225529 19.464214 -1.2107399 3 3207418556896 1 0
-16.04172 20.023338 -1.3446153 3 3207418559200 1 0
-16.994476 19.208761 3.1491039 3 3207418559200 1 0
-22.268038 27.80334 2.9079664 7 3207418561504 1 0
-19.313232 19.796764 -1.1267775 7 3207418561504 1 0
-18.004522 24.887512 -1.0726709 4 3207418563808 1 0
0 0 0 9 3207418563808 1 0
0 0 0 29 3207418566112 1 0
-27.091055 30.647802 -0.9518346 51 3207418566112 1 0
-2.577783 3.2302892 -1.9271393 4 3207418587296 1 0
-26.95208 33.783947 -1.2577584 36 3207418589600 1 0
-26.976913 27.750658 -0.6755477 12 3207418587296 1 0
-4.866199 5.5231 -2.0606341 4 3207418589600 1 0
-7.2025104 9.030777 -2.3102617 2 3207418591904 1 0
-27.158083 30.832811 0 24 3207418591904 1 0
-23.65814 32.84358 -0.47123104 8 3207418594208 1 0
-10.74078 12.197499 -2.5285091 3 3207418594208 1 0
-13.16037 16.51032 -2.6874928 17 3207418596512 1 0
-27.085045 27.892717 0.2259672 11 3207418596512 1 0
-26.971771 33.84699 -0.25153962 48 3207418598816 1 0
-15.688509 17.826195 -2.557906 7 3207418598816 1 0
-11.215861 15.584116 -1.7923334 52 3207418601120 1 0
-22.690657 25.789625 0.7993215 9 3207418601120 1 0
-23.5956 32.794964 0.47034633 5 3207418603424 1 0
-16.186533 18.40233 -1.7137771 2 3207418603424 1 0
-16.029408 20.132486 -2.1008308 3 3207418605728 1 0
-28.500639 29.383 1.1913155 37 3207418605728 1 0
-26.986773 33.904243 0.7563873 24 3207418608032 1 0
-17.762665 18.31765 -1.6352664 5 3207418608032 1 0
-15.812348 21.996433 -1.5776604 3 3207418610336 1 0
0 0 0 3 3207418610336 1 0
-30.158913 37.910988 1.9736518 31 3207418612640 1 0
-17.055418 19.411783 -1.2036672 3 3207418612640 1 0
-16.156452 20.315084 -1.3603162 3 3207418614944 1 0
-16.8942 19.233648 3.143254 10 3207418614944 1 0
-19.181246 19.80244 -1.1231953 10 3207418617248 1 0
-21.612854 27.183659 2.8350637 7 3207418617248 1 0
-17.918056 24.954758 -1.0728105 4 3207418619552 1 0
0 0 0 9 3207418619552 1 0
0 0 0 29 3207418621856 1 0
-27.066305 30.840126 -0.95481235 51 3207418621856 1 0
-2.5693088 3.2416608 -1.9288298 4 3207418642592 1 0
-26.976421 27.934902 -0.67785144 12 3207418642592 1 0
-26.94146 34.00182 -1.2625291 36 3207418644896 1 0
-4.8478165 5.539242 -2.0606341 4 3207418644896 1 0
-7.206488 9.09776 -2.3212442 3 3207418647200 1 0
-27.136889 31.016418 0 54 3207418647200 1 0
-25.230738 35.27443 -0.50489706 15 3207418649504 1 0
-10.7130165 12.248158 -2.5315835 3 3207418649504 1 0
-13.122306 16.57603 -2.6910284 17 3207418651808 1 0
-27.002693 27.994682 0.2260602 17 3207418651808 1 0
-26.972334 34.0815 -0.252609 55 3207418654112 1 0
-15.599868 17.845755 -2.5531936 7 3207418654112 1 0
-11.121758 15.563384 -1.7856414 49 3207418656416 1 0
-27.103607 31.014769 0.9584414 19 3207418656416 1 0
-16.163858 18.5018 -1.7179624 2 3207418658720 1 0
-16.035564 20.280277 -2.1105945 3 3207418661024 1 0
-23.447845 32.82215 0.4696013 5 3207418658720 1 0
-26.279135 27.276283 1.1022985 4 3207418661024 1 0
-26.976133 34.127083 0.7593193 24 3207418663328 1 0
-17.559393 18.23098 -1.6222191 2 3207418663328 1 0
-27.385807 31.374512 2.4253273 10 3207418665632 1 0
-15.781793 22.111649 -1.582079 3 3207418665632 1 0
-30.161297 38.17941 1.9822817 21 3207418667936 1 0
-16.9316 19.40336 -1.1995723 3 3207418667936 1 0
-16.055035 20.3292 -1.3575947 3 3207418670240 1 0
-16.776443 19.2312 3.1335046 7 3207418670240 1 0
-18.999989 19.749659 -1.1165193 7 3207418672544 1 0
-17.890669 25.097233 -1.0763005 4 3207418674848 1 0
-21.646008 27.416796 2.8516622 7 3207418672544 1 0
0 0 0 9 3207418674848 1 0
0 0 0 29 3207418677152 1 0
-27.05773 31.044191 -0.9582553 58 3207418677152 1 0
-2.5647032 3.2591562 -1.9339012 3 3207418697888 1 0
-26.970095 28.124155 -0.68015516 12 3207418697888 1 0
-26.938547 34.24355 -1.2679982 27 3207418700192 1 0
-4.833464 5.56198 -2.0627906 5 3207418700192 1 0
-7.1187873 9.052053 -2.3032014 2 3207418702496 1 0
-25.206247 35.50307 -0.5068993 15 3207418704800 1 0
-27.11195 31.207977 0 49 3207418702496 1 0
-10.675112 12.29168 -2.5328135 3 3207418704800 1 0
-27.30794 28.5113 0.22945435 60 3207418707104 1 0
-12.997679 16.537882 -2.6773915 4 3207418707104 1 0
-26.95575 34.30852 -0.25358543 56 3207418709408 1 0
-15.51858 17.87964 -2.550195 7 3207418709408 1 0
-11.025209 15.544121 -1.7789495 50 3207418711712 1 0
0 0 0 7 3207418711712 1 0
-23.238916 32.77448 0.46773872 5 3207418714016 1 0
-16.168827 18.640316 -1.7254962 2 3207418714016 1 0
0 0 0 100 3207418716320 1 0
-26.961584 28.184126 1.1351126 14 3207418716320 1 0
-26.958298 34.354942 0.7622513 24 3207418718624 1 0
-17.370298 18.163486 -1.6107067 5 3207418718624 1 0
0 0 0 98 3207418720928 1 0
-117.21551 135.25764 10.423396 28 3207418720928 1 0
-30.266478 38.595066 1.998239 31 3207418723232 1 0
-16.78372 19.373093 -1.1939887 3 3207418723232 1 0
-16.014235 20.427382 -1.3603162 3 3207418725536 1 0
-21.658237 27.63543 2.8663077 7 3207418727840 1 0
-16.769909 19.363127 3.145204 10 3207418725536 1 0
0 0 0 15 3207418727840 1 0
-17.922756 25.334307 -1.0836992 4 3207418730144 1 0
0 0 0 9 3207418730144 1 0
0 0 0 29 3207418732448 1 0
-27.03477 31.244207 -0.96141905 32 3207418732448 1 0
-2.5460463 3.2599633 -1.9288298 4 3207418753184 1 0
-26.941288 28.30103 -0.68204004 12 3207418753184 1 0
-26.911783 34.46772 -1.2726526 27 3207418755488 1 0
-4.8131275 5.579588 -2.0627906 4 3207418755488 1 0
-7.0858264 9.077878 -2.3032014 2 3207418757792 1 0
-27.097563 31.42146 0 42 3207418757792 1 0
-25.18808 35.751072 -0.5091344 10 3207418760096 1 0
-10.646012 12.348222 -2.5365028 2 3207418760096 1 0
-12.369268 15.855695 -2.5597095 5 3207418762400 1 0
-27.287611 28.696573 0.23015179 42 3207418762400 1 0
-26.918419 34.515533 -0.2543991 21 3207418764704 1 0
-15.4282875 17.905146 -2.545911 7 3207418764704 1 0
-10.928259 15.524848 -1.7722574 53 3207418767008 1 0
-27.080694 31.437014 0.96551335 25 3207418767008 1 0
-23.10587 32.834183 0.46741277 5 3207418769312 1 0
-16.224684 18.839922 -1.7386104 2 3207418769312 1 0
-12.426271 15.946931 -1.650397 35 3207418771616 1 0
0 0 0 13 3207418771616 1 0
-26.9129 34.547813 0.7644154 8 3207418773920 1 0
-17.275759 18.192923 -1.6078925 2 3207418773920 1 0
-11.1599 15.872551 -1.12999 48 3207418776224 1 0
-19.985855 25.670265 1.3254291 5 3207418778528 1 0
-16.687046 19.398485 -1.1919413 3 3207418778528 1 0
-16.00417 20.561962 -1.3655498 3 3207418780832 1 0
0 0 0 3 3207418776224 1 0
-16.660799 19.373384 3.1374044 7 3207418780832 1 0
-20.000038 25.70313 2.6586654 6 3207418783136 1 0
-18.496994 19.500566 -1.0950259 31 3207418783136 1 0
-17.947527 25.556496 -1.0905395 4 3207418785440 1 0
0 0 0 9 3207418785440 1 0
0 0 0 29 3207418787744 1 0
-27.031155 31.458532 -0.9651412 13 3207418787744 1 0
-2.5352218 3.2683883 -1.9288298 4 3207418808480 1 0
-26.94072 28.489012 -0.68441355 13 3207418808480 1 0
-19.865664 25.618351 -0.9434642 17 3207418810784 1 0
-7.07718 9.129328 -2.3102617 3 3207418813088 1 0
-4.797064 5.5984783 -2.063869 4 3207418810784 1 0
-27.08644 31.620901 0 56 3207418813088 1 0
-10.61759 12.398699 -2.5395775 3 3207418815392 1 0
-25.148851 35.949657 -0.5107642 10 3207418815392 1 0
-12.291857 15.865617 -2.5546587 15 3207418817696 1 0
-27.284847 28.886562 0.2309422 48 3207418817696 1 0
-19.87107 25.656136 -0.18860823 8 3207418820000 1 0
-15.334558 17.917488 -2.540342 7 3207418820000 1 0
-10.8349695 15.502717 -1.7655655 53 3207418822304 1 0
-27.065912 31.634169 0.9687702 39 3207418822304 1 0
-22.89897 32.774086 0.46545708 5 3207418824608 1 0
-16.179314 18.91567 -1.7405635 2 3207418824608 1 0
-27.597189 29.251312 1.1703703 15 3207418826912 1 0
-12.299196 15.894181 -1.6406332 35 3207418826912 1 0
-19.851006 25.661053 0.5662957 9 3207418829216 1 0
-17.11006 18.140888 -1.598171 2 3207418829216 1 0
0 0 0 24 3207418831520 1 0
0 0 0 3 3207418831520 1 0
-19.888783 25.725344 1.3247777 5 3207418833824 1 0
-16.595118 19.424664 -1.19008 3 3207418833824 1 0
-15.934096 20.616312 -1.3655498 3 3207418836128 1 0
-16.62055 19.460165 3.1422791 3 3207418836128 1 0
-21.618534 27.979525 2.886486 7 3207418838432 1 0
-18.44682 19.580996 -1.0960028 24 3207418838432 1 0
-17.869217 25.630808 -1.0910978 4 3207418840736 1 0
0 0 0 9 3207418840736 1 0
0 0 0 29 3207418843040 1 0
-27.016693 31.660446 -0.9684911 72 3207418843040 1 0
-2.5215857 3.2743456 -1.9271393 4 3207418863776 1 0
-26.931458 28.679089 -0.6867173 13 3207418863776 1 0
-4.772541 5.609287 -2.0617123 2 3207418866080 1 0
-25.283815 32.841087 -1.2062099 8 3207418866080 1 0
-7.0358334 9.14144 -2.307124 3 3207418868384 1 0
-27.080023 31.83674 0 50 3207418868384 1 0
-13.293356 19.14356 -0.27133036 5 3207418870688 1 0
-10.579638 12.441477 -2.5408072 3 3207418870688 1 0
-12.234444 15.904925 -2.5541537 11 3207418872992 1 0
-27.274996 29.07711 0.23170938 42 3207418872992 1 0
-25.271053 32.862072 -0.2409387 6 3207418875296 1 0
-15.246819 17.940048 -2.5360582 7 3207418875296 1 0
-10.742873 15.4843445 -1.7592453 52 3207418877600 1 0
-27.04733 31.833939 0.97202706 39 3207418877600 1 0
-13.248581 19.101606 0.2706319 6 3207418879904 1 0
-16.114153 18.97121 -1.7405635 2 3207418879904 1 0
-12.188701 15.863593 -1.6331477 35 3207418882208 1 0
-25.271395 32.900127 0.7241352 7 3207418884512 1 0
-27.40914 29.2525 1.1666467 51 3207418882208 1 0
-17.025991 18.17608 -1.5961244 2 3207418884512 1 0
0 0 0 3 3207418886816 1 0
-10.953799 15.807012 -1.1199901 4 3207418886816 1 0
-30.351198 39.53599 2.030642 32 3207418889120 1 0
-16.440878 19.377562 -1.1837518 3 3207418889120 1 0
-15.985438 20.828865 -1.376017 3 3207418891424 1 0
-16.55936 19.522675 3.143254 10 3207418891424 1 0
-21.545229 28.08125 2.8894153 7 3207418893728 1 0
0 0 0 64 3207418896032 1 0
0 0 0 9 3207418896032 1 0
0 0 0 29 3207418898336 1 0
-26.893963 31.733318 -0.96793276 19 3207418898336 1 0
-2.512916 3.2855692 -1.9288298 4 3207418919072 1 0
-18.426636 19.693142 -1.0987709 28 3207418893728 1 0
-26.931688 28.870596 -0.68916065 19 3207418919072 1 0
-19.316826 25.263836 -0.92554444 5 3207418921376 1 0
-4.756359 5.628059 -2.0627906 4 3207418921376 1 0
-7.002965 9.161707 -2.3063393 2 3207418923680 1 0
-27.064186 32.0337 0 50 3207418923680 1 0
-10.5559025 12.497859 -2.5451117 3 3207418925984 1 0
-12.080002 15.813329 -2.5329406 7 3207418928288 1 0
-13.21349 19.164776 -0.2710044 16 3207418925984 1 0
-27.237564 29.23257 0.23222083 24 3207418928288 1 0
-25.085484 32.84806 -0.24021801 6 3207418930592 1 0
-15.171198 17.972828 -2.5334878 7 3207418930592 1 0
-10.647862 15.458033 -1.7521815 52 3207418932896 1 0
-27.007278 32.004093 0.9744464 13 3207418932896 1 0
-13.179653 19.139519 0.27053878 6 3207418935200 1 0
-16.075914 19.055859 -1.7433538 2 3207418935200 1 0
-12.079481 15.831733 -1.6256622 37 3207418937504 1 0
-27.359308 29.397505 1.1687413 15 3207418937504 1 0
-25.077528 32.877277 0.7217617 7 3207418939808 1 0
-16.877419 18.140032 -1.5879378 4 3207418939808 1 0
-10.870746 15.801272 -1.1169668 32 3207418942112 1 0
-30.347593 39.81048 2.0394347 22 3207418944416 1 0
-16.385273 19.445507 -1.1844963 3 3207418944416 1 0
-16.059729 21.073776 -1.3885776 4 3207418946720 1 0
-16.239597 19.278313 3.0949938 3 3207418946720 1 0
-21.5508 28.287762 2.9030845 7 3207418949024 1 0
-18.42738 19.829065 -1.1028416 7 3207418949024 1 0
0 0 0 3 3207418942112 1 0
-12.611972 18.355108 -0.77770036 12 3207418951328 1 0
0 0 0 9 3207418951328 1 0
0 0 0 29 3207418953632 1 0
-27.001411 32.082253 -0.97574914 54 3207418953632 1 0
-2.5036242 3.297208 -1.9305202 4 3207418974368 1 0
-26.961205 29.10526 -0.6925115 19 3207418974368 1 0
-19.10523 25.168692 -0.91960996 5 3207418976672 1 0
-6.959087 9.170474 -2.302417 2 3207418978976 1 0
-27.052464 32.24749 0 51 3207418978976 1 0
-12.538881 18.322863 -0.2584786 10 3207418981280 1 0
-10.509672 12.531601 -2.5444968 3 3207418981280 1 0
-11.950399 15.75739 -2.5172832 3 3207418983584 1 0
-27.225002 29.424356 0.232988 18 3207418983584 1 0
-24.876423 32.811115 -0.23931135 6 3207418985888 1 0
-15.085377 17.998243 -2.5296323 7 3207418985888 1 0
-10.557875 15.442503 -1.7462331 55 3207418988192 1 0
0 0 0 10 3207418988192 1 0
-12.530476 18.333456 0.25852516 2 3207418990496 1 0
-16.027235 19.13327 -1.745307 2 3207418990496 1 0
-4.7416368 5.650529 -2.0649474 4 3207418976672 1 0
-11.971186 15.803886 -1.6185021 36 3207418992800 1 0
-27.251099 29.486954 1.1685085 15 3207418992800 1 0
-24.902252 32.884907 0.7200165 7 3207418995104 1 0
-16.786907 18.169514 -1.5853795 2 3207418995104 1 0
-10.779493 15.786359 -1.113246 24 3207418997408 1 0
0 0 0 3 3207418997408 1 0
-30.536457 40.34959 2.0615795 24 3207418999712 1 0
-16.273708 19.450487 -1.1813321 3 3207418999712 1 0
-15.923407 21.046883 -1.3831346 4 3207419002016 1 0
-16.299564 19.487148 3.1193676 7 3207419002016 1 0
-21.562553 28.509083 2.9180555 7 3207419004320 1 0
-12.527553 18.369297 -0.776444 24 3207419006624 1 0
-18.374315 19.910892 -1.1038187 3 3207419004320 1 0
0 0 0 9 3207419006624 1 0
0 0 0 29 3207419008928 1 0
-26.989267 32.29598 -0.9793782 60 3207419008928 1 0
-2.4942818 3.3088222 -1.9322107 4 3207419029664 1 0
-26.215034 28.498652 -0.6758968 6 3207419029664 1 0
-18.921005 25.107504 -0.9149555 5 3207419031968 1 0
-4.719418 5.6640863 -2.063869 4 3207419031968 1 0
-6.955355 9.232303 -2.3118305 2 3207419034272 1 0
-27.042137 32.46466 0 51 3207419034272 1 0
-12.459114 18.343359 -0.25815266 19 3207419036576 1 0
-10.455748 12.556062 -2.542037 3 3207419036576 1 0
-11.883389 15.783159 -2.5147579 3 3207419038880 1 0
-27.233084 29.639973 0.23394115 6 3207419038880 1 0
-24.74009 32.868988 -0.23910213 6 3207419041184 1 0
-15.002107 18.026337 -2.526205 7 3207419041184 1 0
-10.468125 15.426534 -1.7402847 53 3207419043488 1 0
-27.015932 32.4716 0.9829142 26 3207419043488 1 0
0 0 0 8 3207419045792 1 0
-16.070068 19.321014 -1.7573051 2 3207419045792 1 0
-11.856044 15.76592 -1.6103656 35 3207419048096 1 0
-27.131783 29.564224 1.1678104 20 3207419048096 1 0
-24.693583 32.846954 0.7172939 7 3207419050400 1 0
-16.701792 18.20447 -1.5833329 2 3207419050400 1 0
-10.679517 15.757778 -1.1085949 4 3207419052704 1 0
0 0 0 3 3207419052704 1 0
-30.81795 41.018314 2.0902374 26 3207419055008 1 0
-15.938603 21.220512 -1.3908803 4 3207419057312 1 0
-16.269491 19.589739 3.12668 7 3207419057312 1 0
-21.410242 28.514038 2.9108953 7 3207419059616 1 0
-18.326302 19.998482 -1.1051213 3 3207419059616 1 0
-12.436466 18.373188 -0.7747688 9 3207419061920 1 0
-16.195501 19.49488 -1.1805876 3 3207419055008 1 0
0 0 0 9 3207419061920 1 0
0 0 0 29 3207419064224 1 0
-2.4827168 3.3175087 -1.9322107 4 3207419084960 1 0
-26.975958 32.510014 -0.98300725 61 3207419064224 1 0
0 0 0 29 3207419084960 1 0
-18.79253 25.11897 -0.91297734 5 3207419087264 1 0
-4.704529 5.6864614 -2.0660255 4 3207419087264 1 0
-6.9418797 9.281653 -2.3181064 3 3207419089568 1 0
-27.033173 32.685234 0 52 3207419089568 1 0
-12.395008 18.386738 -0.25815266 3 3207419091872 1 0
-11.875735 15.888109 -2.5248594 3 3207419094176 1 0
-10.424449 12.607713 -2.5451117 4 3207419091872 1 0
0 0 0 5 3207419094176 1 0
-24.515068 32.807755 -0.23803274 5 3207419096480 1 0
-14.916291 18.051003 -2.5223496 7 3207419096480 1 0
-26.9992 32.682858 0.9864502 26 3207419098784 1 0
-12.359737 18.357449 0.25764045 12 3207419101088 1 0
-15.984742 19.355455 -1.7553519 2 3207419101088 1 0
-10.376391 15.406823 -1.7339646 50 3207419098784 1 0
-11.750854 15.740121 -1.603531 35 3207419103392 1 0
-26.90992 29.52872 1.1626905 15 3207419103392 1 0
-24.490267 32.81436 0.71471095 7 3207419105696 1 0
-16.562872 18.180037 -1.5761696 2 3207419105696 1 0
-10.575415 15.722066 -1.1034787 2 3207419108000 1 0
-124.47225 150.8538 11.389899 28 3207419108000 1 0
-31.128595 41.734337 2.121175 29 3207419110304 1 0
-16.162949 19.594446 -1.1831934 3 3207419110304 1 0
-15.883535 21.301638 -1.3925551 4 3207419112608 1 0
-16.264158 19.722986 3.138867 10 3207419112608 1 0
-21.377295 28.678099 2.9200082 7 3207419114912 1 0
-18.253693 20.059374 -1.1049584 3 3207419114912 1 0
-12.383402 18.433079 -0.7754668 6 3207419117216 1 0
0 0 0 9 3207419117216 1 0
0 0 0 29 3207419119520 1 0
-26.951311 32.711998 -0.9862641 61 3207419119520 1 0
-2.4689593 3.3232448 -1.9305202 3 3207419140256 1 0
-26.875277 29.628906 -0.69823587 27 3207419140256 1 0
-18.621113 25.072206 -0.9089047 5 3207419142560 1 0
-4.677274 5.6939535 -2.0627906 4 3207419142560 1 0
-6.883583 9.271288 -2.3094773 2 3207419144864 1 0
-27.01744 32.90035 0 58 3207419144864 1 0
-12.343694 18.450108 -0.25843206 3 3207419147168 1 0
-12.652017 17.051493 -2.702645 10 3207419149472 1 0
-10.390132 12.65647 -2.5475714 6 3207419147168 1 0
-26.850067 29.637476 0.23243006 12 3207419149472 1 0
-24.399202 32.894016 -0.23803274 5 3207419151776 1 0
-14.82983 18.075829 -2.5184941 6 3207419151776 1 0
-10.282039 15.383799 -1.7272725 49 3207419154080 1 0
-26.979889 32.895573 0.9899862 39 3207419154080 1 0
-12.294645 18.401106 0.25764045 4 3207419156384 1 0
-16.123552 19.66497 -1.778232 2 3207419156384 1 0
-26.890802 29.718906 1.166414 30 3207419158688 1 0
0 0 0 28 3207419158688 1 0
-24.330568 32.8434 0.71345437 7 3207419160992 1 0
-16.474016 18.212177 -1.5738671 2 3207419160992 1 0
-10.450599 15.656689 -1.0962694 2 3207419163296 1 0
0 0 0 3 3207419163296 1 0
-31.376518 42.381657 2.1483674 31 3207419165600 1 0
-16.14351 19.713861 -1.1869159 3 3207419165600 1 0
-15.876131 21.451445 -1.3986261 4 3207419167904 1 0
-16.160793 19.741116 3.1325295 7 3207419167904 1 0
-21.257742 28.732122 2.91773 7 3207419170208 1 0
0 0 0 19 3207419172512 1 0
0 0 0 9 3207419172512 1 0
-18.18166 20.12469 -1.1049584 3 3207419170208 1 0
0 0 0 29 3207419174816 1 0
-26.932117 32.929527 -0.98989314 56 3207419174816 1 0
-2.4567626 3.3322716 -1.9305202 4 3207419195552 1 0
-27.216087 30.226526 -0.7099639 55 3207419195552 1 0
-18.500628 25.101665 -0.9075083 5 3207419197856 1 0
-4.6588073 5.7140436 -2.063869 4 3207419197856 1 0
-6.8449025 9.290139 -2.3079083 2 3207419200160 1 0
-26.982597 33.104572 0 59 3207419200160 1 0
-25.073982 37.776913 -0.52785325 16 3207419202464 1 0
-12.570613 17.07219 -2.6986046 12 3207419204768 1 0
-10.348667 12.700595 -2.5488012 7 3207419202464 1 0
-24.162287 32.82538 -0.23689361 5 3207419207072 1 0
-27.228048 30.276985 0.23666112 38 3207419204768 1 0
-10.177164 15.348357 -1.7190934 48 3207419209376 1 0
-14.748412 18.111559 -2.515924 6 3207419207072 1 0
-26.952549 33.108986 0.9934291 40 3207419209376 1 0
-12.251429 18.482718 0.25815266 2 3207419211680 1 0
-15.963215 19.615612 -1.7684661 2 3207419211680 1 0
-11.549609 15.705646 -1.5914891 19 3207419213984 1 0
-27.235897 30.322947 1.1861956 47 3207419213984 1 0
-24.127117 32.819572 0.71101105 7 3207419216288 1 0
-16.396486 18.260553 -1.5728438 2 3207419216288 1 0
0 0 0 12 3207419218592 1 0
-26.118155 32.124058 2.4111414 10 3207419218592 1 0
-31.538055 42.92797 2.1701865 33 3207419220896 1 0
-16.11903 19.83181 -1.1904522 3 3207419220896 1 0
-15.92745 21.686562 -1.41014 4 3207419223200 1 0
-16.105856 19.821785 3.135942 7 3207419223200 1 0
-20.578949 28.02894 2.8386438 7 3207419225504 1 0
-18.259874 20.36079 -1.1142397 3 3207419225504 1 0
-12.586676 19.032627 -0.7968253 56 3207419227808 1 0
0 0 0 9 3207419227808 1 0
0 0 0 29 3207419230112 1 0
-26.904497 33.142895 -0.9933361 56 3207419230112 1 0
-2.4414155 3.3345501 -1.9271393 4 3207419250296 1 0
-27.19569 30.406042 -0.7120582 61 3207419250296 1 0
-18.393854 25.13048 -0.90634465 5 3207419252600 1 0
-6.825774 9.328515 -2.3118305 2 3207419254904 1 0
-4.6447234 5.7354145 -2.0660255 4 3207419252600 1 0
-25.924274 32.02143 0 30 3207419254904 1 0
-24.88557 37.76246 -0.5265029 5 3207419257208 1 0
-10.311744 12.740762 -2.550031 8 3207419257208 1 0
-12.51677 17.11662 -2.6991096 14 3207419259512 1 0
-27.20033 30.44686 0.23728882 32 3207419259512 1 0
-14.671423 18.138187 -2.5129251 6 3207419261816 1 0
-24.037973 32.881844 -0.23673087 5 3207419261816 1 0
-10.083081 15.31505 -1.711658 50 3207419264120 1 0
-25.941376 32.0807 0.9600233 12 3207419264120 1 0
-21.521183 32.698574 0.45572513 5 3207419266424 1 0
-15.946743 19.72659 -1.7737676 2 3207419266424 1 0
-27.198189 30.480133 1.188872 26 3207419268728 1 0
-23.975494 32.836456 0.70968467 7 3207419271032 1 0
-16.424732 18.412058 -1.5812862 2 3207419271032 1 0
-11.460757 15.691678 -1.5862818 36 3207419268728 1 0
0 0 0 12 3207419273336 1 0
-31.731148 43.48503 2.1931455 35 3207419275640 1 0
-26.02888 32.22724 2.4125369 10 3207419273336 1 0
-15.8714695 21.757238 -1.411396 4 3207419277944 1 0
-16.071693 19.910757 3.1417916 10 3207419277944 1 0
-20.596601 28.243265 2.8536148 7 3207419280248 1 0
-17.63052 19.786903 -1.0797199 3 3207419280248 1 0
-16.052258 19.880762 -1.1902661 3 3207419275640 1 0
0 0 0 9 3207419282552 1 0
-12.571515 19.143156 -0.7997569 59 3207419282552 1 0
0 0 0 29 3207419284856 1 0
-25.76129 31.943424 -0.9549054 25 3207419284856 1 0
-2.4318924 3.3459845 -1.9288298 4 3207419305592 1 0
-27.18234 30.605448 -0.7145015 55 3207419305592 1 0
-18.29662 25.181595 -0.90587926 5 3207419307896 1 0
-4.624675 5.7515926 -2.0660255 4 3207419307896 1 0
-6.78856 9.345938 -2.3102617 2 3207419310200 1 0
-26.970137 33.55208 0 54 3207419310200 1 0
-24.82147 37.95286 -0.5279464 16 3207419312504 1 0
-10.27216 12.782841 -2.5512607 8 3207419312504 1 0
-12.452284 17.153784 -2.6980994 14 3207419314808 1 0
-27.184137 30.643356 0.23807923 32 3207419314808 1 0
-23.81498 32.816635 -0.23566148 5 3207419317112 1 0
-14.585608 18.161383 -2.5090697 6 3207419317112 1 0
-26.935808 33.549324 1.0011525 27 3207419319416 1 0
-9.996883 15.300141 -1.7060813 53 3207419319416 1 0
-21.323797 32.64625 0.45395568 5 3207419321720 1 0
-15.955215 19.878601 -1.7824174 2 3207419321720 1 0
-11.34975 15.654124 -1.5784708 31 3207419324024 1 0
-27.200344 30.697582 1.1936427 16 3207419324024 1 0
-23.77858 32.80661 0.7072413 7 3207419326328 1 0
-16.360361 18.469278 -1.5812862 2 3207419326328 1 0
0 0 0 12 3207419328632 1 0
-37.535313 46.807064 3.4941552 28 3207419328632 1 0
-31.87458 44.003357 2.213662 37 3207419330936 1 0
-16.03275 19.999023 -1.1939887 3 3207419330936 1 0
-15.779025 21.789862 -1.4099307 4 3207419333240 1 0
-15.48814 19.325445 3.0408838 6 3207419333240 1 0
-20.537632 28.369888 2.8591475 7 3207419335544 1 0
-17.413034 19.680702 -1.0706015 3 3207419335544 1 0
-12.543905 19.247206 -0.80226964 59 3207419337848 1 0
0 0 0 9 3207419337848 1 0
-14.794631 20.449251 4.6018877 10 3207419340152 1 0
-25.754608 32.164257 -0.9588136 39 3207419340152 1 0
-2.422319 3.3573928 -1.9305202 3 3207419360888 1 0
-27.159994 30.79613 -0.7167354 41 3207419360888 1 0
-18.143118 25.15451 -0.9026211 5 3207419363192 1 0
-4.606973 5.770711 -2.0671039 4 3207419363192 1 0
-6.760483 9.37594 -2.3118305 3 3207419365496 1 0
-26.957651 33.777325 0 54 3207419365496 1 0
-24.649643 37.978886 -0.52710825 10 3207419367800 1 0
-10.220081 12.809351 -2.549416 9 3207419367800 1 0
-12.359853 17.152077 -2.6910284 19 3207419370104 1 0
-27.15897 30.831106 0.23879991 26 3207419370104 1 0
-23.606764 32.769745 -0.23473157 5 3207419372408 1 0
-14.504767 18.190418 -2.5060709 6 3207419372408 1 0
-9.904413 15.274794 -1.6993893 55 3207419374712 1 0
-26.920734 33.77135 1.0049677 27 3207419374712 1 0
-15.925518 19.984104 -1.7868818 2 3207419377016 1 0
-21.17055 32.660072 0.45311752 5 3207419377016 1 0
-11.243802 15.622459 -1.5713108 33 3207419379320 1 0
-23.63589 32.850456 0.7064036 7 3207419381624 1 0
-27.17754 30.8884 1.1973664 43 3207419379320 1 0
-16.330067 18.565239 -1.584612 2 3207419381624 1 0
-10.069334 15.548947 -1.0788276 1 3207419383928 1 0
-37.249817 46.78473 3.48276 28 3207419383928 1 0
-32.01711 44.52645 2.2343411 39 3207419386232 1 0
-16.05491 20.170538 -1.2008753 3 3207419386232 1 0
-15.789135 21.964815 -1.4176763 4 3207419388536 1 0
-15.348898 19.289299 3.026747 6 3207419388536 1 0
-20.56411 28.61623 2.8767223 7 3207419390840 1 0
-12.507037 19.33787 -0.804224 15 3207419393144 1 0
0 0 0 9 3207419393144 1 0
-14.72316 20.500769 4.6018877 24 3207419395448 1 0
-26.906368 33.844124 -1.0060843 21 3207419395448 1 0
-2.408474 3.3628805 -1.9288298 3 3207419416184 1 0
-27.168266 31.023132 -0.719807 13 3207419416184 1 0
-17.278282 19.666302 -1.0665307 3 3207419390840 1 0
-18.06684 25.233942 -0.9032029 5 3207419418488 1 0
-4.5844088 5.7837386 -2.0660255 4 3207419418488 1 0
-6.739128 9.415429 -2.315753 3 3207419420792 1 0
-26.938951 33.996624 0 55 3207419420792 1 0
-24.438951 37.94364 -0.52543193 10 3207419423096 1 0
-10.163034 12.829457 -2.5463414 14 3207419423096 1 0
-27.093319 30.973892 0.23917188 13 3207419425400 1 0
-12.286055 17.175753 -2.687998 17 3207419425400 1 0
-23.392185 32.71204 -0.23373193 5 3207419427704 1 0
-9.816552 15.255687 -1.6934409 56 3207419430008 1 0
-12.631715 15.955365 -2.1920624 4 3207419427704 1 0
-26.90692 33.996815 1.0088758 34 3207419430008 1 0
-20.987173 32.62613 0.45162746 5 3207419432312 1 0
-15.944796 20.152224 -1.7969267 2 3207419432312 1 0
-11.145167 15.599978 -1.565127 35 3207419434616 1 0
-27.16952 31.097496 1.2017882 26 3207419434616 1 0
-23.493181 32.893703 0.70556587 7 3207419436920 1 0
-16.254658 18.610104 -1.5835887 2 3207419436920 1 0
-10.014997 15.584002 -1.0788276 1 3207419439224 1 0
-37.145714 46.98965 3.4883413 28 3207419439224 1 0
-32.11226 44.989265 2.2519267 20 3207419441528 1 0
-16.083502 20.351854 -1.2083203 3 3207419441528 1 0
-17.839987 25.001509 -1.6096447 5 3207419443832 1 0
-15.2445545 19.29603 3.019435 6 3207419443832 1 0
-20.540497 28.794943 2.8874624 7 3207419446136 1 0
-17.101805 19.603016 -1.0598547 3 3207419446136 1 0
-17.679968 27.546429 -1.1430283 5 3207419448440 1 0
0 0 0 9 3207419448440 1 0
-14.704048 20.625734 4.6183896 10 3207419450744 1 0
-26.857439 34.025726 -1.0086898 72 3207419450744 1 0
-2.4030223 3.3801312 -1.9339012 4 3207419471480 1 0
-18.029972 25.368292 -0.90576285 5 3207419473784 1 0
-27.14379 31.214352 -0.72204095 63 3207419471480 1 0
-4.561894 5.7966127 -2.0649474 4 3207419473784 1 0
-26.917568 34.212273 0 55 3207419476088 1 0
-6.697408 9.425911 -2.3126152 2 3207419476088 1 0
-20.856983 32.628838 -0.45083588 4 3207419478392 1 0
-12.247704 17.24694 -2.6925435 10 3207419480696 1 0
-10.128525 12.87684 -2.5488012 10 3207419478392 1 0
0 0 0 7 3207419480696 1 0
-23.25477 32.755924 -0.23347619 5 3207419483000 1 0
-12.530406 15.939042 -2.183923 3 3207419483000 1 0
-9.734562 15.242016 -1.688236 53 3207419485304 1 0
-26.88743 34.21081 1.0125049 20 3207419485304 1 0
-20.846354 32.649868 0.45097557 5 3207419487608 1 0
-15.938044 20.284584 -1.8039024 9 3207419487608 1 0
-11.046332 15.572462 -1.5586178 35 3207419489912 1 0
-23.285368 32.83543 0.70263386 7 3207419492216 1 0
-16.304522 18.794268 -1.5945894 2 3207419492216 1 0
-9.952071 15.600584 -1.0776649 1 3207419494520 1 0
-36.08087 45.957794 3.4027605 79 3207419494520 1 0
-32.440628 45.770947 2.2856324 21 3207419496824 1 0
-27.169252 31.309792 1.2064426 33 3207419489912 1 0
-16.003292 20.389593 -1.2073896 3 3207419496824 1 0
-17.740816 25.037716 -1.6081792 5 3207419499128 1 0
-15.121663 19.271513 3.0077355 6 3207419499128 1 0
-20.555931 29.018757 2.9030845 7 3207419501432 1 0
-16.99773 19.614067 -1.0574123 3 3207419501432 1 0
0 0 0 9 3207419503736 1 0
-17.69029 27.762846 -1.1495894 5 3207419503736 1 0
-14.454568 20.416807 4.5609913 10 3207419506040 1 0
-26.85451 34.251904 -1.0127841 50 3207419506040 1 0
-2.3882089 3.3817413 -1.9305202 4 3207419526776 1 0
-27.139727 31.408415 -0.7245541 49 3207419526776 1 0
-17.974997 25.46113 -0.90704286 5 3207419529080 1 0
-4.5459065 5.8140492 -2.0660255 3 3207419529080 1 0
-6.6696124 9.4504 -2.3133996 2 3207419531384 1 0
-26.911919 34.4302 0 49 3207419531384 1 0
0 0 0 17 3207419533688 1 0
-10.106646 12.934171 -2.5537205 9 3207419533688 1 0
-12.043298 17.075626 -2.659714 20 3207419535992 1 0
-27.145117 31.453468 0.24147339 20 3207419535992 1 0
-23.049059 32.690777 -0.23247655 5 3207419538296 1 0
-12.42223 15.907597 -2.1740701 12 3207419538296 1 0
-9.654773 15.226702 -1.6830312 60 3207419540600 1 0
-26.883604 34.43731 1.0165992 34 3207419540600 1 0
-20.715126 32.681202 0.45046335 5 3207419542904 1 0
-15.96442 20.456514 -1.8145053 3 3207419542904 1 0
-10.94642 15.540562 -1.5517832 35 3207419545208 1 0
-27.154032 31.502686 1.2103989 33 3207419545208 1 0
-23.078926 32.77563 0.6997019 7 3207419547512 1 0
-16.252121 18.860682 -1.5956126 2 3207419547512 1 0
-9.886783 15.61369 -1.0762695 1 3207419549816 1 0
-35.928715 46.081905 3.4029932 26 3207419549816 1 0
-32.768673 46.566776 2.3198266 23 3207419552120 1 0
-15.953903 20.468805 -1.2088786 3 3207419552120 1 0
-17.77731 25.271107 -1.6192745 5 3207419554424 1 0
-15.009624 19.263363 2.9984734 6 3207419554424 1 0
-20.509161 29.164 2.91057 7 3207419556728 1 0
-20.58993 32.560608 -1.3453058 7 3207419559032 1 0
-16.841806 19.569178 -1.0518762 3 3207419556728 1 0
0 0 0 9 3207419559032 1 0
-14.415336 20.511898 4.571036 10 3207419561336 1 0
-26.850985 34.49316 -1.0171576 51 3207419561336 1 0
-2.3799589 3.3964095 -1.9339012 4 3207419582072 1 0
-26.995787 31.474283 -0.7237862 14 3207419582072 1 0
-17.982864 25.67067 -0.9121628 5 3207419584376 1 0
-4.5246515 5.830606 -2.0660255 2 3207419584376 1 0
-6.637456 9.477802 -2.314184 3 3207419586680 1 0
-19.88702 25.634342 0 27 3207419586680 1 0
-11.128809 17.674814 -0.24315895 27 3207419588984 1 0
-10.057315 12.967565 -2.5531056 7 3207419588984 1 0
-12.011206 17.161217 -2.6662798 20 3207419591288 1 0
-27.122572 31.657492 0.24228705 20 3207419591288 1 0
-22.901659 32.730762 -0.23217432 5 3207419593592 1 0
-12.321146 15.895541 -2.1663592 13 3207419593592 1 0
-9.568421 15.210581 -1.6774546 59 3207419595896 1 0
-19.882168 25.657356 0.7553076 9 3207419595896 1 0
-20.59854 32.75481 0.45046335 5 3207419598200 1 0
-10.854652 15.527031 -1.5465759 36 3207419600504 1 0
-15.903644 20.529043 -1.8159006 3 3207419598200 1 0
-27.143452 31.717325 1.2149371 33 3207419600504 1 0
-13.345221 19.09528 0.40664107 5 3207419602808 1 0
-9.765909 15.543573 -1.0690603 1 3207419605112 1 0
-16.203526 18.939236 -1.5974035 2 3207419602808 1 0
-19.99129 25.827642 1.9020762 12 3207419605112 1 0
-12.646634 18.106348 0.89979374 8 3207419607416 1 0
-15.960307 20.625723 -1.2148346 3 3207419607416 1 0
-17.817053 25.516413 -1.6309978 5 3207419609720 1 0
-14.883988 19.240274 2.986774 6 3207419609720 1 0
-13.326707 19.091253 1.9006741 9 3207419612024 1 0
0 0 0 8 3207419612024 1 0
-20.515343 32.69264 -1.3478186 7 3207419614328 1 0
0 0 0 9 3207419614328 1 0
-19.81601 25.637764 -0.7540049 22 3207419616632 1 0
-2.3604007 3.39238 -1.9271393 3 3207419637368 1 0
-14.360306 20.584059 4.5760584 16 3207419616632 1 0
-27.090979 31.798044 -0.72916156 14 3207419637368 1 0
0 0 0 28 3207419639672 1 0
-4.505249 5.8456106 -2.0660255 4 3207419639672 1 0
-6.6036124 9.496636 -2.3133996 2 3207419641976 1 0
-19.760029 25.646572 0 4 3207419641976 1 0
-10.013974 13.001063 -2.5531056 8 3207419644280 1 0
-12.07148 17.370739 -2.6925435 10 3207419646584 1 0
-27.117617 31.866848 0.24319372 27 3207419646584 1 0
0 0 0 16 3207419648888 1 0
-12.187733 15.832762 -2.1522224 96 3207419648888 1 0
-9.491952 15.202104 -1.6729932 59 3207419651192 1 0
-11.0421915 17.667768 -0.2425536 21 3207419644280 1 0
-19.800732 25.730349 0.75549376 4 3207419651192 1 0
-20.388597 32.66451 0.44827482 5 3207419653496 1 0
-16.016912 20.819674 -1.8368275 3 3207419653496 1 0
-10.756734 15.498066 -1.5400667 34 3207419655800 1 0
-27.129494 31.91841 1.2191261 33 3207419655800 1 0
0 0 0 87 3207419658104 1 0
-16.224686 19.094305 -1.6058459 2 3207419658104 1 0
-9.645564 15.46815 -1.0616186 1 3207419660408 1 0
-111.05306 144.48335 10.612697 28 3207419660408 1 0
0 0 0 42 3207419662712 1 0
-15.933989 20.736837 -1.2181848 3 3207419662712 1 0
-13.217362 19.066956 -1.215869 10 3207419665016 1 0
-14.777305 19.237293 2.9784868 6 3207419665016 1 0
-13.256973 19.130041 1.9000232 6 3207419667320 1 0
-16.636814 19.602425 -1.0474797 28 3207419667320 1 0
-19.879395 31.92102 -1.3131982 6 3207419669624 1 0
-14.271793 20.607244 4.5703187 16 3207419671928 1 0
0 0 0 9 3207419669624 1 0
-19.74999 25.73404 -0.7548424 4 3207419671928 1 0
-2.352665 3.4065647 -1.9305202 3 3207419692664 1 0
-27.096054 32.029816 -0.73230296 21 3207419692664 1 0
-13.164259 19.06725 -0.67431855 9 3207419694968 1 0
-6.5704226 9.5196295 -2.3133996 2 3207419697272 1 0
-25.201618 32.946453 0 6 3207419697272 1 0
-10.999424 17.7368 -0.24297269 19 3207419699576 1 0
-9.96613 13.0328 -2.5524905 8 3207419699576 1 0
-11.999506 17.396439 -2.6900182 10 3207419701880 1 0
-27.104317 32.07741 0.24407713 28 3207419701880 1 0
-4.480135 5.855183 -2.063869 4 3207419694968 1 0
0 0 0 9 3207419704184 1 0
0 0 0 6 3207419704184 1 0
-25.13436 32.89817 0.9633732 6 3207419706488 1 0
