# .PCD v.7 - Point Cloud Data file format
VERSION .7
FIELDS x y z rgb timestamp_ns device_id active
SIZE 4 4 4 4 8 1 1
TYPE F F F F F U U
COUNT 1 1 1 1 1 1 1
WIDTH 976
HEIGHT 1
VIEWPOINT 0 0 0 1 0 0 0
POINTS 976               
DATA ascii
-7.853254 8.271988 -2.2812364 17 3207117227864 1 0
-27.698307 26.457518 0 16 3207117227864 1 0
-27.075352 31.473833 -0.48333776 46 3207117230168 1 0
0 0 0 6 3207117230168 1 0
-14.805451 15.604417 -2.7380002 14 3207117232472 1 0
-27.960968 24.224823 0.21501756 22 3207117232472 1 0
-27.78 29.288086 -0.23461533 17 3207117234776 1 0
-17.796505 17.014883 -2.6521513 7 3207117234776 1 0
-16.185541 18.832382 -2.318025 6 3207117237080 1 0
-27.082186 31.520704 0.48380342 28 3207117239384 1 0
-30.97214 29.620897 0.9972443 33 3207117237080 1 0
-18.741581 17.92941 -1.8136684 3 3207117239384 1 0
-16.97739 17.91547 -2.0149097 2 3207117241688 1 0
-28.055622 24.336845 1.0808879 13 3207117241688 1 0
-27.752844 29.295275 0.70437914 50 3207117243992 1 0
-21.490911 18.648043 -1.8235574 32 3207117243992 1 0
-30.89274 29.581116 2.4909081 34 3207117246296 1 0
-16.336517 19.031553 -1.4606848 3 3207117246296 1 0
-26.996958 28.514818 1.5997962 16 3207117248600 1 0
-21.211622 20.317242 -1.3682011 4 3207117248600 1 0
-18.347767 19.38527 -1.3988354 4 3207117250904 1 0
-30.894642 29.60103 5.253544 27 3207117250904 1 0
-23.745352 25.095745 2.8204181 7 3207117253208 1 0
-24.052158 20.89625 -1.2980738 4 3207117253208 1 0
-17.112751 19.9605 -0.91813594 3 3207117255512 1 0
0 0 0 9 3207117255512 1 0
0 0 0 29 3207117257816 1 0
-27.456413 26.330904 -0.885209 5 3207117257816 1 0
-2.8304005 3.0014482 -1.9237583 4 3207117278552 1 0
-28.076014 24.475014 -0.65013707 60 3207117278552 1 0
-27.665451 29.346315 -1.1737449 17 3207117280856 1 0
-5.2966604 5.0950875 -2.0573993 4 3207117280856 1 0
-7.806742 8.283589 -2.2765296 56 3207117283160 1 0
-27.681854 26.636517 0 16 3207117283160 1 0
-26.988382 31.606316 -0.48384997 18 3207117285464 1 0
-11.45323 11.0240965 -2.4731672 4 3207117285464 1 0
-27.917194 24.366594 0.21536627 16 3207117287768 1 0
-14.712791 15.621026 -2.731434 25 3207117287768 1 0
-27.713598 29.43339 -0.23496404 17 3207117290072 1 0
-17.679598 17.027576 -2.644012 7 3207117290072 1 0
-16.155182 18.937027 -2.3236017 6 3207117292376 1 0
-30.74241 29.61769 0.9933361 27 3207117292376 1 0
-27.033955 31.69888 0.48501408 35 3207117294680 1 0
-18.652754 17.97583 -1.811436 3 3207117294680 1 0
-16.947124 18.015324 -2.0191407 3 3207117296984 1 0
-28.044512 24.507917 1.0839133 13 3207117296984 1 0
-27.50555 29.24821 0.70081884 21 3207117299288 1 0
-21.425425 18.729313 -1.8238132 65 3207117299288 1 0
-16.15788 18.96364 -1.4509174 3 3207117301592 1 0
-30.6634 29.577707 2.4811409 34 3207117301592 1 0
-21.11976 20.378204 -1.3670844 4 3207117303896 1 0
-26.949745 28.674734 1.6032156 24 3207117303896 1 0
-18.303946 19.481499 -1.4009289 4 3207117306200 1 0
-30.654537 29.587236 5.2311196 27 3207117306200 1 0
-24.486675 21.431746 -1.3257548 5 3207117308504 1 0
-23.767847 25.304655 2.8340874 7 3207117308504 1 0
-16.953983 19.922623 -0.9135292 3 3207117310808 1 0
0 0 0 9 3207117310808 1 0
0 0 0 29 3207117313112 1 0
-27.382729 26.453587 -0.8859534 5 3207117313112 1 0
-2.822384 3.013956 -1.9254488 4 3207117334296 1 0
-27.933304 24.522736 -0.6488107 58 3207117334296 1 0
-26.21592 28.003511 -1.1163783 7 3207117336600 1 0
-5.273347 5.108147 -2.0552425 4 3207117336600 1 0
-7.7779 8.310677 -2.2765296 57 3207117338904 1 0
-27.456953 26.60454 0 47 3207117338904 1 0
-26.969118 31.806519 -0.48547974 23 3207117341208 1 0
-11.434788 11.083015 -2.4774716 3 3207117341208 1 0
-14.650498 15.663168 -2.729919 25 3207117343512 1 0
-27.751562 24.391788 0.21473859 16 3207117343512 1 0
-27.52434 29.435453 -0.23422012 11 3207117345816 1 0
-17.586414 17.05532 -2.6388712 7 3207117345816 1 0
-16.10268 19.007795 -2.3254607 18 3207117348120 1 0
-30.502363 29.58983 0.98886955 26 3207117348120 1 0
-27.028156 31.913769 0.48687667 29 3207117350424 1 0
-18.579357 18.028769 -1.81032 3 3207117350424 1 0
-16.926012 18.117086 -2.0240226 3 3207117352728 1 0
-28.158333 24.778364 1.0915931 13 3207117352728 1 0
-21.361147 18.80259 -1.8238132 58 3207117355032 1 0
-27.36153 29.295486 0.6997019 72 3207117355032 1 0
-16.206465 19.152885 -1.4611499 3 3207117357336 1 0
-30.464731 29.587748 2.473234 22 3207117357336 1 0
-27.39177 29.344969 1.6354557 51 3207117359640 1 0
-18.210283 19.514477 -1.3988354 4 3207117361944 1 0
-21.138977 20.536428 -1.3728542 4 3207117359640 1 0
-30.439774 29.580719 5.211621 26 3207117361944 1 0
-23.695372 25.399803 2.8357146 7 3207117364248 1 0
-23.957977 21.11313 -1.3010046 4 3207117364248 1 0
-16.842503 19.928059 -0.91115606 3 3207117366552 1 0
0 0 0 9 3207117366552 1 0
-27.358276 29.343292 7.314662 8 3207117368856 1 0
-27.427849 26.677076 -0.8903269 5 3207117368856 1 0
-2.814315 3.0264444 -1.9271393 4 3207117389592 1 0
-27.850529 24.622742 -0.6488805 35 3207117389592 1 0
-5.2582417 5.129213 -2.056321 4 3207117391896 1 0
-27.337612 29.406765 -1.1685085 17 3207117391896 1 0
-7.7515135 8.340649 -2.277314 52 3207117394200 1 0
-20.249529 19.758387 0 41 3207117394200 1 0
-26.971273 32.03509 -0.48752856 33 3207117396504 1 0
-11.407345 11.133905 -2.479931 3 3207117396504 1 0
-14.609237 15.728749 -2.7324443 29 3207117398808 1 0
-27.32344 29.42583 -0.23338321 16 3207117401112 1 0
-28.076588 24.851717 0.21792352 16 3207117398808 1 0
-17.504011 17.094376 -2.6354442 7 3207117401112 1 0
-17.241194 20.496347 -2.5001955 5 3207117403416 1 0
-20.249716 19.78158 0.65871906 28 3207117403416 1 0
-27.016989 32.127308 0.48869267 29 3207117405720 1 0
-18.53629 18.113035 -1.8122731 3 3207117405720 1 0
-16.784037 18.091301 -2.0145843 2 3207117408024 1 0
-27.850231 24.680271 1.0829824 13 3207117408024 1 0
-27.2863 29.420141 0.7004 21 3207117410328 1 0
-21.325256 18.903517 -1.8263716 58 3207117410328 1 0
-16.121529 19.187937 -1.459522 3 3207117412632 1 0
-27.278301 29.42868 1.6348044 17 3207117414936 1 0
-20.249409 19.804316 1.6495203 9 3207117412632 1 0
0 0 0 20 3207117414936 1 0
-30.208641 29.561838 5.189684 26 3207117417240 1 0
-23.725777 25.611046 2.8500347 7 3207117419544 1 0
-18.288668 19.736141 -1.41014 4 3207117417240 1 0
-23.869186 21.183367 -1.3001906 4 3207117419544 1 0
0 0 0 43 3207117421848 1 0
0 0 0 9 3207117421848 1 0
0 0 0 29 3207117424152 1 0
-27.204887 29.383749 7.30103 8 3207117424152 1 0
-2.7963552 3.0282595 -1.9220679 4 3207117444888 1 0
-27.842073 24.788954 -0.6506955 24 3207117444888 1 0
-27.2515 29.519241 -1.1692067 25 3207117447192 1 0
-7.727916 8.373196 -2.278883 22 3207117449496 1 0
-5.245876 5.1528587 -2.0584774 4 3207117447192 1 0
0 0 0 7 3207117449496 1 0
-27.02488 32.32426 -0.49050868 9 3207117451800 1 0
-11.382993 11.187013 -2.4830058 3 3207117451800 1 0
-14.549781 15.772969 -2.731434 38 3207117454104 1 0
-27.934383 24.897375 0.2174818 16 3207117454104 1 0
-27.225416 29.521988 -0.23340645 16 3207117456408 1 0
-17.417124 17.12622 -2.6311603 7 3207117456408 1 0
-17.140696 20.518229 -2.4957342 7 3207117458712 1 0
-30.046757 29.552649 0.98068094 19 3207117458712 1 0
-27.007952 32.338406 0.49050868 42 3207117461016 1 0
-18.446356 18.147762 -1.8094829 3 3207117461016 1 0
-16.701283 18.124378 -2.0119808 2 3207117463320 1 0
-27.960716 24.947128 1.0905459 32 3207117463320 1 0
-27.222528 29.549889 0.7013075 21 3207117465624 1 0
-16.14424 19.346003 -1.4674289 3 3207117467928 1 0
-21.297363 19.006954 -1.8294414 58 3207117465624 1 0
-27.139526 29.47527 1.6323619 17 3207117470232 1 0
-29.920305 29.459112 2.4453273 32 3207117467928 1 0
0 0 0 2 3207117470232 1 0
-18.22312 19.79668 -1.41014 4 3207117472536 1 0
-29.991655 29.54483 5.16921 26 3207117472536 1 0
-23.657288 25.706839 2.8519876 7 3207117474840 1 0
-16.484358 19.774612 -0.899011 24 3207117477144 1 0
-23.983908 21.427147 -1.3102859 4 3207117474840 1 0
0 0 0 9 3207117477144 1 0
-27.063295 29.423382 7.288833 8 3207117479448 1 0
0 0 0 1 3207117479448 1 0
-2.789279 3.0397007 -1.9237583 4 3207117500184 1 0
-27.963629 25.055113 -0.65537274 18 3207117500184 1 0
-27.168577 29.617285 -1.1696723 17 3207117502488 1 0
-5.2212934 5.161342 -2.0552425 4 3207117502488 1 0
0 0 0 30 3207117504792 1 0
-26.312265 26.018469 0 15 3207117504792 1 0
-27.04048 32.55596 -0.4926972 14 3207117507096 1 0
-11.355243 11.232047 -2.4848504 4 3207117507096 1 0
-28.013899 25.132492 0.21873719 16 3207117509400 1 0
-14.45006 15.767632 -2.722343 36 3207117509400 1 0
-26.985023 29.455006 -0.23217432 16 3207117511704 1 0
-17.329643 17.152603 -2.626448 7 3207117511704 1 0
-17.0395 20.535112 -2.490901 7 3207117514008 1 0
-26.29986 26.03951 0.86120147 16 3207117514008 1 0
-18.413897 18.237448 -1.8122731 3 3207117516312 1 0
-16.52967 18.060053 -1.998637 2 3207117518616 1 0
-28.087563 25.231041 1.0988077 19 3207117518616 1 0
-26.965216 29.471228 0.69725853 42 3207117520920 1 0
-21.27115 19.114012 -1.8327672 61 3207117520920 1 0
-26.994104 32.542477 0.49223155 42 3207117516312 1 0
-16.15163 19.490469 -1.4741731 3 3207117523224 1 0
-29.657368 29.401392 2.4320714 10 3207117523224 1 0
-26.975302 29.5012 1.6286169 25 3207117525528 1 0
-18.132345 19.836582 -1.4084653 4 3207117527832 1 0
-20.994781 20.820234 -1.3773212 4 3207117525528 1 0
-29.76996 29.531906 5.148736 26 3207117527832 1 0
-23.893486 21.498066 -1.3094718 4 3207117530136 1 0
-23.604311 25.83115 2.856544 7 3207117530136 1 0
-16.386042 19.799112 -0.8974755 21 3207117532440 1 0
0 0 0 29 3207117534744 1 0
0 0 0 9 3207117532440 1 0
-26.231123 26.046358 -0.8601779 16 3207117534744 1 0
-2.777587 3.0503883 -1.9237583 4 3207117555480 1 0
-27.982985 25.26683 -0.65809536 18 3207117555480 1 0
-26.839766 29.484455 -1.1603632 25 3207117557784 1 0
-5.2042413 5.183995 -2.056321 4 3207117557784 1 0
-7.6901464 8.450373 -2.2851586 3 3207117560088 1 0
0 0 0 7 3207117560088 1 0
0 0 0 14 3207117562392 1 0
-11.32652 11.289022 -2.487925 5 3207117562392 1 0
-14.339604 15.766389 -2.7127466 17 3207117564696 1 0
-27.966135 25.281166 0.21910915 11 3207117564696 1 0
-17.256458 17.209337 -2.6251628 7 3207117567000 1 0
-26.879257 29.562368 -0.23222083 27 3207117567000 1 0
-16.924347 20.552792 -2.4853244 7 3207117569304 1 0
-29.599298 29.527063 0.9728645 32 3207117569304 1 0
-26.96379 32.75432 0.49390787 36 3207117571608 1 0
-16.392614 18.04475 -1.990175 2 3207117573912 1 0
-28.54185 25.831799 1.1203346 14 3207117573912 1 0
-26.879927 29.597681 0.6978868 35 3207117576216 1 0
-21.244503 19.232956 -1.8366047 65 3207117576216 1 0
-16.082054 19.553087 -1.4744055 3 3207117578520 1 0
-18.32865 18.289238 -1.8105991 3 3207117571608 1 0
-29.455309 29.417633 2.4243972 42 3207117578520 1 0
-26.890738 29.626896 1.6300824 25 3207117580824 1 0
-19.490513 19.471245 -1.2833284 4 3207117580824 1 0
-18.08636 19.932491 -1.4105587 4 3207117583128 1 0
-29.543571 29.522953 5.128262 25 3207117583128 1 0
-23.62771 26.047073 2.8708642 7 3207117585432 1 0
-22.33123 20.240438 -1.2278944 8 3207117585432 1 0
-16.354544 19.907984 -0.89970905 17 3207117587736 1 0
0 0 0 9 3207117587736 1 0
0 0 0 29 3207117590040 1 0
-27.225178 27.22993 -0.8960031 5 3207117590040 1 0
-2.766922 3.0600653 -1.9237583 4 3207117610776 1 0
-27.939003 25.404715 -0.6591425 18 3207117610776 1 0
-26.35906 29.159359 -1.1439562 24 3207117613080 1 0
-5.1861897 5.202054 -2.056321 4 3207117613080 1 0
-7.663479 8.479853 -2.285943 3 3207117615384 1 0
0 0 0 54 3207117615384 1 0
-26.968626 32.952156 -0.49572387 48 3207117617688 1 0
-11.293119 11.333597 -2.4891548 4 3207117617688 1 0
-14.2295475 15.753679 -2.70214 8 3207117619992 1 0
-27.867361 25.36624 0.21901615 16 3207117619992 1 0
-26.802185 29.680784 -0.23243006 11 3207117622296 1 0
-17.183506 17.25413 -2.623021 7 3207117622296 1 0
-16.839172 20.591774 -2.4830937 7 3207117624600 1 0
-29.41117 29.539782 0.9699799 52 3207117624600 1 0
-26.948837 32.963177 0.49567732 30 3207117626904 1 0
-18.266565 18.351246 -1.8105991 3 3207117626904 1 0
-16.315607 18.082201 -1.9882222 2 3207117629208 1 0
-32.45908 29.57694 1.2780054 42 3207117629208 1 0
-21.22107 19.341871 -1.8401864 61 3207117631512 1 0
-16.10245 19.711924 -1.4823124 3 3207117633816 1 0
-29.249727 29.408413 2.41556 21 3207117633816 1 0
-26.853464 29.784569 1.6338274 17 3207117636120 1 0
-19.273417 19.383053 -1.2732776 3 3207117636120 1 0
-26.839268 29.753157 0.69942266 43 3207117631512 1 0
-17.520048 19.43751 -1.3714114 11 3207117638424 1 0
-29.330748 29.505318 5.1082754 25 3207117638424 1 0
-23.656345 26.252293 2.8848588 7 3207117640728 1 0
-22.107803 20.171284 -1.2192645 12 3207117640728 1 0
0 0 0 9 3207117643032 1 0
-16.230886 19.890398 -0.89649826 3 3207117643032 1 0
0 0 0 29 3207117645336 1 0
-27.26274 27.44655 -0.9001905 11 3207117645336 1 0
-2.7645638 3.0768325 -1.9288298 4 3207117666072 1 0
-27.906261 25.53556 -0.6602594 6 3207117666072 1 0
-27.214962 30.298754 -1.1852647 51 3207117668376 1 0
-7.641547 8.510167 -2.287512 4 3207117670680 1 0
-5.1723804 5.221208 -2.0573993 4 3207117668376 1 0
-27.144522 27.409538 0 21 3207117670680 1 0
-26.968061 33.169407 -0.4976796 29 3207117672984 1 0
-11.27037 11.384047 -2.4922295 3 3207117672984 1 0
-14.146346 15.764516 -2.696079 8 3207117675288 1 0
-27.958574 25.616322 0.22038777 11 3207117675288 1 0
-17.112713 17.296383 -2.620879 7 3207117677592 1 0
0 0 0 100 3207117677592 1 0
-16.73062 20.59804 -2.4771452 7 3207117679896 1 0
-29.180883 29.503521 0.96560645 31 3207117679896 1 0
-26.931702 33.168026 0.4974002 18 3207117682200 1 0
-18.443544 18.653433 -1.8343163 3 3207117682200 1 0
-32.161694 29.505201 1.2702091 24 3207117684504 1 0
-16.25716 18.140121 -1.9885477 2 3207117684504 1 0
-27.204876 30.365614 0.71163934 81 3207117686808 1 0
-21.193352 19.449068 -1.843512 45 3207117686808 1 0
-16.034693 19.767078 -1.4823124 3 3207117689112 1 0
-29.12055 29.48023 2.4132345 21 3207117689112 1 0
-26.894165 30.038136 1.6426202 8 3207117691416 1 0
-19.085482 19.327398 -1.2652743 3 3207117691416 1 0
-17.366844 19.403301 -1.3647124 11 3207117693720 1 0
-29.121588 29.500156 5.0897512 25 3207117693720 1 0
-23.598356 26.374018 2.8890898 7 3207117696024 1 0
-21.904238 20.127285 -1.2119372 12 3207117696024 1 0
-16.273434 20.087652 -0.9027802 3 3207117698328 1 0
0 0 0 9 3207117698328 1 0
-27.040812 27.41864 -0.89609617 17 3207117700632 1 0
0 0 0 29 3207117700632 1 0
-2.743079 3.0766015 -1.9220679 3 3207117721368 1 0
-32.15062 29.646965 -0.76336825 22 3207117721368 1 0
-27.152073 30.46233 -1.1875919 51 3207117723672 1 0
-5.160472 5.2491956 -2.0606341 4 3207117723672 1 0
-7.6090627 8.539225 -2.287512 4 3207117725976 1 0
-27.353903 27.832294 0 5 3207117725976 1 0
-25.862505 32.057476 -0.4795195 13 3207117728280 1 0
-11.215993 11.41547 -2.4897697 3 3207117728280 1 0
-14.0628805 15.791228 -2.6915336 6 3207117730584 1 0
-27.201231 30.553247 -0.23775376 17 3207117732888 1 0
-30.215626 27.895199 0.23900914 19 3207117730584 1 0
-17.027931 17.34086 -2.6178803 7 3207117732888 1 0
-16.640713 20.64517 -2.4752865 7 3207117735192 1 0
-28.966316 29.507225 0.96216345 31 3207117735192 1 0
-26.96062 33.458443 0.5002406 12 3207117737496 1 0
-18.320587 18.668133 -1.8290148 3 3207117737496 1 0
-16.287544 18.310743 -2.0005896 2 3207117739800 1 0
-27.179771 30.564928 0.71394306 44 3207117742104 1 0
0 0 0 4 3207117742104 1 0
-15.999121 19.872837 -1.4858009 3 3207117744408 1 0
-28.894022 29.467855 2.4034672 31 3207117744408 1 0
-26.926819 30.298216 1.651413 8 3207117746712 1 0
-18.91354 19.294775 -1.2585739 3 3207117746712 1 0
-17.16826 19.323488 -1.3546638 7 3207117749016 1 0
-31.978207 29.5569 1.2673 42 3207117739800 1 0
-28.89934 29.490435 5.0697646 25 3207117749016 1 0
-23.554867 26.519606 2.895599 7 3207117751320 1 0
-21.713293 20.098518 -1.205424 12 3207117751320 1 0
-16.202791 20.149807 -0.90291977 3 3207117753624 1 0
0 0 0 9 3207117753624 1 0
0 0 0 29 3207117755928 1 0
0 0 0 11 3207117755928 1 0
-2.7371292 3.0915866 -1.9254488 4 3207117776664 1 0
-32.10555 29.81344 -0.7647644 15 3207117776664 1 0
-27.14142 30.664312 -1.191781 51 3207117778968 1 0
-5.139503 5.264346 -2.0595558 5 3207117778968 1 0
-7.5898547 8.577262 -2.29065 4 3207117781272 1 0
0 0 0 27 3207117781272 1 0
-26.934662 33.62296 -0.5015444 70 3207117783576 1 0
-11.212461 11.490839 -2.4977636 2 3207117783576 1 0
-13.990193 15.8186 -2.687998 12 3207117785880 1 0
-29.996655 27.884369 0.23803274 19 3207117785880 1 0
-16.949123 17.379028 -2.6148815 7 3207117788184 1 0
-27.17613 30.735939 -0.2384512 60 3207117788184 1 0
-16.557909 20.68614 -2.4734275 7 3207117790488 1 0
-28.754057 29.49111 0.9584414 31 3207117790488 1 0
-26.90206 33.61832 0.50126505 18 3207117792792 1 0
-18.16809 18.638676 -1.8200859 3 3207117792792 1 0
-16.199268 18.33572 -1.9973351 2 3207117795096 1 0
-31.793407 29.585646 1.2639256 18 3207117795096 1 0
-27.15106 30.740004 0.71589774 44 3207117797400 1 0
-19.61484 18.25756 -1.7173878 5 3207117797400 1 0
-16.039783 20.060356 -1.4958007 3 3207117799704 1 0
-28.689407 29.455645 2.39463 30 3207117799704 1 0
-26.931557 30.50758 1.6579261 8 3207117802008 1 0
-18.796207 19.30327 -1.2550374 3 3207117802008 1 0
-17.082941 19.356354 -1.3529892 3 3207117804312 1 0
-22.857883 25.906664 2.8204181 7 3207117806616 1 0
-28.69615 29.478003 5.0512404 25 3207117804312 1 0
0 0 0 5 3207117806616 1 0
-16.236263 20.327898 -0.9085037 3 3207117808920 1 0
0 0 0 9 3207117808920 1 0
0 0 0 29 3207117811224 1 0
0 0 0 1 3207117811224 1 0
-2.7274032 3.1001701 -1.9254488 4 3207117831960 1 0
-28.48182 26.615543 -0.6804344 19 3207117831960 1 0
-27.126137 30.84309 -1.1953882 51 3207117834264 1 0
-5.1228237 5.280578 -2.0595558 4 3207117834264 1 0
-7.559906 8.598448 -2.2898655 4 3207117836568 1 0
-26.981724 27.82111 0 16 3207117836568 1 0
-11.183806 11.535252 -2.4996083 3 3207117838872 1 0
-26.918848 33.824963 -0.5032673 45 3207117838872 1 0
-13.931188 15.854747 -2.6864827 10 3207117841176 1 0
-29.772104 27.85537 0.23696335 19 3207117841176 1 0
-16.870401 17.411184 -2.6114545 7 3207117843480 1 0
-27.160545 30.920282 -0.23919512 48 3207117843480 1 0
-12.660688 15.923796 -1.8990332 1 3207117845784 1 0
-28.546103 29.470156 0.95471925 31 3207117845784 1 0
-26.915602 33.86332 0.50359327 6 3207117848088 1 0
-17.740185 18.320042 -1.7832545 5 3207117848088 1 0
-16.288269 18.560137 -2.015886 6 3207117850392 1 0
-31.572567 29.576109 1.2590383 18 3207117850392 1 0
-27.177542 30.977774 0.7193184 37 3207117852696 1 0
-19.478054 18.251966 -1.7107363 5 3207117852696 1 0
-15.974779 20.11726 -1.4960333 3 3207117855000 1 0
-28.481997 29.43994 2.3855603 30 3207117855000 1 0
-26.886208 30.66459 1.6615083 8 3207117857304 1 0
-18.655823 19.289173 -1.2500122 3 3207117857304 1 0
-28.488033 29.46418 5.032229 24 3207117859608 1 0
-16.961674 19.3513 -1.3485929 3 3207117859608 1 0
-22.62188 25.81689 2.8021924 6 3207117861912 1 0
-21.45227 20.126535 -1.1984223 24 3207117861912 1 0
-16.210808 20.44012 -0.91101646 3 3207117864216 1 0
0 0 0 9 3207117864216 1 0
-30.678219 31.758518 -1.0274863 7 3207117866520 1 0
0 0 0 29 3207117866520 1 0
-2.7136376 3.1074152 -1.9237583 4 3207117887256 1 0
-27.115686 31.059576 -1.1999264 43 3207117889560 1 0
0 0 0 72 3207117887256 1 0
-5.100802 5.296507 -2.0584774 4 3207117889560 1 0
-7.5362034 8.634854 -2.292219 4 3207117891864 1 0
-26.899559 34.054638 -0.50522304 45 3207117894168 1 0
-26.938238 27.979937 0 16 3207117891864 1 0
-11.144445 11.57877 -2.5002232 2 3207117894168 1 0
-13.860404 15.890346 -2.6839573 10 3207117896472 1 0
-29.548367 27.848217 0.23598695 19 3207117896472 1 0
-27.155945 31.142244 -0.24014828 49 3207117898776 1 0
-16.771267 17.435028 -2.6058853 7 3207117898776 1 0
0 0 0 28 3207117901080 1 0
-28.322771 29.452284 0.9508111 31 3207117901080 1 0
-26.894608 34.089123 0.5055024 6 3207117903384 1 0
-17.535583 18.240213 -1.7693032 5 3207117903384 1 0
-16.210741 18.606745 -2.0145843 2 3207117905688 1 0
-31.314459 29.547112 1.2529875 30 3207117905688 1 0
-19.29901 18.215107 -1.7007589 5 3207117907992 1 0
-27.15779 31.18096 0.7217617 75 3207117907992 1 0
-15.939486 20.22156 -1.4995216 3 3207117910296 1 0
-28.2737 29.435513 2.3769557 30 3207117910296 1 0
-26.883682 30.884384 1.6681844 8 3207117912600 1 0
-18.542269 19.30982 -1.2470341 3 3207117912600 1 0
-16.808416 19.315435 -1.3418939 3 3207117914904 1 0
-28.27795 29.457085 5.013705 24 3207117914904 1 0
-22.537403 25.906525 2.8031688 6 3207117917208 1 0
-21.365746 20.189281 -1.1976082 24 3207117917208 1 0
-16.130451 20.488335 -0.9105977 3 3207117919512 1 0
0 0 0 9 3207117919512 1 0
0 0 0 29 3207117921816 1 0
-28.187311 29.388323 -0.94755423 12 3207117921816 1 0
-2.7098992 3.1250854 -1.9288298 3 3207117942552 1 0
-27.904602 26.452724 -0.67114973 18 3207117942552 1 0
-27.109243 31.271864 -1.2044644 35 3207117944856 1 0
-5.0822825 5.31428 -2.0584774 4 3207117944856 1 0
-7.5111537 8.667037 -2.2937877 3 3207117947160 1 0
-28.045599 29.334373 0 17 3207117947160 1 0
-26.889126 34.28681 -0.5072718 41 3207117949464 1 0
-11.112153 11.626172 -2.502068 2 3207117949464 1 0
-13.791863 15.923635 -2.681432 10 3207117951768 1 0
-27.081112 31.276157 -0.24045049 18 3207117954072 1 0
-16.680086 17.46183 -2.6011732 7 3207117954072 1 0
-12.426753 15.859824 -1.8808162 27 3207117956376 1 0
-27.9249 26.502829 0.22375868 11 3207117951768 1 0
-26.949375 28.220625 0.9080069 5 3207117956376 1 0
-26.888905 34.327637 0.50764436 6 3207117958680 1 0
-17.375368 18.200296 -1.7595373 5 3207117958680 1 0
-16.190035 18.714474 -2.020117 6 3207117960984 1 0
-31.083595 29.535059 1.2478676 35 3207117960984 1 0
-27.1325 31.37237 0.7239956 60 3207117963288 1 0
-19.206377 18.25486 -1.6982006 5 3207117963288 1 0
-28.066044 29.424225 2.3681185 29 3207117965592 1 0
-15.952477 20.383997 -1.5074285 3 3207117965592 1 0
-26.890709 31.11108 1.6753489 8 3207117967896 1 0
-18.447178 19.34551 -1.2451729 3 3207117967896 1 0
-16.714773 19.343765 -1.3398005 3 3207117970200 1 0
-28.076336 29.452162 4.9961557 24 3207117970200 1 0
-22.32174 25.840223 2.7875469 6 3207117972504 1 0
-21.315409 20.283024 -1.198748 24 3207117972504 1 0
-16.172081 20.689394 -0.9170192 3 3207117974808 1 0
0 0 0 9 3207117974808 1 0
-26.837946 28.177696 -0.90549445 17 3207117977112 1 0
0 0 0 29 3207117977112 1 0
-2.6924233 3.1258142 -1.9237583 4 3207117998296 1 0
-27.793583 26.523026 -0.67059124 43 3207117998296 1 0
-27.125175 31.501158 -1.2098172 8 3207118000600 1 0
-5.069899 5.336726 -2.0606341 4 3207118000600 1 0
-7.4796863 8.6890335 -2.2930033 3 3207118002904 1 0
-27.854086 29.329006 0 17 3207118002904 1 0
-26.887585 34.521526 -0.5094138 46 3207118005208 1 0
-11.081448 11.671799 -2.5039127 3 3207118005208 1 0
-13.728168 15.957649 -2.6794116 10 3207118007512 1 0
-27.746431 26.510435 0.223038 11 3207118007512 1 0
-16.591341 17.485918 -2.5964608 7 3207118009816 1 0
-27.109123 31.521435 -0.24163613 30 3207118009816 1 0
0 0 0 28 3207118012120 1 0
-26.185663 27.605991 0.8853951 11 3207118012120 1 0
-26.883682 34.560047 0.50973976 6 3207118014424 1 0
-17.29477 18.238428 -1.7575841 5 3207118014424 1 0
-16.212532 18.868784 -2.0308573 6 3207118016728 1 0
-30.856634 29.518166 1.2427477 35 3207118016728 1 0
-27.117464 31.570124 0.72643894 61 3207118019032 1 0
-19.049362 18.22863 -1.6897582 5 3207118019032 1 0
-16.022978 20.617662 -1.5206842 3 3207118021336 1 0
-27.861807 29.40901 2.3592815 29 3207118021336 1 0
-28.575937 33.28864 1.7873753 9 3207118023640 1 0
-18.384119 19.41095 -1.245359 3 3207118023640 1 0
-16.609821 19.35507 -1.3366603 3 3207118025944 1 0
-27.880398 29.446642 4.979094 24 3207118025944 1 0
-22.137432 25.804249 2.7755048 6 3207118028248 1 0
-21.29228 20.399845 -1.2013533 8 3207118028248 1 0
-16.086565 20.725601 -0.91618156 3 3207118030552 1 0
0 0 0 9 3207118030552 1 0
0 0 0 29 3207118032856 1 0
-27.81851 29.40825 -0.94197106 18 3207118032856 1 0
-2.6833045 3.1384168 -1.9254488 4 3207118053592 1 0
-27.62987 26.560966 -0.66898566 50 3207118053592 1 0
0 0 0 37 3207118055896 1 0
-7.453012 8.722244 -2.2945724 3 3207118058200 1 0
-5.0556293 5.3608403 -2.0627906 5 3207118055896 1 0
-27.672743 29.351913 0 17 3207118058200 1 0
-19.831493 25.654327 -0.37749705 22 3207118060504 1 0
-13.664899 16.001427 -2.6784015 12 3207118062808 1 0
-11.052404 11.726476 -2.5069873 2 3207118060504 1 0
-27.606625 26.569542 0.22268929 17 3207118062808 1 0
-16.50051 17.517061 -2.592177 7 3207118065112 1 0
-12.189139 15.782286 -1.8614838 1 3207118067416 1 0
-26.965542 28.635157 0.91526496 17 3207118067416 1 0
-19.833675 25.688023 0.377823 12 3207118069720 1 0
-17.064629 18.126495 -1.7408426 5 3207118069720 1 0
-16.167652 18.95444 -2.0337863 3 3207118072024 1 0
-30.629034 29.512754 1.2378604 28 3207118072024 1 0
-26.940018 31.555717 -0.24114792 36 3207118065112 1 0
0 0 0 21 3207118074328 1 0
-18.954878 18.269382 -1.6871998 5 3207118074328 1 0
-15.948807 20.67509 -1.5206842 3 3207118076632 1 0
-27.654747 29.40129 2.350677 28 3207118076632 1 0
-28.378635 33.29962 1.7824904 18 3207118078936 1 0
-18.44853 19.619368 -1.254479 3 3207118078936 1 0
-16.543055 19.417416 -1.3368697 3 3207118081240 1 0
-21.998621 25.828497 2.7696466 6 3207118083544 1 0
-27.676968 29.44207 4.9615445 24 3207118081240 1 0
-21.248064 20.503494 -1.2029816 4 3207118083544 1 0
-16.144361 20.95379 -0.9237199 3 3207118085848 1 0
0 0 0 9 3207118085848 1 0
0 0 0 29 3207118088152 1 0
-27.538542 29.32044 -0.9360157 12 3207118088152 1 0
-2.6746793 3.1505277 -1.9271393 4 3207118108888 1 0
-27.58009 26.698978 -0.6700328 43 3207118108888 1 0
0 0 0 18 3207118111192 1 0
-5.026354 5.367209 -2.0584774 4 3207118111192 1 0
-7.425058 8.751198 -2.2953568 3 3207118113496 1 0
-27.583786 29.46293 0 17 3207118113496 1 0
-25.237974 32.884827 -0.48259273 4 3207118115800 1 0
-11.019506 11.773642 -2.508832 2 3207118115800 1 0
-13.590997 16.027843 -2.674866 12 3207118118104 1 0
-27.559668 26.710285 0.22306125 11 3207118118104 1 0
-26.979721 31.82653 -0.24249628 31 3207118120408 1 0
-16.409378 17.542603 -2.5874648 7 3207118120408 1 0
-27.49363 29.400896 0.9366671 18 3207118122712 1 0
-12.148515 15.843701 -1.8637145 1 3207118122712 1 0
-25.233438 32.91855 0.48287213 5 3207118125016 1 0
-17.003977 18.188866 -1.7411215 5 3207118125016 1 0
-16.230223 19.162868 -2.0500593 6 3207118127320 1 0
-27.086767 31.99052 0.7316747 61 3207118129624 1 0
-20.316118 19.712915 0.8238439 6 3207118127320 1 0
-18.868076 18.313194 -1.6851532 5 3207118129624 1 0
-15.93724 20.809895 -1.5264981 3 3207118131928 1 0
-26.935928 28.83812 2.2981193 18 3207118131928 1 0
-28.471346 33.645603 1.7956796 19 3207118134232 1 0
-18.369026 19.671965 -1.2537346 3 3207118134232 1 0
-16.464855 19.462845 -1.3360323 3 3207118136536 1 0
-27.481915 29.439827 4.9449706 24 3207118136536 1 0
-21.810501 25.789455 2.7572792 6 3207118138840 1 0
-20.256275 19.68347 -1.1507134 3 3207118138840 1 0
-16.085693 21.02907 -0.92455745 3 3207118141144 1 0
0 0 0 9 3207118141144 1 0
0 0 0 29 3207118143448 1 0
-27.526035 29.512894 -0.93908644 12 3207118143448 1 0
-2.666002 3.1626167 -1.9288298 4 3207118164184 1 0
-20.267092 19.75712 -0.49404272 36 3207118164184 1 0
-16.629265 19.732445 -0.75100124 19 3207118166488 1 0
-5.0128736 5.3903265 -2.0606341 4 3207118166488 1 0
-27.374983 29.444387 0 16 3207118168792 1 0
-7.39712 8.779955 -2.2961411 3 3207118168792 1 0
0 0 0 12 3207118171096 1 0
-10.994744 11.829166 -2.5125215 2 3207118171096 1 0
-13.52521 16.062653 -2.6728458 12 3207118173400 1 0
-20.2675 19.779377 0.1645934 11 3207118173400 1 0
-16.318909 17.56713 -2.5827525 7 3207118175704 1 0
-26.939173 32.00216 -0.24312398 18 3207118175704 1 0
0 0 0 20 3207118178008 1 0
-27.294155 29.390005 0.9333172 12 3207118178008 1 0
-25.120056 33.00515 0.48287213 5 3207118180312 1 0
-16.840858 18.139051 -1.7307976 2 3207118180312 1 0
-16.095064 19.136087 -2.041272 3 3207118182616 1 0
-27.085138 32.211678 0.7346067 53 3207118184920 1 0
-30.04361 29.352474 1.2223842 16 3207118182616 1 0
-18.702461 18.277273 -1.6759434 5 3207118184920 1 0
-26.880657 28.976858 2.30184 18 3207118187224 1 0
-15.86602 20.864246 -1.5264981 3 3207118187224 1 0
-28.63927 34.079082 1.8135908 28 3207118189528 1 0
-16.1981 19.280212 -1.3197035 3 3207118191832 1 0
-18.301825 19.7345 -1.2537346 3 3207118189528 1 0
-27.276289 29.419643 4.9259586 23 3207118191832 1 0
-21.627922 25.750423 2.7452374 6 3207118194136 1 0
-20.220737 19.782894 -1.1525046 11 3207118194136 1 0
-16.096548 21.191694 -0.9293038 3 3207118196440 1 0
0 0 0 9 3207118196440 1 0
0 0 0 29 3207118198744 1 0
-26.143368 28.221151 -0.8951656 5 3207118198744 1 0
-27.449099 26.936512 -0.6712894 18 3207118219480 1 0
-16.517399 19.732414 -0.74890673 27 3207118221784 1 0
-4.9975457 5.409786 -2.0617123 4 3207118221784 1 0
-7.365319 8.801536 -2.2953568 3 3207118224088 1 0
-27.195347 29.447245 0 16 3207118224088 1 0
-24.866327 32.861294 -0.47975233 18 3207118226392 1 0
-2.6554997 3.1714401 -1.9288298 4 3207118219480 1 0
-13.471402 16.107807 -2.6728458 14 3207118228696 1 0
-10.968604 11.88032 -2.515596 2 3207118226392 1 0
-27.519884 27.03742 0.22422363 11 3207118228696 1 0
-26.885612 32.156734 -0.24361217 18 3207118231000 1 0
-16.243742 17.604202 -2.580182 7 3207118231000 1 0
-11.913093 15.7576475 -1.8440104 59 3207118233304 1 0
-23.84669 25.851461 0.8183973 10 3207118233304 1 0
-16.666075 18.07245 -1.7190785 2 3207118235608 1 0
-24.895437 32.93957 0.4806836 5 3207118235608 1 0
-16.222092 19.419764 -2.0656812 3 3207118237912 1 0
-26.37273 25.94055 1.0765824 9 3207118237912 1 0
-27.06578 32.410522 0.73705006 46 3207118240216 1 0
-18.632013 18.332014 -1.6751759 2 3207118240216 1 0
-15.855382 20.997562 -1.532312 3 3207118242520 1 0
-37.021164 40.180386 3.1818323 22 3207118242520 1 0
-28.7769 34.47992 1.8297108 19 3207118244824 1 0
-18.229284 19.790665 -1.2533623 3 3207118244824 1 0
-16.221956 19.44258 -1.3270305 3 3207118247128 1 0
-27.11415 29.445131 4.9147468 15 3207118247128 1 0
-21.246508 20.928753 -1.2150309 4 3207118249432 1 0
-21.516987 25.796486 2.7423081 6 3207118249432 1 0
-16.069757 21.307228 -0.9319562 3 3207118251736 1 0
0 0 0 9 3207118251736 1 0
0 0 0 29 3207118254040 1 0
-27.172888 29.534771 -0.9338755 18 3207118254040 1 0
-26.32227 26.01171 -0.64594847 11 3207118274776 1 0
-2.639778 3.175115 -1.9254488 4 3207118274776 1 0
-16.404972 19.737679 -0.7469286 23 3207118277080 1 0
-4.9812355 5.430036 -2.0627906 4 3207118277080 1 0
-7.3445773 8.839259 -2.2984946 3 3207118279384 1 0
-27.19783 29.656967 0 16 3207118279384 1 0
-24.69141 32.867947 -0.47858822 13 3207118281688 1 0
-10.96179 11.9564085 -2.5235898 3 3207118281688 1 0
-13.417628 16.157785 -2.6733508 12 3207118283992 1 0
-28.005407 27.70721 0.22896615 17 3207118283992 1 0
-26.872845 32.370415 -0.24451883 19 3207118286296 1 0
-16.1607 17.637339 -2.576755 7 3207118286296 1 0
-23.64556 25.813644 0.8145821 15 3207118288600 1 0
-11.803029 15.725874 -1.8354595 49 3207118288600 1 0
-24.763502 33.003876 0.48035765 5 3207118290904 1 0
-16.594803 18.121689 -1.7182415 7 3207118290904 1 0
-16.090576 19.399557 -2.0575447 3 3207118293208 1 0
-29.736294 29.45392 1.2180789 22 3207118293208 1 0
-27.054594 32.627953 0.7398424 54 3207118295512 1 0
-18.536716 18.366035 -1.6723617 2 3207118295512 1 0
-15.870612 21.171 -1.5409166 3 3207118297816 1 0
-27.049969 29.56472 2.3337004 9 3207118297816 1 0
-18.176271 19.871866 -1.254479 3 3207118300120 1 0
-28.888433 34.8602 1.8445283 19 3207118300120 1 0
-16.13615 19.477554 -1.3255651 3 3207118302424 1 0
-27.003164 29.530807 4.9132843 7 3207118302424 1 0
-21.116573 20.946497 -1.2117743 4 3207118304728 1 0
-22.56096 27.240849 2.8874624 7 3207118304728 1 0
-16.064766 21.455992 -0.9360045 3 3207118307032 1 0
0 0 0 9 3207118307032 1 0
0 0 0 29 3207118309336 1 0
-27.112783 29.67668 -0.93536437 24 3207118309336 1 0
-2.6356022 3.1926973 -1.9305202 4 3207118330072 1 0
-27.470161 27.336245 -0.67645526 19 3207118330072 1 0
-27.027271 32.749805 -1.2357659 27 3207118332376 1 0
-4.9544687 5.438848 -2.0595558 4 3207118332376 1 0
-7.3211665 8.8739195 -2.300848 2 3207118334680 1 0
-26.776339 29.402748 0 11 3207118334680 1 0
-24.509575 32.86416 -0.4772844 63 3207118336984 1 0
-10.919988 11.994599 -2.5235898 3 3207118336984 1 0
-13.363669 16.207584 -2.673856 12 3207118339288 1 0
0 0 0 7 3207118339288 1 0
-26.886896 32.618347 -0.24568121 57 3207118341592 1 0
-16.077623 17.67011 -2.5733278 7 3207118341592 1 0
-23.504185 25.839819 0.8128141 15 3207118343896 1 0
-24.547794 32.955395 0.47840196 5 3207118346200 1 0
0 0 0 10 3207118346200 1 0
-16.048105 19.48638 -2.0607994 3 3207118348504 1 0
-11.690953 15.690331 -1.8265368 45 3207118343896 1 0
-29.50591 29.43048 1.2128426 16 3207118348504 1 0
-27.04222 32.845695 0.7426348 62 3207118350808 1 0
-18.475319 18.433449 -1.6726176 2 3207118350808 1 0
-15.813304 21.248693 -1.5425445 3 3207118353112 1 0
-29.38619 35.713867 1.8842586 20 3207118355416 1 0
-26.935862 29.64714 2.33277 28 3207118353112 1 0
-18.136347 19.967728 -1.2565265 3 3207118355416 1 0
-16.106127 19.580034 -1.3287053 3 3207118357720 1 0
-26.934614 29.663097 4.9196215 23 3207118357720 1 0
-22.577152 27.454924 2.9017825 7 3207118360024 1 0
-16.030313 21.56648 -0.9383777 3 3207118362328 1 0
-21.159262 21.135885 -1.2184503 4 3207118360024 1 0
0 0 0 9 3207118362328 1 0
0 0 0 29 3207118364632 1 0
-26.786013 29.525318 -0.927641 18 3207118364632 1 0
-2.6221435 3.199074 -1.9288298 4 3207118385368 1 0
-27.433899 27.491417 -0.6779213 6 3207118385368 1 0
-27.014154 32.967655 -1.2404203 36 3207118387672 1 0
-4.9406214 5.4618225 -2.0617123 4 3207118387672 1 0
-7.285175 8.8933525 -2.2992792 2 3207118389976 1 0
-26.888174 29.73338 0 16 3207118389976 1 0
0 0 0 84 3207118392280 1 0
-10.8860035 12.04144 -2.5254345 3 3207118392280 1 0
-13.319581 16.269485 -2.6763813 12 3207118394584 1 0
-27.667282 27.757566 0.22778052 17 3207118394584 1 0
-27.033812 33.030823 -0.24807572 46 3207118396888 1 0
-16.00518 17.71432 -2.5716143 7 3207118396888 1 0
-11.600586 15.683016 -1.8209602 46 3207118399192 1 0
-24.408829 33.008724 0.4779363 5 3207118401496 1 0
-23.317347 25.814875 0.8094642 15 3207118399192 1 0
-16.48928 18.260792 -1.7204736 10 3207118401496 1 0
-16.050652 19.628695 -2.0699122 3 3207118403800 1 0
-29.236563 29.36612 1.2059772 33 3207118403800 1 0
-27.023588 33.057552 0.74528754 55 3207118406104 1 0
-18.42776 18.514803 -1.6741525 2 3207118406104 1 0
-15.741408 21.306976 -1.5427771 3 3207118408408 1 0
-26.845585 29.755808 2.3339329 18 3207118408408 1 0
-26.856617 32.87281 1.7294081 9 3207118410712 1 0
-17.932728 19.882557 -1.2472203 3 3207118410712 1 0
-16.07053 19.676355 -1.3314267 3 3207118413016 1 0
-26.88142 29.81296 4.9288836 15 3207118413016 1 0
-22.529085 27.59224 2.9079664 7 3207118415320 1 0
-21.085354 21.209616 -1.2184503 4 3207118415320 1 0
0 0 0 9 3207118417624 1 0
0 0 0 29 3207118419928 1 0
-26.768436 29.713713 -0.93061864 30 3207118419928 1 0
-2.6109607 3.2082076 -1.9288298 4 3207118440664 1 0
-15.99291 21.67377 -0.94061124 3 3207118417624 1 0
-26.96452 33.14239 -1.2434458 18 3207118442968 1 0
-44.887314 45.29656 -1.1131145 14 3207118440664 1 0
-4.9241 5.4819007 -2.0627906 4 3207118442968 1 0
-7.229337 8.888299 -2.2914345 2 3207118445272 1 0
-27.18243 30.270504 0 47 3207118445272 1 0
-10.846545 12.082308 -2.5260494 2 3207118447576 1 0
-13.280229 16.337433 -2.6799169 14 3207118449880 1 0
-24.125578 32.824978 -0.47425774 22 3207118447576 1 0
-25.990042 31.982641 -0.23952058 18 3207118452184 1 0
-27.463293 27.745947 0.2268971 17 3207118449880 1 0
-15.922002 17.746399 -2.5681872 7 3207118452184 1 0
-11.493912 15.65279 -1.8127811 49 3207118454488 1 0
-23.192383 25.85741 0.80825454 14 3207118454488 1 0
-24.191683 32.955082 0.47593406 5 3207118456792 1 0
-16.342857 18.226143 -1.7118238 7 3207118456792 1 0
-16.057423 19.777454 -2.079676 3 3207118459096 1 0
-29.077656 29.411129 1.2036499 33 3207118459096 1 0
-25.967915 31.993422 0.7192486 15 3207118461400 1 0
-18.475262 18.692577 -1.6843858 2 3207118461400 1 0
-15.877121 21.648378 -1.5634745 3 3207118463704 1 0
-37.282566 41.615376 3.2539246 47 3207118463704 1 0
-26.014057 32.069332 1.6823505 17 3207118466008 1 0
-17.47135 19.507498 -1.21986 3 3207118466008 1 0
-16.067165 19.812998 -1.3368697 3 3207118468312 1 0
-26.726871 29.850412 4.9196215 7 3207118468312 1 0
-21.013998 21.285933 -1.2186131 4 3207118470616 1 0
-15.971491 21.803638 -0.94382197 3 3207118472920 1 0
0 0 0 9 3207118472920 1 0
0 0 0 29 3207118475224 1 0
-27.112473 30.307678 -0.9462515 56 3207118475224 1 0
-2.5974677 3.2144823 -1.9271393 5 3207118495960 1 0
-27.02811 27.465624 -0.67261577 18 3207118495960 1 0
-26.999416 33.422928 -1.2504275 27 3207118498264 1 0
-22.432634 27.670712 2.9079664 7 3207118470616 1 0
-4.9023705 5.4961815 -2.0617123 4 3207118498264 1 0
-7.2524824 8.980614 -2.3086927 3 3207118500568 1 0
-27.167112 30.46671 0 52 3207118500568 1 0
-23.933052 32.802364 -0.4727211 9 3207118502872 1 0
-13.23558 16.39913 -2.6824422 14 3207118505176 1 0
-10.801674 12.117145 -2.5254345 2 3207118502872 1 0
-27.315805 27.790297 0.22647865 17 3207118505176 1 0
-27.008516 33.474014 -0.24998203 54 3207118507480 1 0
-15.833503 17.772175 -2.5639033 7 3207118507480 1 0
-11.389936 15.62523 -1.8049738 48 3207118509784 1 0
-22.984957 25.806816 0.80416024 14 3207118509784 1 0
-23.970499 32.893864 0.47383866 5 3207118512088 1 0
-16.292404 18.29798 -1.713219 5 3207118512088 1 0
-28.86277 29.398325 1.1989955 21 3207118514392 1 0
-16.105886 19.979265 -2.0949724 3 3207118514392 1 0
-26.985384 33.485188 0.7506629 55 3207118516696 1 0
-18.418287 18.765501 -1.6851532 2 3207118516696 1 0
-37.208736 41.825817 3.2602038 23 3207118519000 1 0
-15.82261 21.732721 -1.5655676 3 3207118519000 1 0
-29.925634 37.155754 1.9436913 10 3207118521304 1 0
-16.04801 19.931189 -1.3410566 3 3207118523608 1 0
-17.307558 19.46088 -1.2131594 3 3207118521304 1 0
-17.062466 19.190916 3.1530037 3 3207118523608 1 0
-22.350906 27.76748 2.909919 7 3207118525912 1 0
-20.99273 21.413382 -1.2217069 4 3207118525912 1 0
-15.968166 21.959484 -0.9481495 3 3207118528216 1 0
0 0 0 9 3207118528216 1 0
0 0 0 29 3207118530520 1 0
-27.088842 30.494814 -0.94913614 63 3207118530520 1 0
-2.5862312 3.2235296 -1.9271393 4 3207118551256 1 0
-26.990772 27.61987 -0.67408174 18 3207118551256 1 0
-26.970142 33.626137 -1.2545002 54 3207118553560 1 0
-4.8857093 5.516144 -2.0627906 4 3207118553560 1 0
-7.2161827 8.999755 -2.307124 3 3207118555864 1 0
-27.113632 30.62125 0 5 3207118555864 1 0
-23.79025 32.846836 -0.47216234 8 3207118558168 1 0
-10.764551 12.160695 -2.5266643 3 3207118558168 1 0
-13.198107 16.470001 -2.6864827 21 3207118560472 1 0
-27.333183 28.002834 0.2274318 47 3207118560472 1 0
-26.986538 33.686714 -0.25086543 47 3207118562776 1 0
-15.745018 17.797548 -2.5596194 7 3207118562776 1 0
-22.794062 25.773064 0.80062425 9 3207118565080 1 0
-11.295634 15.610042 -1.7986536 50 3207118565080 1 0
-23.768793 32.85743 0.47211576 5 3207118567384 1 0
-16.239006 18.366695 -1.7143351 2 3207118567384 1 0
-16.06096 20.066488 -2.098227 3 3207118569688 1 0
-28.656702 29.392971 1.1946901 26 3207118569688 1 0
-26.983273 33.722828 0.7538741 16 3207118571992 1 0
-18.341526 18.818245 -1.68413 2 3207118571992 1 0
-15.802791 21.865496 -1.5711489 3 3207118574296 1 0
-30.025393 37.547153 1.9586715 20 3207118576600 1 0
0 0 0 3 3207118574296 1 0
-17.189268 19.464272 -1.2096231 3 3207118576600 1 0
-16.979607 19.2325 3.1500788 7 3207118578904 1 0
-22.293667 27.89516 2.9151263 7 3207118581208 1 0
-16.018248 20.037006 -1.344406 3 3207118578904 1 0
-19.270187 19.794067 -1.1254749 7 3207118581208 1 0
-17.966753 24.890146 -1.071973 4 3207118583512 1 0
0 0 0 9 3207118583512 1 0
0 0 0 29 3207118585816 1 0
-2.574963 3.2325375 -1.9271393 5 3207118606552 1 0
-27.074818 30.694149 -0.95239294 57 3207118585816 1 0
-26.977753 27.80002 -0.676176 12 3207118606552 1 0
-26.95223 33.845184 -1.2591547 27 3207118608856 1 0
-4.8638806 5.530272 -2.0617123 4 3207118608856 1 0
-7.126093 8.9512415 -2.2882965 3 3207118611160 1 0
0 0 0 12 3207118613464 1 0
0 0 0 42 3207118611160 1 0
-10.727256 12.204134 -2.5278943 3 3207118613464 1 0
-13.157828 16.537708 -2.6900182 14 3207118615768 1 0
-27.00977 27.865433 0.22554874 11 3207118615768 1 0
-26.973362 33.91219 -0.25184184 55 3207118618072 1 0
-15.659175 17.82551 -2.555764 7 3207118618072 1 0
-11.18996 15.578213 -1.7904745 46 3207118620376 1 0
-22.664377 25.807402 0.7992284 9 3207118620376 1 0
-23.558304 32.806995 0.47020662 5 3207118622680 1 0
-16.185326 18.435263 -1.7154512 2 3207118622680 1 0
-28.45937 29.395155 1.1907338 16 3207118624984 1 0
-15.975935 20.103703 -2.0962744 3 3207118624984 1 0
-26.977345 33.957726 0.7570156 24 3207118627288 1 0
-17.642754 18.228176 -1.6258006 2 3207118627288 1 0
0 0 0 3 3207118629592 1 0
-15.800858 22.024351 -1.5785908 3 3207118629592 1 0
-30.122782 37.9397 1.9736518 31 3207118631896 1 0
-17.015842 19.403988 -1.2021781 3 3207118631896 1 0
-16.03761 20.205433 -1.3519424 3 3207118634200 1 0
-16.873112 19.246872 3.1427667 10 3207118634200 1 0
-19.145416 19.803743 -1.1222183 10 3207118636504 1 0
-17.898388 24.978704 -1.0730897 4 3207118638808 1 0
0 0 0 9 3207118638808 1 0
-21.700544 27.348207 2.8500347 7 3207118636504 1 0
0 0 0 29 3207118641112 1 0
-27.051825 30.884731 -0.95537066 51 3207118641112 1 0
-2.5681615 3.247193 -1.9305202 4 3207118661296 1 0
-26.938076 34.07079 -1.2640419 27 3207118663600 1 0
-26.963804 27.980415 -0.67827034 12 3207118661296 1 0
-4.8470807 5.550118 -2.0627906 4 3207118663600 1 0
-7.206686 9.117611 -2.324382 3 3207118665904 1 0
-27.122808 31.06591 0 48 3207118665904 1 0
0 0 0 56 3207118668208 1 0
-10.697585 12.256393 -2.5309687 3 3207118668208 1 0
-13.10494 16.589764 -2.6910284 8 3207118670512 1 0
-26.995554 28.046 0.22624618 23 3207118670512 1 0
-26.953981 34.131702 -0.25277176 55 3207118672816 1 0
-15.575942 17.856087 -2.552337 7 3207118672816 1 0
-11.096206 15.562051 -1.7841543 48 3207118675120 1 0
-27.13682 31.118483 0.9607677 19 3207118675120 1 0
-23.401854 32.830402 0.4693685 5 3207118677424 1 0
-16.13923 18.512703 -1.7174044 2 3207118677424 1 0
-16.019257 20.303318 -2.1112454 3 3207118679728 1 0
-28.21249 29.344439 1.184683 10 3207118679728 1 0
-17.449007 18.154385 -1.6137767 2 3207118682032 1 0
-26.962671 34.183575 0.7599476 24 3207118682032 1 0
-15.765577 22.13792 -1.5827767 3 3207118684336 1 0
-27.3372 31.385107 2.423932 10 3207118684336 1 0
-30.138618 38.232944 1.9834216 31 3207118686640 1 0
-16.913895 19.424093 -1.1997585 3 3207118686640 1 0
-16.038683 20.352276 -1.3580134 3 3207118688944 1 0
-21.624685 27.448843 2.8526385 7 3207118691248 1 0
-18.95992 19.749363 -1.1153795 7 3207118691248 1 0
-17.970963 25.265802 -1.082722 4 3207118693552 1 0
0 0 0 9 3207118693552 1 0
0 0 0 29 3207118695856 1 0
-27.0462 31.09665 -0.9589997 52 3207118695856 1 0
-16.795397 19.293674 3.1408167 7 3207118688944 1 0
-2.552333 3.2504354 -1.9271393 4 3207118716592 1 0
-26.954454 28.16683 -0.6805042 19 3207118716592 1 0
-26.922922 34.29651 -1.2689291 37 3207118718896 1 0
-4.8277183 5.5669684 -2.0627906 5 3207118718896 1 0
-7.1023035 9.050039 -2.300848 2 3207118721200 1 0
-27.061821 31.214407 0 18 3207118721200 1 0
-25.191414 35.557724 -0.5073184 10 3207118723504 1 0
-10.6653595 12.305374 -2.5334284 3 3207118723504 1 0
-12.447469 15.870091 -2.5672855 3 3207118725808 1 0
-27.307367 28.567207 0.22968683 60 3207118725808 1 0
-26.944517 34.363102 -0.25379464 56 3207118728112 1 0
-15.490734 17.88273 -2.5484815 7 3207118728112 1 0
-11.001079 15.541695 -1.7774624 49 3207118730416 1 0
-27.086985 31.278343 0.96281487 19 3207118730416 1 0
-23.212543 32.802963 0.46783185 5 3207118732720 1 0
-16.151197 18.655594 -1.7254962 2 3207118732720 1 0
0 0 0 19 3207118735024 1 0
-26.951468 34.411118 0.7629494 24 3207118737328 1 0
-26.996082 28.27283 1.1376727 14 3207118735024 1 0
-17.345379 18.170732 -1.6099392 5 3207118737328 1 0
0 0 0 3 3207118739632 1 0
0 0 0 20 3207118739632 1 0
-30.249468 38.643932 1.9993788 31 3207118741936 1 0
-16.750843 19.369843 -1.1928719 3 3207118741936 1 0
-15.99394 20.438202 -1.3601068 3 3207118744240 1 0
-16.732233 19.353727 3.1413043 10 3207118744240 1 0
-21.65171 27.675985 2.8685858 7 3207118746544 1 0
0 0 0 19 3207118746544 1 0
-17.892155 25.336355 -1.0831407 4 3207118748848 1 0
0 0 0 9 3207118748848 1 0
0 0 0 29 3207118751152 1 0
-27.019314 31.278715 -0.9617913 13 3207118751152 1 0
-2.5482285 3.2674572 -1.9322107 4 3207118771888 1 0
-26.94908 28.348816 -0.6827381 12 3207118771888 1 0
-4.811704 5.5859003 -2.063869 4 3207118774192 1 0
-7.0986447 9.107675 -2.3094773 2 3207118776496 1 0
-27.114315 31.486229 0 61 3207118776496 1 0
-26.902212 34.505615 -1.2733508 27 3207118774192 1 0
-25.183046 35.798637 -0.5095535 15 3207118778800 1 0
-10.642277 12.361874 -2.5377328 2 3207118778800 1 0
-12.372365 15.883469 -2.5627398 5 3207118781104 1 0
-27.294277 28.745417 0.23038426 42 3207118781104 1 0
-15.3943815 17.892355 -2.542484 7 3207118783408 1 0
-19.948002 25.616648 -0.18870121 8 3207118783408 1 0
-10.907579 15.519916 -1.7707704 53 3207118785712 1 0
-27.073013 31.475283 0.96607167 31 3207118785712 1 0
-23.04448 32.799114 0.46666774 5 3207118788016 1 0
-16.11691 18.74315 -1.7285655 2 3207118788016 1 0
-12.394623 15.931152 -1.6477933 35 3207118790320 1 0
-26.96381 28.430487 1.1403489 14 3207118790320 1 0
-17.18496 18.125 -1.6007293 2 3207118792624 1 0
-11.131601 15.85827 -1.1283622 28 3207118794928 1 0
0 0 0 3 3207118794928 1 0
-19.923029 25.615309 0.5664353 14 3207118792624 1 0
-19.958515 25.676342 1.3249406 16 3207118797232 1 0
-16.653725 19.390245 -1.1906384 3 3207118797232 1 0
-16.019878 20.61553 -1.3682712 3 3207118799536 1 0
-16.64299 19.383451 3.1369169 7 3207118799536 1 0
-18.481531 19.515223 -1.0950259 24 3207118801840 1 0
-19.982103 25.722126 2.658991 6 3207118801840 1 0
-17.922487 25.564299 -1.0902603 4 3207118804144 1 0
0 0 0 9 3207118804144 1 0
0 0 0 29 3207118806448 1 0
-2.5301492 3.267733 -1.9271393 3 3207118827184 1 0
-26.935066 28.53287 -0.68490225 13 3207118827184 1 0
-19.848194 25.642002 -0.9436969 11 3207118829488 1 0
-4.7921767 5.6026626 -2.063869 4 3207118829488 1 0
-27.044807 31.52587 -0.96653694 46 3207118806448 1 0
-7.0668097 9.132398 -2.3094773 3 3207118831792 1 0
-27.08223 31.671886 0 50 3207118831792 1 0
-25.154106 36.02406 -0.5115092 10 3207118834096 1 0
-10.601629 12.401951 -2.5383477 3 3207118834096 1 0
-12.261015 15.854365 -2.5511231 20 3207118836400 1 0
-27.276093 28.927822 0.2310817 48 3207118836400 1 0
-19.829102 25.64815 -0.18842225 8 3207118838704 1 0
-15.308582 17.91877 -2.5386283 7 3207118838704 1 0
-10.812323 15.499101 -1.7640784 53 3207118841008 1 0
-27.061668 31.685144 0.9696077 39 3207118841008 1 0
-22.854345 32.77109 0.46513113 5 3207118843312 1 0
-16.155027 18.920677 -1.7397264 2 3207118843312 1 0
-27.555204 29.25792 1.1696723 35 3207118845616 1 0
-12.268262 15.882822 -1.638355 35 3207118845616 1 0
-19.857937 25.71635 0.5671334 4 3207118847920 1 0
-17.083277 18.144188 -1.5971477 2 3207118847920 1 0
0 0 0 12 3207118850224 1 0
0 0 0 3 3207118850224 1 0
-30.2561 39.20571 2.0176156 21 3207118852528 1 0
-16.521118 19.372253 -1.1859853 3 3207118852528 1 0
-15.974659 20.706114 -1.370574 3 3207118854832 1 0
-16.608713 19.480703 3.143254 7 3207118854832 1 0
-21.5795 27.979437 2.8845334 7 3207118857136 1 0
-18.43794 19.60582 -1.0964913 21 3207118857136 1 0
-17.85826 25.662798 -1.0917958 4 3207118859440 1 0
0 0 0 9 3207118859440 1 0
0 0 0 29 3207118861744 1 0
-26.999426 31.696186 -0.96886325 66 3207118861744 1 0
-2.5187273 3.276545 -1.9271393 4 3207118882480 1 0
-26.920095 28.717169 -0.6870663 19 3207118882480 1 0
-25.230543 32.83162 -1.2050463 8 3207118884784 1 0
-4.775084 5.622292 -2.0649474 2 3207118884784 1 0
-7.02772 9.147678 -2.307124 3 3207118887088 1 0
-27.077656 31.891245 0 43 3207118887088 1 0
0 0 0 14 3207118889392 1 0
-10.565947 12.447922 -2.5401924 3 3207118889392 1 0
-12.227346 15.925394 -2.5556688 7 3207118891696 1 0
-27.26517 29.119211 0.23184887 42 3207118891696 1 0
-15.217641 17.938736 -2.5339162 7 3207118894000 1 0
-25.216816 32.8533 -0.24070622 6 3207118894000 1 0
-10.717343 15.47781 -1.7573864 50 3207118896304 1 0
-27.046602 31.892258 0.97305065 39 3207118896304 1 0
0 0 0 10 3207118898608 1 0
-16.106945 18.99826 -1.7416797 2 3207118898608 1 0
-12.159372 15.85595 -1.631195 33 3207118900912 1 0
-27.379168 29.275082 1.1665304 46 3207118900912 1 0
-25.223486 32.9016 0.7236466 7 3207118903216 1 0
-10.947936 15.830497 -1.1209203 20 3207118905520 1 0
