# .PCD v.7 - Point Cloud Data file format
VERSION .7
FIELDS x y z rgb timestamp_ns device_id active
SIZE 4 4 4 4 8 1 1
TYPE F F F F F U U
COUNT 1 1 1 1 1 1 1
WIDTH 997
HEIGHT 1
VIEWPOINT 0 0 0 1 0 0 0
POINTS 997               
DATA ascii
5.460614 -24.346205 -1.744749 8 3200676582200 1 0
3.7386355 -21.569567 -1.7870892 4 3200676584504 1 0
13.474715 -48.808716 1.47361 64 3200676584504 1 0
9.558449 -55.19392 0.97775364 25 3200676586808 1 0
7.09341 -25.708643 -1.7092013 5 3200676586808 1 0
3.6970794 -30.038057 -1.7625426 8 3200676589112 1 0
12.2121 -54.559242 3.2560177 70 3200676589112 1 0
9.529808 -55.1239 2.2791193 6 3200676591416 1 0
6.4411597 -28.79642 -1.3745294 43 3200676591416 1 0
4.9374695 -28.5849 -1.5202549 27 3200676593720 1 0
8.455431 -37.827423 4.7592416 7 3200676593720 1 0
0 0 0 8 3200676596024 1 0
7.7713003 -28.229565 -1.1928861 49 3200676596024 1 0
3.578125 -29.211737 -1.0277203 12 3200676598328 1 0
0 0 0 9 3200676598328 1 0
0 0 0 29 3200676600632 1 0
12.188875 -54.641872 -1.3027358 45 3200676600632 1 0
0 0 0 4 3200676621368 1 0
0 0 0 29 3200676621368 1 0
9.493658 -55.591305 -1.6412879 17 3200676623672 1 0
1.4658282 -8.591248 -1.7430905 3 3200676625976 1 0
1.3213491 -5.9645314 -1.7101861 5 3200676623672 1 0
6.0722528 -50.371883 -0.59066856 13 3200676628280 1 0
12.149741 -54.883266 0 22 3200676625976 1 0
2.272548 -10.273072 -1.6368899 40 3200676628280 1 0
1.8279811 -10.733605 -1.38592 3 3200676630584 1 0
14.778396 -54.15066 0.32623434 13 3200676630584 1 0
4.8582425 -28.55315 -0.16833627 3 3200676632888 1 0
3.4406922 -15.576237 -1.718265 2 3200676632888 1 0
2.3224626 -19.340368 -1.8183577 2 3200676635192 1 0
12.093109 -54.786007 1.3055274 10 3200676635192 1 0
9.981185 -83.225945 0.97584873 28 3200676637496 1 0
5.376935 -24.37708 -1.745586 8 3200676637496 1 0
3.6620653 -21.582699 -1.7870892 4 3200676639800 1 0
14.599628 -53.624573 1.6174337 17 3200676639800 1 0
9.416256 -55.546955 0.9834082 25 3200676642104 1 0
7.0103273 -25.76452 -1.7112479 5 3200676642104 1 0
3.5994928 -30.130342 -1.7671937 8 3200676644408 1 0
12.016749 -54.598515 3.2557852 70 3200676644408 1 0
9.345588 -55.23245 2.282213 21 3200676646712 1 0
6.3434467 -28.84265 -1.3756461 43 3200676646712 1 0
4.8205156 -28.515734 -1.5156493 31 3200676649016 1 0
8.319181 -37.853558 4.7587543 7 3200676649016 1 0
0 0 0 8 3200676651320 1 0
7.6679482 -28.24953 -1.1925604 57 3200676651320 1 0
3.4863694 -29.335552 -1.0316291 12 3200676653624 1 0
0 0 0 9 3200676653624 1 0
0 0 0 29 3200676655928 1 0
11.993813 -54.693207 -1.302922 56 3200676655928 1 0
10.9251585 -40.518555 -0.7325124 21 3200676676664 1 0
0 0 0 4 3200676676664 1 0
9.385751 -56.197495 -1.6581604 18 3200676678968 1 0
1.2995226 -5.969325 -1.7101861 5 3200676678968 1 0
1.4338093 -8.592672 -1.742306 5 3200676681272 1 0
11.945049 -54.90771 0 22 3200676681272 1 0
3.4501173 -29.52509 -0.34606612 2 3200676683576 1 0
2.2351043 -10.281284 -1.6368899 40 3200676683576 1 0
1.7895926 -10.744095 -1.3864251 5 3200676685880 1 0
14.58244 -54.2079 0.3262576 26 3200676685880 1 0
4.7316146 -28.432495 -0.1675226 7 3200676688184 1 0
3.3858337 -15.596393 -1.7191218 3 3200676688184 1 0
2.2542474 -19.364475 -1.8198448 2 3200676690488 1 0
11.895467 -54.83335 1.3056204 10 3200676690488 1 0
15.854251 -136.36415 1.5982276 28 3200676692792 1 0
5.317538 -24.528944 -1.7550728 8 3200676692792 1 0
3.5861506 -21.607567 -1.7880657 4 3200676695096 1 0
14.408182 -53.68461 1.6176664 17 3200676695096 1 0
13.803099 -83.24251 1.4728435 29 3200676697400 1 0
6.9258094 -25.820433 -1.7132946 5 3200676697400 1 0
3.4944434 -30.170845 -1.7688216 8 3200676699704 1 0
11.822218 -54.649136 3.2562504 70 3200676699704 1 0
14.360206 -86.75864 3.582729 29 3200676702008 1 0
6.245909 -28.892544 -1.376949 49 3200676702008 1 0
4.7054234 -28.453978 -1.5114625 31 3200676704312 1 0
8.178661 -37.859795 4.7558293 7 3200676704312 1 0
0 0 0 8 3200676706616 1 0
7.57013 -28.288313 -1.193049 57 3200676706616 1 0
3.3941696 -29.455013 -1.0353982 12 3200676708920 1 0
0 0 0 9 3200676708920 1 0
0 0 0 29 3200676711224 1 0
11.800085 -54.73942 -1.303015 67 3200676711224 1 0
0 0 0 4 3200676731960 1 0
14.429935 -54.2698 -0.98019695 10 3200676731960 1 0
9.155993 -56.024723 -1.6521096 35 3200676734264 1 0
1.2786778 -5.973825 -1.7101861 6 3200676734264 1 0
1.4044386 -8.601496 -1.7430905 3 3200676736568 1 0
11.753313 -54.94907 0 33 3200676736568 1 0
3.35379 -29.596567 -0.3467646 2 3200676738872 1 0
2.1983762 -10.285158 -1.6362749 41 3200676738872 1 0
1.7527161 -10.754193 -1.3869302 8 3200676741176 1 0
14.394156 -54.26234 0.32628083 26 3200676741176 1 0
4.6419806 -28.508057 -0.16787131 10 3200676743480 1 0
3.334692 -15.623673 -1.7208353 2 3200676743480 1 0
2.1893194 -19.395971 -1.8220755 2 3200676745784 1 0
11.704824 -54.878452 1.3057135 10 3200676745784 1 0
5.2318835 -24.547356 -1.7550728 8 3200676748088 1 0
15.373674 -136.37892 1.597762 28 3200676748088 1 0
3.5100653 -21.616018 -1.7877402 4 3200676750392 1 0
14.215586 -53.71525 1.6170846 17 3200676750392 1 0
6.8550305 -25.917774 -1.7181554 5 3200676752696 1 0
13.533579 -83.420456 1.4751472 29 3200676752696 1 0
3.3931165 -30.218575 -1.7709146 8 3200676755000 1 0
11.630554 -54.686165 3.2560177 70 3200676755000 1 0
14.225939 -87.84979 3.625716 29 3200676757304 1 0
6.149171 -28.933712 -1.3778796 49 3200676757304 1 0
4.5920367 -28.383478 -1.5068568 30 3200676759608 1 0
8.042333 -37.8687 4.7533917 7 3200676759608 1 0
0 0 0 8 3200676761912 1 0
7.4693 -28.306837 -1.1927233 49 3200676761912 1 0
3.306863 -29.605732 -1.0402842 12 3200676764216 1 0
0 0 0 9 3200676764216 1 0
0 0 0 29 3200676766520 1 0
11.609766 -54.78419 -1.3031081 67 3200676766520 1 0
0 0 0 4 3200676787256 1 0
14.234325 -54.296627 -0.9797781 20 3200676787256 1 0
8.921878 -55.815502 -1.6450115 17 3200676789560 1 0
1.2578175 -5.978252 -1.7101861 6 3200676789560 1 0
1.3756423 -8.614093 -1.7446594 3 3200676791864 1 0
11.53016 -54.841015 0 33 3200676791864 1 0
3.262243 -29.71544 -0.34802184 5 3200676794168 1 0
2.1648989 -10.304374 -1.6381197 17 3200676794168 1 0
1.7164154 -10.768083 -1.3879403 10 3200676796472 1 0
14.201621 -54.300644 0.3262111 13 3200676796472 1 0
4.515391 -28.354229 -0.16687167 10 3200676798776 1 0
3.281768 -15.643003 -1.7216922 2 3200676798776 1 0
2.1293933 -19.47476 -1.8287675 2 3200676801080 1 0
8.982021 -82.257454 0.96332294 28 3200676803384 1 0
11.511551 -54.911148 1.3055274 21 3200676801080 1 0
5.149438 -24.58109 -1.756189 8 3200676803384 1 0
3.4377162 -21.647825 -1.7893674 6 3200676805688 1 0
14.025979 -53.756805 1.6168519 17 3200676805688 1 0
13.263612 -83.60149 1.4775207 29 3200676807992 1 0
6.7715697 -25.968582 -1.7199461 5 3200676807992 1 0
3.2582557 -29.960285 -1.7551007 12 3200676810296 1 0
11.441227 -54.734245 3.2564828 70 3200676810296 1 0
21.002256 -132.628 5.4707327 29 3200676812600 1 0
4.4792 -28.312534 -1.5022513 30 3200676814904 1 0
7.9092855 -37.89265 4.7529044 7 3200676814904 1 0
0 0 0 8 3200676817208 1 0
6.0554886 -28.990202 -1.3795547 45 3200676812600 1 0
7.370445 -28.332737 -1.1927233 57 3200676817208 1 0
3.213817 -29.712479 -1.0436345 41 3200676819512 1 0
0 0 0 9 3200676819512 1 0
0 0 0 29 3200676821816 1 0
11.419278 -54.828297 -1.3032011 67 3200676821816 1 0
0 0 0 4 3200676842552 1 0
0 0 0 94 3200676842552 1 0
8.662173 -55.43152 -1.6327935 17 3200676844856 1 0
1.2385017 -5.9901505 -1.7123427 6 3200676844856 1 0
1.3455652 -8.618842 -1.7446594 3 3200676847160 1 0
11.341896 -54.8966 0 33 3200676847160 1 0
5.525891 -52.007713 -0.6088752 21 3200676849464 1 0
2.1249208 -10.292514 -1.6350452 8 3200676849464 1 0
1.6782064 -10.770088 -1.3874352 10 3200676851768 1 0
14.009993 -54.34214 0.3261646 13 3200676851768 1 0
4.404699 -28.294724 -0.16642997 29 3200676854072 1 0
2.061401 -19.482075 -1.8287675 2 3200676856376 1 0
3.2279468 -15.658258 -1.7221205 3 3200676854072 1 0
11.289952 -54.80608 1.3020844 21 3200676856376 1 0
5.0652113 -24.606733 -1.756747 8 3200676858680 1 0
14.415739 -136.43121 1.5971566 28 3200676858680 1 0
3.362742 -21.663633 -1.789693 6 3200676860984 1 0
13.837252 -53.801567 1.6167356 17 3200676860984 1 0
12.979062 -83.6947 1.4783584 29 3200676863288 1 0
6.688831 -26.022991 -1.7219929 5 3200676863288 1 0
3.189174 -30.309038 -1.774868 8 3200676865592 1 0
11.249295 -54.76994 3.2562504 94 3200676865592 1 0
12.942893 -83.62209 3.4474182 29 3200676867896 1 0
5.961487 -29.046389 -1.3812299 45 3200676867896 1 0
4.3693557 -28.25694 -1.4984831 30 3200676870200 1 0
7.7745743 -37.908363 4.751442 7 3200676870200 1 0
0 0 0 8 3200676872504 1 0
7.2665367 -28.338934 -1.1919092 45 3200676872504 1 0
3.1109135 -29.731468 -1.0439137 28 3200676874808 1 0
0 0 0 29 3200676877112 1 0
11.22702 -54.863907 -1.3031081 78 3200676877112 1 0
0.595514 -3.8917015 -1.8358537 0 3200676897296 1 0
0 0 0 9 3200676874808 1 0
7.2270784 -28.352957 -0.5107272 11 3200676897296 1 0
0 0 0 93 3200676899600 1 0
1.2171396 -5.986666 -1.7101861 6 3200676899600 1 0
1.3171021 -8.623238 -1.7446594 4 3200676901904 1 0
11.160589 -54.933746 0 44 3200676901904 1 0
8.113696 -78.8342 -0.92262566 13 3200676904208 1 0
2.0925756 -10.307204 -1.6362749 9 3200676904208 1 0
1.6439918 -10.783391 -1.3884454 10 3200676906512 1 0
13.831293 -54.387897 0.3261646 13 3200676906512 1 0
4.3028407 -28.249704 -0.16608125 37 3200676908816 1 0
3.180525 -15.68825 -1.7242625 2 3200676908816 1 0
2.0000715 -19.512487 -1.8309982 2 3200676911120 1 0
9.6646805 -94.41621 1.104925 28 3200676913424 1 0
4.988005 -24.638784 -1.7578632 8 3200676913424 1 0
3.2951386 -21.694181 -1.7913202 6 3200676915728 1 0
11.106569 -54.823135 1.3016192 21 3200676911120 1 0
13.659929 -53.838608 1.6165028 17 3200676915728 1 0
12.805936 -84.388885 1.489877 29 3200676918032 1 0
6.614015 -26.08329 -1.7245511 5 3200676918032 1 0
3.0969276 -30.378813 -1.7783564 8 3200676920336 1 0
11.070014 -54.79831 3.2557852 70 3200676920336 1 0
20.07551 -132.54103 5.4614515 29 3200676922640 1 0
5.867458 -29.065529 -1.3812299 40 3200676922640 1 0
4.2798886 -28.282751 -1.4991112 21 3200676924944 1 0
7.6521335 -37.93327 4.751442 7 3200676924944 1 0
0 0 0 8 3200676927248 1 0
7.1820645 -28.389318 -1.193049 45 3200676927248 1 0
3.0177505 -29.765177 -1.0447513 28 3200676929552 1 0
0 0 0 9 3200676929552 1 0
0 0 0 29 3200676931856 1 0
5.8498397 -29.06105 -0.68979865 24 3200676931856 1 0
0.5842148 -3.9044108 -1.8409251 0 3200676952592 1 0
13.68494 -54.441814 -0.9798479 10 3200676952592 1 0
0 0 0 9 3200676954896 1 0
1.1987029 -5.9982414 -1.7123427 6 3200676954896 1 0
1.287669 -8.623715 -1.7438749 4 3200676957200 1 0
10.975195 -54.96293 0 33 3200676957200 1 0
2.9681518 -29.822628 -0.34890655 2 3200676959504 1 0
2.057934 -10.314177 -1.6362749 11 3200676959504 1 0
1.6075962 -10.7888775 -1.3884454 10 3200676961808 1 0
13.65353 -54.45754 0.32630408 13 3200676961808 1 0
0 0 0 66 3200676964112 1 0
3.1281188 -15.702838 -1.7246909 3 3200676964112 1 0
1.9340441 -19.523144 -1.8313699 2 3200676966416 1 0
10.916799 -54.84493 1.301247 21 3200676966416 1 0
8.129345 -82.18935 0.9615069 28 3200676968720 1 0
4.905319 -24.663517 -1.7584212 8 3200676968720 1 0
3.2200694 -21.70142 -1.7909948 6 3200676971024 1 0
13.476019 -53.889057 1.6166191 17 3200676971024 1 0
12.429941 -83.85888 1.4797547 29 3200676973328 1 0
6.54439 -26.187262 -1.7299235 5 3200676973328 1 0
2.9944897 -30.417168 -1.7799842 12 3200676975632 1 0
10.881814 -54.844135 3.2562504 70 3200676975632 1 0
19.616417 -132.62187 5.4619403 29 3200676977936 1 0
5.750847 -29.007362 -1.3775073 36 3200676977936 1 0
4.1980696 -28.412115 -1.5051821 13 3200676980240 1 0
7.519675 -37.959747 4.751442 7 3200676980240 1 0
0 0 0 8 3200676982544 1 0
7.0883102 -28.437588 -1.194026 41 3200676982544 1 0
2.9156907 -29.803465 -1.0457286 28 3200676984848 1 0
0 0 0 9 3200676984848 1 0
0 0 0 29 3200676987152 1 0
10.857687 -54.94227 -1.3032011 45 3200676987152 1 0
13.48627 -54.495487 -0.9799177 10 3200677007888 1 0
0.5657139 -3.8778276 -1.8274014 0 3200677007888 1 0
7.9404273 -54.485126 -1.602423 31 3200677010192 1 0
1.2573085 -8.636122 -1.7454439 4 3200677012496 1 0
10.774472 -55.00263 0 33 3200677012496 1 0
2.8594773 -29.833244 -0.34890655 2 3200677014800 1 0
1.178236 -6.0101457 -1.7144994 7 3200677010192 1 0
2.0195827 -10.317727 -1.63566 11 3200677014800 1 0
1.5694971 -10.802505 -1.3894556 8 3200677017104 1 0
13.451592 -54.49129 0.3262111 13 3200677017104 1 0
4.128045 -28.4415 -0.1670344 18 3200677019408 1 0
3.0734038 -15.725796 -1.725976 3 3200677019408 1 0
1.8625709 -19.52209 -1.8306264 2 3200677021712 1 0
10.703541 -54.809536 1.299479 21 3200677021712 1 0
7.333452 -76.982254 0.9002748 26 3200677024016 1 0
4.8199673 -24.700666 -1.7598163 8 3200677024016 1 0
3.1486223 -21.760242 -1.7949003 6 3200677026320 1 0
13.282509 -53.9412 1.6167356 17 3200677026320 1 0
19.140907 -132.41939 2.3354113 29 3200677028624 1 0
6.456758 -26.237782 -1.7317144 5 3200677028624 1 0
2.8961294 -30.543016 -1.7867284 8 3200677030928 1 0
10.686245 -54.890713 3.2567153 70 3200677030928 1 0
19.115139 -132.51335 5.4546127 29 3200677033232 1 0
5.6285014 -28.933662 -1.3730404 30 3200677033232 1 0
4.111769 -28.533703 -1.5108343 13 3200677035536 1 0
7.3807797 -37.97082 4.749492 7 3200677035536 1 0
0 0 0 8 3200677037840 1 0
6.992441 -28.486006 -1.1950029 41 3200677037840 1 0
2.8109715 -29.829584 -1.046287 28 3200677040144 1 0
0 0 0 9 3200677040144 1 0
0 0 0 29 3200677042448 1 0
5.655821 -29.16461 -0.69128746 32 3200677042448 1 0
0.5307207 -3.7290382 -1.7564015 0 3200677063184 1 0
13.290279 -54.518917 -0.97949886 10 3200677063184 1 0
7.7091064 -54.22354 -1.5939286 31 3200677065488 1 0
1.1565217 -6.0104394 -1.713421 6 3200677065488 1 0
1.2282581 -8.648225 -1.7470129 4 3200677067792 1 0
5.618224 -29.220798 0 45 3200677067792 1 0
7.128243 -77.20638 -0.9026496 27 3200677070096 1 0
1.9828092 -10.320833 -1.6350452 10 3200677070096 1 0
1.5328934 -10.815775 -1.3904657 4 3200677072400 1 0
13.25941 -54.53014 0.3261646 13 3200677072400 1 0
4.0427585 -28.554749 -0.16761559 25 3200677074704 1 0
3.0214887 -15.752051 -1.7276896 3 3200677074704 1 0
1.7958723 -19.544338 -1.8321135 2 3200677077008 1 0
10.506132 -54.815144 1.2987345 21 3200677077008 1 0
7.028515 -76.61306 0.89566493 51 3200677079312 1 0
4.7569838 -24.83883 -1.7684661 8 3200677079312 1 0
3.07376 -21.778996 -1.7955512 6 3200677081616 1 0
13.089426 -53.967808 1.6161537 17 3200677081616 1 0
11.737332 -83.25187 1.467538 29 3200677083920 1 0
6.3735948 -26.295076 -1.7340168 5 3200677083920 1 0
2.790223 -30.560894 -1.7871935 8 3200677086224 1 0
10.4945755 -54.92768 3.2567153 70 3200677086224 1 0
18.649681 -132.55948 5.453799 29 3200677088528 1 0
5.5162306 -28.89426 -1.3702486 39 3200677088528 1 0
4.026041 -28.646772 -1.516068 13 3200677090832 1 0
7.2057877 -37.77406 4.721706 21 3200677090832 1 0
0 0 0 8 3200677093136 1 0
6.898599 -28.533548 -1.19598 41 3200677093136 1 0
2.707552 -29.847178 -1.0465661 28 3200677095440 1 0
0 0 0 9 3200677095440 1 0
0 0 0 29 3200677097744 1 0
0.5231817 -3.7703671 -1.7749968 0 3200677118480 1 0
10.473993 -55.037056 -1.3036664 33 3200677097744 1 0
13.100825 -54.568867 -0.97956866 10 3200677118480 1 0
7.485748 -54.004574 -1.5867141 30 3200677120784 1 0
1.1362488 -6.0182247 -1.7144994 6 3200677120784 1 0
1.1986006 -8.656344 -1.7477973 5 3200677123088 1 0
10.3939295 -55.09616 0 22 3200677123088 1 0
6.8756824 -77.42203 -0.9048847 13 3200677125392 1 0
1.9562886 -10.378184 -1.643039 35 3200677125392 1 0
1.4940438 -10.813198 -1.3894556 3 3200677127696 1 0
13.042902 -54.46717 0.32551366 13 3200677127696 1 0
3.9561844 -28.663782 -0.16817354 30 3200677130000 1 0
1.7297424 -19.574291 -1.8343441 2 3200677132304 1 0
2.9679563 -15.770319 -1.7285464 3 3200677130000 1 0
6.761042 -76.63713 0.89566493 51 3200677134608 1 0
4.670988 -24.859207 -1.7687452 8 3200677134608 1 0
3.0036952 -21.833036 -1.7991313 6 3200677136912 1 0
12.903749 -54.024834 1.6165028 17 3200677136912 1 0
10.311771 -54.835762 1.2983624 21 3200677132304 1 0
18.208363 -132.49431 2.3344338 29 3200677139216 1 0
6.2910366 -26.355991 -1.7365751 5 3200677139216 1 0
2.6877186 -30.618181 -1.7899842 8 3200677141520 1 0
10.301307 -54.956127 3.2562504 70 3200677141520 1 0
18.160242 -132.42975 5.44582 29 3200677143824 1 0
5.39989 -28.830866 -1.3663399 30 3200677143824 1 0
3.940658 -28.767506 -1.5217203 13 3200677146128 1 0
10.298254 -55.028233 6.8739185 45 3200677146128 1 0
0 0 0 8 3200677148432 1 0
6.8091383 -28.600224 -1.1977711 41 3200677148432 1 0
0 0 0 9 3200677150736 1 0
2.6061275 -29.888306 -1.0476829 29 3200677150736 1 0
0 0 0 29 3200677153040 1 0
10.281815 -55.07328 -1.3036664 45 3200677153040 1 0
0.5046744 -3.7326524 -1.7564015 0 3200677173776 1 0
12.908425 -54.60648 -0.97942907 10 3200677173776 1 0
1.1145768 -6.0183587 -1.713421 6 3200677176080 1 0
1.169552 -8.668233 -1.7493663 3 3200677178384 1 0
10.202347 -55.131958 0 22 3200677178384 1 0
7.2665443 -53.800507 -1.5799651 30 3200677176080 1 0
4.325046 -50.696396 -0.5923449 20 3200677180688 1 0
1.91309 -10.346042 -1.6368899 50 3200677180688 1 0
1.4581927 -10.830103 -1.3909707 3 3200677182992 1 0
12.8552 -54.51589 0.3255369 13 3200677182992 1 0
3.8747432 -28.808098 -0.16894071 30 3200677185296 1 0
2.9141855 -15.784388 -1.7289747 3 3200677185296 1 0
1.6625961 -19.584106 -1.834716 2 3200677187600 1 0
10.113984 -54.82379 1.2972457 31 3200677187600 1 0
6.4913096 -76.588196 0.89482677 51 3200677189904 1 0
4.587621 -24.886898 -1.7695823 8 3200677189904 1 0
2.9276767 -21.835316 -1.7984803 6 3200677192208 1 0
11.764438 -87.834145 1.5468417 29 3200677194512 1 0
6.2235622 -26.474531 -1.7429708 5 3200677194512 1 0
12.7173195 -54.064915 1.6163864 17 3200677192208 1 0
2.5934556 -30.750542 -1.7971934 8 3200677196816 1 0
10.117022 -55.010654 3.2574131 70 3200677196816 1 0
17.71217 -132.51865 5.44696 29 3200677199120 1 0
5.2856383 -28.762657 -1.3622452 30 3200677199120 1 0
3.8548872 -28.871817 -1.5265352 13 3200677201424 1 0
10.103742 -55.023914 6.869044 67 3200677201424 1 0
0 0 0 8 3200677203728 1 0
6.7201815 -28.658203 -1.1992365 41 3200677203728 1 0
2.5058272 -29.908916 -1.0481017 34 3200677206032 1 0
0 0 0 9 3200677206032 1 0
0 0 0 29 3200677208336 1 0
10.102007 -55.143135 -1.3045038 100 3200677208336 1 0
0.49750566 -3.773841 -1.7749968 0 3200677229072 1 0
12.729087 -54.656776 -0.97956866 10 3200677229072 1 0
0 0 0 84 3200677231376 1 0
1.0945255 -6.0220375 -1.713421 6 3200677231376 1 0
1.140037 -8.668208 -1.7485818 3 3200677233680 1 0
10.013574 -55.142166 0 33 3200677233680 1 0
6.3118954 -77.04063 -0.8999023 13 3200677235984 1 0
1.8776134 -10.348522 -1.6362749 56 3200677235984 1 0
1.4216405 -10.834962 -1.3909707 3 3200677238288 1 0
12.667555 -54.54337 0.32544392 13 3200677238288 1 0
3.7947667 -28.955908 -0.16973113 41 3200677240592 1 0
2.8620956 -15.802 -1.7298316 3 3200677240592 1 0
1.3478934 -16.545017 -1.5495635 1 3200677242896 1 0
9.902416 -54.720173 1.293989 31 3200677242896 1 0
6.2288504 -76.60196 0.89473367 51 3200677245200 1 0
4.5011125 -24.89458 -1.7690241 8 3200677245200 1 0
2.8573563 -21.880814 -1.8014095 9 3200677247504 1 0
12.5307665 -54.104355 1.6162701 17 3200677247504 1 0
10.939162 -83.86871 1.476334 29 3200677249808 1 0
1.3680404 -16.920023 -0.9885959 1 3200677252112 1 1
6.142168 -26.538607 -1.745785 6 3200677249808 1 0
9.927247 -55.049274 3.2576456 70 3200677252112 1 0
17.244194 -132.52393 5.44468 29 3200677254416 1 0
5.171454 -28.702211 -1.3585227 39 3200677254416 1 0
3.7648935 -28.96828 -1.5309314 13 3200677256720 1 0
9.90317 -55.01196 6.863194 22 3200677256720 1 0
0 0 0 8 3200677259024 1 0
6.6268783 -28.712736 -1.2005391 41 3200677259024 1 0
2.4030979 -29.94943 -1.0492184 34 3200677261328 1 0
0 0 0 9 3200677261328 1 0
0 0 0 29 3200677263632 1 0
0 0 0 81 3200677263632 1 0
12.5277815 -54.699165 -0.97949886 10 3200677284368 1 0
0 0 0 18 3200677286672 1 0
0.4850524 -3.7864265 -1.7800682 0 3200677284368 1 0
1.073165 -6.0297933 -1.7144994 6 3200677286672 1 0
1.1083848 -8.672313 -1.7485818 3 3200677288976 1 0
9.808701 -55.15866 0 44 3200677288976 1 0
6.025549 -76.99134 -0.8990641 13 3200677291280 1 0
1.8378232 -10.343619 -1.6344303 54 3200677291280 1 0
1.3837398 -10.851868 -1.392486 3 3200677293584 1 0
12.471818 -54.60077 0.32551366 13 3200677293584 1 0
3.7058375 -29.096458 -0.17047505 37 3200677295888 1 0
2.808207 -15.8318615 -1.7319735 3 3200677295888 1 0
1.2731333 -16.359198 -1.5317183 1 3200677298192 1 0
9.778849 -55.176994 1.3039455 32 3200677298192 1 0
5.9881907 -77.09054 0.90018165 52 3200677300496 1 0
4.417369 -24.946049 -1.7715354 8 3200677300496 1 0
2.7784135 -21.890978 -1.8014095 14 3200677302800 1 0
12.333754 -54.141403 1.6160374 17 3200677302800 1 0
16.78571 -132.40793 2.3296869 29 3200677305104 1 0
6.055457 -26.599466 -1.7483433 6 3200677305104 1 0
1.2937163 -16.749647 -0.97836345 1 3200677307408 1 1
9.730809 -55.092445 3.2581108 70 3200677307408 1 0
16.747395 -132.4144 5.4376783 29 3200677309712 1 0
5.0574074 -28.657608 -1.3555447 39 3200677309712 1 0
3.6752415 -29.092531 -1.536793 13 3200677312016 1 0
0 0 0 1 3200677312016 1 0
0 0 0 8 3200677314320 1 0
6.5296226 -28.759602 -1.201516 41 3200677314320 1 0
2.2981946 -29.981718 -1.0500561 34 3200677316624 1 0
0 0 0 9 3200677316624 1 0
0 0 0 29 3200677318928 1 0
9.698994 -55.146423 -1.302922 33 3200677318928 1 0
0.47004002 -3.773707 -1.7733063 0 3200677339664 1 0
12.33589 -54.73866 -0.97942907 10 3200677339664 1 0
6.252551 -50.255093 -1.4738429 22 3200677341968 1 0
1.0521544 -6.033495 -1.7144994 5 3200677341968 1 0
1.078716 -8.680005 -1.7493663 3 3200677344272 1 0
9.601798 -55.105732 0 33 3200677344272 1 0
5.8049684 -77.633995 -0.90632814 13 3200677346576 1 0
1.8026098 -10.3538265 -1.6350452 47 3200677346576 1 0
1.3471437 -10.864469 -1.3934962 9 3200677348880 1 0
12.281862 -54.63971 0.32549042 13 3200677348880 1 0
3.6185825 -29.216267 -0.17110273 33 3200677351184 1 0
2.7562265 -15.85714 -1.733687 2 3200677351184 1 0
1.2137821 -16.323772 -1.5280005 1 3200677353488 1 0
5.601016 -75.46731 0.8809972 24 3200677355792 1 0
9.56875 -55.096115 1.301247 31 3200677353488 1 0
4.3335814 -24.97289 -1.7723725 8 3200677355792 1 0
2.7052104 -21.916214 -1.8027112 14 3200677358096 1 0
12.1513405 -54.199028 1.6165028 8 3200677358096 1 0
10.323297 -83.72915 1.4725642 29 3200677360400 1 0
5.971295 -26.651215 -1.7503899 6 3200677360400 1 0
9.543132 -55.12932 3.2583432 70 3200677362704 1 0
16.29763 -132.48662 5.4383297 29 3200677365008 1 0
4.94806 -28.60776 -1.3523806 38 3200677365008 1 0
1.2320511 -16.694235 -0.9748751 1 3200677362704 1 1
3.5903344 -29.219847 -1.542864 13 3200677367312 1 0
0 0 0 1 3200677367312 1 0
0 0 0 8 3200677369616 1 0
6.436272 -28.801113 -1.2023302 41 3200677369616 1 0
2.1977463 -30.005281 -1.0506145 38 3200677371920 1 0
0 0 0 9 3200677371920 1 0
0 0 0 29 3200677374224 1 0
9.502267 -55.119793 -1.3015262 33 3200677374224 1 0
0.45752338 -3.7752447 -1.7733063 0 3200677394960 1 0
12.15257 -54.771458 -0.9792894 10 3200677394960 1 0
6.08646 -50.28353 -1.4740756 33 3200677397264 1 0
1.0333952 -6.0445523 -1.7166559 7 3200677397264 1 0
1.0521537 -8.70302 -1.7532886 4 3200677399568 1 0
9.477474 -55.48438 0 22 3200677399568 1 0
0 0 0 16 3200677401872 1 0
1.7693691 -10.367578 -1.6362749 39 3200677401872 1 0
1.3084167 -10.849216 -1.3909707 9 3200677404176 1 0
12.099012 -54.68049 0.32549042 13 3200677404176 1 0
3.532574 -29.327513 -0.17168394 27 3200677406480 1 0
2.7043862 -15.874132 -1.7345438 3 3200677406480 1 0
1.1493441 -16.192686 -1.5153601 1 3200677408784 1 0
9.413783 -55.30535 1.3054343 21 3200677408784 1 0
5.350275 -75.533615 0.881556 24 3200677411088 1 0
4.2528176 -25.007008 -1.7737676 8 3200677411088 1 0
2.6326685 -21.937092 -1.8036877 21 3200677413392 1 0
11.965803 -54.22801 1.6161537 8 3200677413392 1 0
16.350506 -136.41066 2.3981004 29 3200677415696 1 0
5.8983293 -26.749218 -1.7555065 6 3200677415696 1 0
1.1740679 -16.678398 -0.9737123 1 3200677418000 1 1
9.072309 -75.87615 3.1132927 29 3200677420304 1 0
9.358255 -55.173153 3.259041 47 3200677418000 1 0
4.837524 -28.545609 -1.3486581 34 3200677420304 1 0
3.5055506 -29.354855 -1.5493536 13 3200677422608 1 0
0 0 0 1 3200677422608 1 0
0 0 0 8 3200677424912 1 0
2.097683 -30.04851 -1.0518708 25 3200677427216 1 0
6.343154 -28.846317 -1.2033073 41 3200677424912 1 0
0 0 0 9 3200677427216 1 0
0 0 0 29 3200677429520 1 0
9.378003 -55.534496 -1.3105522 11 3200677429520 1 0
0.4464605 -3.7948208 -1.7817585 0 3200677450256 1 0
5.9127674 -50.320354 -1.474541 33 3200677452560 1 0
11.963013 -54.821358 -0.97942907 10 3200677450256 1 0
1.0116537 -6.0443234 -1.7155776 6 3200677452560 1 0
1.0222251 -8.710535 -1.754073 4 3200677454864 1 0
14.130787 -84.50265 0 28 3200677454864 1 0
0 0 0 28 3200677457168 1 0
1.2709993 -10.857658 -1.3914758 11 3200677459472 1 0
11.907217 -54.718483 0.32546717 13 3200677459472 1 0
3.4394698 -29.419123 -0.17214888 15 3200677461776 1 0
1.7338201 -10.377589 -1.6368899 13 3200677457168 1 0
2.6483045 -15.879553 -1.7341154 3 3200677461776 1 0
1.0906692 -16.16481 -1.5123858 1 3200677464080 1 0
9.26734 -55.61794 1.3120412 10 3200677464080 1 0
5.0304275 -74.71778 0.871824 23 3200677466384 1 0
4.1694326 -25.045319 -1.7754418 8 3200677466384 1 0
2.5579226 -21.961988 -1.8049895 21 3200677468688 1 0
11.778135 -54.27726 1.6163864 8 3200677468688 1 0
9.824361 -84.457565 1.4841527 29 3200677470992 1 0
1.1033167 -16.49513 -0.9627822 1 3200677473296 1 1
5.8091507 -26.789148 -1.7567858 6 3200677470992 1 0
8.806014 -75.895454 3.1128044 29 3200677475600 1 0
4.7247744 -28.483484 -1.3449357 29 3200677475600 1 0
22.012112 -132.5814 7.8269076 28 3200677473296 1 0
3.4177759 -29.493887 -1.5560527 13 3200677477904 1 0
0 0 0 1 3200677477904 1 0
0 0 0 8 3200677480208 1 0
6.2474914 -28.891722 -1.2042842 41 3200677480208 1 0
1.9962195 -30.107502 -1.0536855 17 3200677482512 1 0
0 0 0 9 3200677482512 1 0
0 0 0 29 3200677484816 1 0
9.311905 -56.34019 -1.3287905 23 3200677484816 1 0
0.4295122 -3.7639394 -1.7665443 0 3200677505552 1 0
5.737986 -50.348633 -1.4747738 33 3200677507856 1 0
0.9911714 -6.051619 -1.7166559 6 3200677507856 1 0
11.771578 -54.862785 -0.97942907 10 3200677505552 1 0
0.99136996 -8.710153 -1.7532886 5 3200677510160 1 0
9.181619 -56.109737 0 11 3200677510160 1 0
4.8665314 -75.56232 -0.88150936 26 3200677512464 1 0
1.2335387 -10.865972 -1.3919809 11 3200677514768 1 0
1.6982226 -10.387479 -1.6375048 8 3200677512464 1 0
11.716142 -54.759712 0.32546717 13 3200677514768 1 0
3.3502753 -29.550184 -0.17284632 15 3200677517072 1 0
2.5954204 -15.904401 -1.735829 3 3200677517072 1 0
1.0337284 -16.16057 -1.5116423 1 3200677519376 1 0
13.634163 -83.6249 1.9715977 28 3200677519376 1 0
4.768564 -74.71892 0.87163776 47 3200677521680 1 0
2.4830348 -21.98663 -1.8062913 23 3200677523984 1 0
4.0980206 -25.158178 -1.7824174 5 3200677521680 1 0
11.589435 -54.321953 1.6165028 8 3200677523984 1 0
15.378067 -136.34662 2.3950286 29 3200677526288 1 0
5.7214303 -26.836592 -1.7585765 6 3200677526288 1 0
1.0444683 -16.478956 -0.96161944 1 3200677528592 1 1
21.549181 -132.65742 7.8269076 28 3200677528592 1 0
8.4927845 -75.49679 3.095219 29 3200677530896 1 0
4.611238 -28.413034 -1.3408408 29 3200677530896 1 0
3.326843 -29.612814 -1.561705 13 3200677533200 1 0
0 0 0 1 3200677533200 1 0
6.155744 -28.956356 -1.2060753 42 3200677535504 1 0
0 0 0 8 3200677535504 1 0
1.893618 -30.154184 -1.0550816 17 3200677537808 1 0
0 0 0 9 3200677537808 1 0
0 0 0 29 3200677540112 1 0
9.080076 -56.15523 -1.3236727 23 3200677540112 1 0
0.4155741 -3.7582092 -1.7631634 1 3200677561296 1 0
3.2800925 -29.702785 -0.8696906 14 3200677563600 1 0
11.575047 -54.880062 -0.97901016 10 3200677561296 1 0
0.96943194 -6.051239 -1.7155776 6 3200677563600 1 0
0.96052986 -8.7096615 -1.7525041 3 3200677565904 1 0
8.957255 -55.963707 0 11 3200677565904 1 0
4.531259 -74.4051 -0.8678195 38 3200677568208 1 0
1.660081 -10.381635 -1.63566 10 3200677568208 1 0
1.1964695 -10.8781 -1.3929911 10 3200677570512 1 0
11.522453 -54.788532 0.32539743 26 3200677570512 1 0
3.2606442 -29.684956 -0.173567 31 3200677572816 1 0
2.5417683 -15.925145 -1.7371141 2 3200677572816 1 0
0.9720232 -16.076622 -1.5034633 2 3200677575120 1 1
13.427184 -84.2051 1.9841597 28 3200677575120 1 0
4.8761563 -80.84359 0.94288117 28 3200677577424 1 0
4.0139437 -25.195972 -1.7840916 5 3200677577424 1 0
2.4075727 -22.007051 -1.8072677 23 3200677579728 1 0
11.401386 -54.369904 1.6167356 8 3200677579728 1 0
8.741502 -80.01164 1.4049187 29 3200677582032 1 0
5.6367235 -26.899376 -1.7613907 6 3200677582032 1 0
0.98717827 -16.486486 -0.96185195 1 3200677584336 1 1
21.085989 -132.73184 7.8269076 28 3200677584336 1 0
8.396303 -77.05962 3.1580708 29 3200677586640 1 0
4.4982505 -28.342138 -1.3367461 34 3200677586640 1 0
3.2359855 -29.739408 -1.567776 46 3200677588944 1 0
0 0 0 1 3200677588944 1 0
0 0 0 8 3200677591248 1 0
6.0595345 -29.00114 -1.2070522 42 3200677591248 1 0
1.7904782 -30.196526 -1.056338 21 3200677593552 1 0
0 0 0 9 3200677593552 1 0
0 0 0 29 3200677595856 1 0
8.845906 -55.945644 -1.3179965 22 3200677595856 1 0
0.4039964 -3.7740555 -1.7699252 1 3200677616592 1 0
11.387467 -54.939713 -0.97935927 10 3200677616592 1 0
5.391024 -50.4312 -1.4760537 34 3200677618896 1 0
0.9494954 -6.0621967 -1.7177342 5 3200677618896 1 0
0.9313707 -8.724662 -1.7548575 5 3200677621200 1 0
13.08372 -83.61454 0 28 3200677621200 1 0
4.2465267 -73.98521 -0.862744 12 3200677623504 1 0
1.6256636 -10.399081 -1.6375048 8 3200677623504 1 0
1.1597508 -10.894048 -1.3945062 8 3200677625808 1 0
11.330326 -54.8245 0.3253742 39 3200677625808 1 0
3.1620786 -29.743887 -0.17384596 23 3200677628112 1 0
2.48739 -15.941779 -1.737971 2 3200677628112 1 0
0.91771126 -16.111727 -1.5064374 6 3200677630416 1 1
13.015532 -83.49678 1.9663867 28 3200677630416 1 0
4.20371 -73.99166 0.8627905 23 3200677632720 1 0
3.9278111 -25.221659 -1.7849287 8 3200677632720 1 0
2.3315787 -22.02325 -1.8079185 21 3200677635024 1 0
11.211531 -54.40937 1.6167356 8 3200677635024 1 0
8.191367 -77.48033 1.3599613 27 3200677637328 1 0
5.5484285 -26.946257 -1.7631814 6 3200677637328 1 0
0.92153215 -16.346304 -0.95347995 1 3200677639632 1 1
13.552077 -87.27241 5.143443 28 3200677639632 1 0
8.009094 -75.967606 3.112153 29 3200677641936 1 0
4.3888774 -28.290545 -1.333582 38 3200677641936 1 0
3.134247 -29.770386 -1.5688226 37 3200677644240 1 0
0 0 0 8 3200677646544 1 0
0 0 0 1 3200677644240 1 0
5.9654984 -29.057352 -1.2085178 42 3200677646544 1 0
1.687066 -30.238514 -1.0575943 29 3200677648848 1 0
0 0 0 9 3200677648848 1 0
0 0 0 29 3200677651152 1 0
8.569947 -55.454517 -1.3057135 22 3200677651152 1 0
0.39119333 -3.7790487 -1.7716157 1 3200677671888 1 0
0 0 0 43 3200677671888 1 0
5.217009 -50.469593 -1.4766355 34 3200677674192 1 0
0.9289113 -6.069282 -1.7188125 6 3200677674192 1 0
0.9009102 -8.72786 -1.7548575 4 3200677676496 1 0
4.3318386 -28.330738 0 3 3200677676496 1 0
3.9860919 -73.95964 -0.86227834 25 3200677678800 1 0
1.5875636 -10.392972 -1.63566 8 3200677678800 1 0
1.1217164 -10.898029 -1.3945062 4 3200677681104 1 0
11.154801 -54.94212 0.32583913 39 3200677681104 1 0
3.0590518 -29.762701 -0.17389245 19 3200677683408 1 0
2.435324 -15.973954 -1.7405412 2 3200677683408 1 0
12.991938 -85.300934 2.007795 28 3200677685712 1 0
0.8604022 -16.094946 -1.5045786 5 3200677685712 1 1
4.2990847 -80.640015 0.94013387 28 3200677688016 1 0
3.8433485 -25.258884 -1.7866029 8 3200677688016 1 0
2.2555008 -22.039186 -1.8085696 23 3200677690320 1 0
11.025504 -54.46777 1.6173173 8 3200677690320 1 0
7.892805 -77.233925 1.3551445 27 3200677692624 1 0
5.4606657 -26.996761 -1.765228 6 3200677692624 1 0
0.862148 -16.305557 -0.95092183 1 3200677694928 1 1
20.077381 -132.33888 7.79528 28 3200677694928 1 0
7.70781 -75.64123 3.0976613 29 3200677697232 1 0
4.283512 -28.262236 -1.3315346 38 3200677697232 1 0
3.0335448 -29.812937 -1.5704974 42 3200677699536 1 0
0 0 0 1 3200677699536 1 0
0 0 0 8 3200677701840 1 0
1.5835911 -30.28414 -1.0589904 29 3200677704144 1 0
5.854552 -29.030983 -1.2065638 34 3200677701840 1 0
0 0 0 9 3200677704144 1 0
0 0 0 29 3200677706448 1 0
0 0 0 22 3200677706448 1 0
0.37583548 -3.7587478 -1.761473 1 3200677727184 1 0
5.041997 -50.49943 -1.4769846 34 3200677729488 1 0
0 0 0 7 3200677727184 1 0
0.906581 -6.0648685 -1.7166559 6 3200677729488 1 0
0.8704388 -8.730951 -1.7548575 4 3200677731792 1 0
4.2329197 -28.345688 0 11 3200677731792 1 0
2.4360795 -48.339375 -0.563475 6 3200677734096 1 0
1.5571076 -10.437542 -1.6418092 17 3200677734096 1 0
1.0844533 -10.909776 -1.3955164 3 3200677736400 1 0
10.956692 -54.94934 0.32565314 26 3200677736400 1 0
2.9571173 -29.7931 -0.1740087 11 3200677738704 1 0
2.3801353 -15.986292 -1.7409697 2 3200677738704 1 0
0.8038177 -16.089895 -1.5038351 6 3200677741008 1 1
12.557613 -84.42811 1.9862069 28 3200677741008 1 0
4.034685 -80.99808 0.9441384 57 3200677743312 1 0
3.7575011 -25.287935 -1.7877189 8 3200677743312 1 0
2.180124 -22.062796 -1.8098713 23 3200677745616 1 0
10.83453 -54.502003 1.617201 8 3200677745616 1 0
7.5261626 -76.27793 1.3379015 52 3200677747920 1 0
5.37884 -27.078302 -1.7693213 9 3200677747920 1 0
0.7991211 -16.184828 -0.9437126 1 3200677750224 1 1
19.63111 -132.51482 7.801559 28 3200677750224 1 0
7.5008526 -76.24838 3.1214342 29 3200677752528 1 0
4.199456 -28.375832 -1.3361877 17 3200677752528 1 0
2.9302406 -29.831295 -1.570916 42 3200677754832 1 0
0 0 0 1 3200677754832 1 0
0 0 0 8 3200677757136 1 0
5.7329926 -28.949308 -1.2023302 33 3200677757136 1 0
1.4796234 -30.325418 -1.0602467 30 3200677759440 1 0
0 0 0 9 3200677759440 1 0
0 0 0 29 3200677761744 1 0
0 0 0 3 3200677761744 1 0
0.36619365 -3.7961216 -1.7783777 1 3200677782480 1 0
5.7305946 -29.182123 -0.51910436 28 3200677782480 1 0
0.88707364 -6.0794306 -1.7198908 7 3200677784784 1 0
0.8395813 -8.730033 -1.754073 3 3200677787088 1 0
4.8687572 -50.548565 -1.4779155 34 3200677784784 1 0
7.94249 -54.488174 0 10 3200677787088 1 0
1.4269875 -30.428493 -0.35463396 3 3200677789392 1 0
1.5218034 -10.450736 -1.643039 56 3200677789392 1 0
1.0478793 -10.929294 -1.3975368 3 3200677791696 1 0
10.769427 -55.010803 0.32579264 26 3200677791696 1 0
2.855008 -29.823149 -0.17412494 11 3200677794000 1 0
2.3248901 -15.998438 -1.741398 2 3200677794000 1 0
0.7474637 -16.088625 -1.5034633 2 3200677796304 1 1
19.253416 -132.62549 3.1184704 28 3200677796304 1 0
3.723243 -80.39237 0.93692094 28 3200677798608 1 0
3.6714976 -25.316692 -1.788835 8 3200677798608 1 0
2.1042318 -22.082178 -1.8108478 26 3200677800912 1 0
10.64728 -54.555187 1.6176664 8 3200677800912 1 0
7.315921 -76.89298 1.3482333 53 3200677803216 1 0
5.291927 -27.136093 -1.7718797 6 3200677803216 1 0
0.7418886 -16.171562 -0.94278234 1 3200677805520 1 1
19.170712 -132.59834 7.8024893 28 3200677805520 1 0
7.2818246 -76.771454 3.141788 29 3200677807824 1 0
4.116373 -28.501047 -1.3413992 12 3200677807824 1 0
2.8260922 -29.841341 -1.570916 42 3200677810128 1 0
0 0 0 1 3200677810128 1 0
0 0 0 8 3200677812432 1 0
5.618177 -28.898527 -1.1993994 33 3200677812432 1 0
1.3753868 -30.366339 -1.061503 26 3200677814736 1 0
0 0 0 9 3200677814736 1 0
0 0 0 29 3200677817040 1 0
0.35059202 -3.772109 -1.7665443 1 3200677837776 1 0
7.8458695 -54.547714 -1.2823573 22 3200677817040 1 0
5.6233964 -29.17446 -0.5186157 8 3200677837776 1 0
4.6941276 -50.58516 -1.4784973 34 3200677840080 1 0
0.8653042 -6.0786767 -1.7188125 5 3200677840080 1 0
0.8105501 -8.748532 -1.757211 2 3200677842384 1 0
11.936967 -83.94351 0 28 3200677842384 1 0
1.3211105 -30.441282 -0.3547271 3 3200677844688 1 0
1.4797554 -10.416853 -1.6368899 47 3200677844688 1 0
1.0100875 -10.936836 -1.3980417 3 3200677846992 1 0
10.563752 -54.977356 0.3253742 26 3200677846992 1 0
2.75199 -29.844883 -0.17419468 7 3200677849296 1 0
2.2707055 -16.018269 -1.7426832 2 3200677849296 1 0
0.7044621 -16.39752 -1.5320901 3 3200677851600 1 0
11.841738 -83.62285 1.96527 28 3200677851600 1 0
3.4439673 -80.43685 0.93729347 28 3200677853904 1 0
3.6004293 -25.451832 -1.7974849 8 3200677853904 1 0
1.5473138 -16.860825 -1.3822197 2 3200677856208 1 1
10.457534 -54.595947 1.6177828 8 3200677856208 1 0
5.200924 -27.174004 -1.7731588 6 3200677858512 1 0
0.6852657 -16.170063 -0.9425498 1 3200677860816 1 1
18.71053 -132.68422 7.803652 28 3200677860816 1 0
6.9574547 -76.17949 3.1165495 29 3200677863120 1 0
7.014628 -76.55961 1.3419504 53 3200677858512 1 0
4.030237 -28.6102 -1.3458662 12 3200677863120 1 0
2.7226348 -29.85898 -1.5713347 42 3200677865424 1 0
0 0 0 1 3200677865424 1 0
0 0 0 8 3200677867728 1 0
5.5037856 -28.847296 -1.1964684 33 3200677867728 1 0
1.2712165 -30.41489 -1.0630387 26 3200677870032 1 0
0 0 0 9 3200677870032 1 0
0 0 0 29 3200677872336 1 0
7.6109743 -54.257957 -1.2749132 21 3200677872336 1 0
0.33839142 -3.7841423 -1.7716157 1 3200677893072 1 0
4.5182347 -50.6092 -1.4787301 34 3200677895376 1 0
0.8461985 -6.0969214 -1.7231257 5 3200677895376 1 0
0.7796589 -8.747401 -1.7564265 3 3200677897680 1 0
11.609818 -83.73902 0 28 3200677897680 1 0
10.418728 -55.086857 -0.9785913 10 3200677893072 1 0
1.9088559 -47.838688 -0.5573751 18 3200677899984 1 0
1.443927 -10.42587 -1.6375048 46 3200677899984 1 0
0.972958 -10.952152 -1.399557 3 3200677902288 1 0
10.374004 -55.025684 0.32544392 26 3200677902288 1 0
2.215322 -16.030037 -1.7431116 2 3200677904592 1 0
2.6502688 -29.882196 -0.17435741 8 3200677904592 1 0
0.63952416 -16.20488 -1.513873 3 3200677906896 1 1
11.79695 -85.45421 2.00733 28 3200677906896 1 0
3.1469834 -80.03673 0.9324973 28 3200677909200 1 0
1.4744303 -16.707272 -1.3692013 2 3200677911504 1 1
3.512654 -25.47215 -1.7980429 8 3200677909200 1 0
10.267633 -54.636047 1.6178992 17 3200677911504 1 0
6.7427793 -76.53184 1.3410429 53 3200677913808 1 0
5.1104574 -27.215532 -1.7746938 9 3200677913808 1 0
0.6288175 -16.172358 -0.9425498 1 3200677916112 1 1
18.215178 -132.51532 7.7899313 28 3200677916112 1 0
6.671569 -75.97637 3.107268 29 3200677918416 1 0
3.9466507 -28.742851 -1.35145 12 3200677918416 1 0
2.620135 -29.888199 -1.5723815 42 3200677920720 1 0
0 0 0 1 3200677920720 1 0
0 0 0 8 3200677923024 1 0
5.3890853 -28.79169 -1.1933746 33 3200677923024 1 0
0 0 0 9 3200677925328 1 0
0 0 0 29 3200677927632 1 0
1.1665709 -30.45909 -1.0644346 21 3200677925328 1 0
7.389573 -54.050434 -1.269423 21 3200677927632 1 0
0.32269797 -3.756405 -1.7580919 1 3200677948368 1 0
0 0 0 55 3200677948368 1 0
4.341548 -50.624664 -1.4787301 23 3200677950672 1 0
0.82336247 -6.0883865 -1.7198908 6 3200677950672 1 0
0.74912 -8.75007 -1.7564265 3 3200677952976 1 0
11.487192 -85.03562 0 28 3200677952976 1 0
1.7415651 -47.837067 -0.5572819 6 3200677955280 1 0
1.4069966 -10.426929 -1.6368899 54 3200677955280 1 0
0.9357339 -10.967343 -1.4010723 10 3200677957584 1 0
10.181138 -55.05763 0.32542068 26 3200677957584 1 0
4.301288 -50.500298 -0.29457104 9 3200677959888 1 0
2.1604145 -16.045555 -1.7439684 2 3200677959888 1 0
0.5806641 -16.143332 -1.5079246 7 3200677962192 1 1
11.318955 -84.159256 1.9759711 28 3200677962192 1 0
2.8680134 -80.05922 0.93263704 28 3200677964496 1 0
3.4253123 -25.496122 -1.79888 5 3200677964496 1 0
1.3992717 -16.51369 -1.3529284 1 3200677966800 1 1
10.071782 -54.64403 1.6170846 17 3200677966800 1 0
5.017596 -27.244982 -1.7754613 9 3200677969104 1 0
0.5722204 -16.170464 -0.94231725 1 3200677971408 1 1
6.442557 -76.16436 1.3342016 52 3200677969104 1 0
17.726002 -132.38019 7.778303 28 3200677971408 1 0
6.3505936 -75.3381 3.0802386 29 3200677973712 1 0
3.8600683 -28.859423 -1.3562891 13 3200677973712 1 0
2.5171297 -29.913084 -1.5732188 38 3200677976016 1 0
0 0 0 1 3200677976016 1 0
0 0 0 8 3200677978320 1 0
5.2733974 -28.727776 -1.1899552 28 3200677978320 1 0
1.0616322 -30.502926 -1.0658306 13 3200677980624 1 0
0 0 0 9 3200677980624 1 0
0 0 0 29 3200677982928 1 0
7.1676025 -53.82617 -1.2635608 21 3200677982928 1 0
0.31107208 -3.7755735 -1.7665443 1 3200678003664 1 0
9.86712 -54.241436 -0.9623257 59 3200678003664 1 0
4.117615 -50.06569 -1.4619739 10 3200678005968 1 0
0.802105 -6.0912232 -1.7198908 6 3200678005968 1 0
0.71921384 -8.760449 -1.7579954 3 3200678008272 1 0
0 0 0 23 3200678008272 1 0
1.009368 -30.669315 -0.35724157 3 3200678010576 1 0
1.3726507 -10.447453 -1.6393496 50 3200678010576 1 0
0.8964745 -10.958678 -1.399557 13 3200678012880 1 0
0 0 0 7 3200678012880 1 0
4.0842896 -50.01667 -0.29166508 9 3200678015184 1 0
2.1069765 -16.072716 -1.7461103 2 3200678015184 1 0
0 0 0 92 3200678017488 1 0
17.3458 -132.46901 3.108793 28 3200678017488 1 0
2.4268587 -75.06769 0.87438506 24 3200678019792 1 0
3.3393984 -25.531662 -1.8005542 8 3200678019792 1 0
1.3341967 -16.427082 -1.3454429 1 3200678022096 1 1
9.956345 -55.09592 1.629419 27 3200678022096 1 0
6.19249 -76.381714 1.3376223 52 3200678024400 1 0
4.9260087 -27.281973 -1.7767404 9 3200678024400 1 0
0.51577145 -16.172361 -0.94231725 1 3200678026704 1 1
17.26277 -132.43335 7.777838 28 3200678026704 1 0
6.154833 -76.1924 3.1142697 29 3200678029008 1 0
3.770656 -28.95989 -1.360384 17 3200678029008 1 0
2.4143033 -29.941597 -1.5742656 38 3200678031312 1 0
0 0 0 8 3200678033616 1 0
0 0 0 1 3200678031312 1 0
5.1589293 -28.66734 -1.1866987 33 3200678033616 1 0
0.956902 -30.562386 -1.067785 17 3200678035920 1 0
0 0 0 9 3200678035920 1 0
0 0 0 29 3200678038224 1 0
0 0 0 19 3200678038224 1 0
9.829364 -55.126003 -0.9774046 30 3200678058960 1 0
0.2976059 -3.7730224 -1.7648538 1 3200678058960 1 0
3.908622 -49.645287 -1.4492904 10 3200678061264 1 0
0.7818169 -6.1016273 -1.7220474 8 3200678061264 1 0
0.6886298 -8.762907 -1.7579954 3 3200678063568 1 0
0 0 0 7 3200678063568 1 0
0.90207076 -30.664656 -0.35714844 3 3200678065872 1 0
1.3356727 -10.448259 -1.6387346 38 3200678065872 1 0
0.8588355 -10.969652 -1.4005672 14 3200678068176 1 0
9.793019 -55.107674 0.32530442 39 3200678068176 1 0
6.078599 -77.78554 -0.45346874 26 3200678070480 1 0
2.0508595 -16.079971 -1.7461103 2 3200678070480 1 0
0.46794912 -16.146992 -1.5079246 106 3200678072784 1 1
16.883293 -132.52875 3.108793 28 3200678072784 1 0
2.1583529 -74.851814 0.8717774 47 3200678075088 1 0
3.2527742 -25.562954 -1.8019493 8 3200678075088 1 0
1.2635661 -16.260723 -1.3314482 1 3200678077392 1 1
9.759083 -55.10278 1.6286044 54 3200678077392 1 0
5.915934 -76.27527 1.3353883 52 3200678079696 1 0
4.833529 -27.314724 -1.7777637 9 3200678079696 1 0
0.45920286 -16.170073 -0.94208467 1 3200678082000 1 1
16.800385 -132.4928 7.777838 28 3200678082000 1 0
5.8903737 -76.233345 3.115084 29 3200678084304 1 0
3.6815937 -29.06801 -1.3648509 13 3200678084304 1 0
2.3110015 -29.965773 -1.5751029 38 3200678086608 1 0
0 0 0 1 3200678086608 1 0
0 0 0 8 3200678088912 1 0
5.04703 -28.618261 -1.1839305 32 3200678088912 1 0
0.8511028 -30.597507 -1.0689018 13 3200678091216 1 0
0 0 0 9 3200678091216 1 0
0 0 0 29 3200678093520 1 0
6.7246323 -53.34325 -1.2510917 21 3200678093520 1 0
0.28443378 -3.774038 -1.7648538 1 3200678114256 1 0
9.6313715 -55.12846 -0.9768461 20 3200678114256 1 0
3.7140105 -49.37555 -1.4410287 21 3200678116560 1 0
0.7605135 -6.1043196 -1.7220474 6 3200678116560 1 0
0.65774375 -8.761346 -1.757211 2 3200678118864 1 0
6.6065016 -53.090527 0 10 3200678118864 1 0
0.794922 -30.66362 -0.35710186 3 3200678121168 1 0
1.299681 -10.45678 -1.6393496 15 3200678121168 1 0
0.82142675 -10.984454 -1.4020823 10 3200678123472 1 0
9.60197 -55.149403 0.32535094 26 3200678123472 1 0
5.7876887 -77.547005 -0.45195764 26 3200678125776 1 0
1.9961855 -16.098873 -1.7473954 2 3200678125776 1 0
0.41168422 -16.15251 -1.5082964 36 3200678128080 1 1
16.396002 -132.38844 3.1041403 28 3200678128080 1 0
3.1791985 -25.700876 -1.810878 9 3200678130384 1 0
1.8276485 -72.11996 0.8398809 21 3200678130384 1 0
1.1988332 -16.157688 -1.3226609 1 3200678132688 1 1
9.561211 -55.104992 1.6276735 45 3200678132688 1 0
5.661757 -76.458984 1.3382505 52 3200678134992 1 0
4.7476993 -27.386494 -1.7813454 9 3200678134992 1 0
0.4032531 -16.191536 -0.9432475 1 3200678137296 1 1
16.313372 -132.35246 7.7662106 28 3200678137296 1 0
5.701846 -77.3057 3.1580708 29 3200678139600 1 0
3.5952396 -29.203623 -1.3706207 13 3200678139600 1 0
2.2078538 -29.993576 -1.5761497 38 3200678141904 1 0
0 0 0 1 3200678141904 1 0
0 0 0 8 3200678144208 1 0
4.933495 -28.556936 -1.180674 32 3200678144208 1 0
0.7452645 -30.640255 -1.0702977 13 3200678146512 1 0
0 0 0 9 3200678146512 1 0
6.5223403 -53.235416 -1.2480209 21 3200678148816 1 0
0 0 0 29 3200678148816 1 0
0.27073854 -3.7677763 -1.761473 1 3200678169552 1 0
9.511729 -55.58749 -0.98438555 10 3200678169552 1 0
2.1546092 -30.046091 -0.8766723 15 3200678171856 1 0
0.73966366 -6.110761 -1.7231257 6 3200678171856 1 0
0.6271569 -8.763589 -1.757211 3 3200678174160 1 0
6.0980434 -50.440723 0 9 3200678174160 1 0
1.5625997 -69.66176 -0.8111972 11 3200678176464 1 0
1.263172 -10.461253 -1.6393496 6 3200678176464 1 0
0.7822326 -10.975381 -1.4005672 8 3200678178768 1 0
9.46588 -55.513798 0.32730374 26 3200678178768 1 0
0 0 0 66 3200678181072 1 0
0.35573682 -16.173756 -1.5101552 43 3200678183376 1 1
1.9418802 -16.121536 -1.749109 2 3200678181072 1 0
10.256485 -85.25402 1.9981177 28 3200678183376 1 0
1.5744938 -72.06192 0.8391358 42 3200678185680 1 0
3.0899425 -25.715778 -1.8111571 6 3200678185680 1 0
1.1379274 -16.098146 -1.3174535 1 3200678187984 1 1
9.379517 -55.2011 1.6295353 9 3200678187984 1 0
5.3861065 -76.35461 1.3360864 26 3200678190288 1 0
4.654746 -27.418642 -1.7823687 9 3200678190288 1 0
0.34895426 -16.296646 -0.9492939 1 3200678192592 1 1
15.856498 -132.45222 7.7687683 28 3200678192592 1 0
5.387433 -76.69122 3.132181 29 3200678194896 1 0
2.1087298 -30.080795 -1.5803366 42 3200678197200 1 0
3.507035 -29.331049 -1.3760184 13 3200678194896 1 0
0 0 0 1 3200678197200 1 0
0 0 0 8 3200678199504 1 0
4.8211164 -28.499111 -1.1775802 32 3200678199504 1 0
0.639138 -30.682638 -1.0716938 13 3200678201808 1 0
0 0 0 9 3200678201808 1 0
0 0 0 29 3200678204112 1 0
5.9906425 -50.35115 -1.1799065 29 3200678204112 1 0
0.25972965 -3.7903538 -1.7716157 1 3200678224296 1 0
9.445745 -56.32476 -0.9968815 20 3200678224296 1 0
3.3393795 -48.83724 -1.4246216 20 3200678226600 1 0
0.7198458 -6.117006 -1.7242041 6 3200678226600 1 0
0.5986264 -8.773446 -1.7587799 2 3200678228904 1 0
6.1954827 -52.713165 0 10 3200678228904 1 0
0.85898316 -44.940746 -0.52329 10 3200678231208 1 0
1.2298567 -10.477161 -1.6411942 7 3200678231208 1 0
0.7461016 -10.9818735 -1.4010723 7 3200678233512 1 0
14.199827 -84.976295 0.5007312 39 3200678233512 1 0
0 0 0 9 3200678235816 1 0
1.8893336 -16.135788 -1.7499658 2 3200678235816 1 0
0.3022495 -16.182812 -1.5108988 93 3200678238120 1 1
15.492632 -132.4811 3.103768 28 3200678238120 1 0
3.0055747 -25.73381 -1.8117151 9 3200678240424 1 0
1.0853415 -16.113764 -1.31843 1 3200678242728 1 1
14.406004 -86.51972 2.5526361 38 3200678242728 1 0
5.408843 -80.47816 1.4079205 29 3200678245032 1 0
1.333296 -71.94677 0.83773893 42 3200678240424 1 0
4.566417 -27.449678 -1.7833921 9 3200678245032 1 0
0.2928878 -16.18592 -0.94278234 1 3200678247336 1 1
15.394107 -132.30576 7.7571406 28 3200678247336 1 0
5.2328873 -78.200096 3.193079 29 3200678249640 1 0
3.4235868 -29.461586 -1.3816022 13 3200678249640 1 0
0 0 0 1 3200678251944 1 0
2.0124264 -30.139435 -1.583058 33 3200678251944 1 0
0 0 0 8 3200678254248 1 0
4.71678 -28.4558 -1.1751378 32 3200678254248 1 0
0.5378772 -30.712566 -1.0726709 13 3200678256552 1 0
0 0 0 9 3200678256552 1 0
0 0 0 29 3200678258856 1 0
5.8208833 -50.346905 -1.1793481 29 3200678258856 1 0
0.24508603 -3.7695317 -1.761473 1 3200678279592 1 0
9.213454 -56.140324 -0.99304193 30 3200678279592 1 0
3.1583686 -48.680996 -1.4197345 20 3200678281896 1 0
0.6980967 -6.115649 -1.7231257 7 3200678281896 1 0
0.5681253 -8.775475 -1.7587799 2 3200678284200 1 0
5.9877415 -52.51977 0 20 3200678284200 1 0
0 0 0 32 3200678286504 1 0
1.1939529 -10.4852915 -1.6418092 6 3200678286504 1 0
0.7080827 -10.98439 -1.4010723 3 3200678288808 1 0
4.9321136 -76.67624 -0.4465642 25 3200678291112 1 0
13.702872 -83.78543 0.49343148 39 3200678288808 1 0
1.8349313 -16.154072 -1.751251 2 3200678291112 1 0
0.24725366 -16.235525 -1.5157318 18 3200678293416 1 1
15.016492 -132.36285 3.099767 28 3200678293416 1 0
1.0843006 -71.85095 0.8365748 42 3200678295720 1 0
2.9197347 -25.767786 -1.8133893 9 3200678295720 1 0
1.0292622 -16.10546 -1.3174535 2 3200678298024 1 1
13.530101 -83.017044 2.4479103 40 3200678298024 1 0
5.128576 -80.42437 1.406664 29 3200678300328 1 0
4.473653 -27.473038 -1.7839037 9 3200678300328 1 0
