# .PCD v.7 - Point Cloud Data file format
VERSION .7
FIELDS x y z rgb timestamp_ns device_id active
SIZE 4 4 4 4 8 1 1
TYPE F F F F F U U
COUNT 1 1 1 1 1 1 1
WIDTH 997
HEIGHT 1
VIEWPOINT 0 0 0 1 0 0 0
POINTS 997               
DATA ascii
12.43829 -41.495155 -0.2517721 89 3198474745704 1 0
5.2004614 -14.696857 -1.6792817 3 3198474745704 1 0
4.5698414 -18.497019 -1.7785777 2 3198474748008 1 0
16.921997 -47.84595 1.18093 43 3198474748008 1 0
13.447137 -54.46473 0.65311134 19 3198474750312 1 0
7.5153956 -21.259666 -1.5767753 2 3198474750312 1 0
6.103432 -20.395521 -1.7379452 4 3198474752616 1 0
16.519735 -40.35951 1.2691618 67 3198474752616 1 0
12.408966 -41.489464 0.75589865 16 3198474754920 1 0
9.678609 -23.656199 -1.6380805 36 3198474754920 1 0
6.98108 -28.331131 -1.6992873 12 3198474757224 1 0
18.337513 -51.949165 3.2083437 68 3198474757224 1 0
12.39477 -41.48815 1.7640907 64 3198474759528 1 0
7.5205584 -21.315699 -1.0529063 5 3198474759528 1 1
8.235432 -27.581244 -1.5085316 40 3198474761832 1 0
13.071711 -37.067505 4.826026 7 3198474761832 1 0
12.372942 -41.461254 3.5321946 36 3198474764136 1 0
11.028444 -27.002483 -1.188327 82 3198474764136 1 0
7.005668 -28.505863 -1.025068 41 3198474766440 1 0
0 0 0 9 3198474766440 1 0
8.753662 -29.365915 5.5869813 35 3198474768744 1 0
9.697207 -27.538631 -0.6793767 38 3198474768744 1 0
0 0 0 4 3198474789480 1 0
0 0 0 29 3198474789480 1 0
8.182937 -27.60449 -0.83792377 41 3198474791784 1 0
2.010142 -5.73632 -1.7015597 5 3198474791784 1 0
2.444595 -8.251052 -1.7211254 4 3198474794088 1 0
9.753117 -27.845335 0 4 3198474794088 1 0
13.288539 -54.53246 -0.65343726 16 3198474796392 1 0
3.513186 -10.034892 -1.6541073 37 3198474796392 1 0
3.0460548 -10.292103 -1.3662221 9 3198474798696 1 0
16.390692 -40.39237 0.25335294 7 3198474798696 1 0
12.28536 -41.53235 -0.2517256 89 3198474801000 1 0
5.1523466 -14.730648 -1.6809952 3 3198474801000 1 0
4.505647 -18.525057 -1.779693 2 3198474803304 1 0
16.771046 -47.971096 1.1825119 8 3198474803304 1 0
13.250198 -54.512974 0.65311134 19 3198474805608 1 0
7.435876 -21.279156 -1.5762173 4 3198474805608 1 0
6.0286965 -20.41358 -1.7376196 4 3198474807912 1 0
16.354534 -40.37066 1.267649 55 3198474807912 1 0
12.256139 -41.522354 0.7556892 16 3198474810216 1 0
9.609871 -23.731586 -1.6408947 26 3198474810216 1 0
6.886788 -28.387072 -1.7011478 12 3198474812520 1 0
18.142876 -51.99209 3.2069483 68 3198474812520 1 0
12.240295 -41.513153 1.7632766 83 3198474814824 1 0
7.43093 -21.304796 -1.0510451 8 3198474814824 1 1
8.135567 -27.6067 -1.5083222 43 3198474817128 1 0
12.932468 -37.09529 4.823589 7 3198474817128 1 0
12.22144 -41.4937 3.531218 36 3198474819432 1 0
10.913982 -26.997227 -1.186373 66 3198474819432 1 0
6.9087477 -28.550074 -1.025766 41 3198474821736 1 0
0 0 0 9 3198474821736 1 0
8.645846 -29.385532 5.584829 35 3198474824040 1 0
11.5240555 -33.101883 -0.8156057 87 3198474824040 1 0
0 0 0 4 3198474844776 1 0
0 0 0 14 3198474844776 1 0
8.111235 -27.717308 -0.8404837 41 3198474847080 1 0
1.9901063 -5.743302 -1.7015597 6 3198474847080 1 0
2.417981 -8.267064 -1.7226943 4 3198474849384 1 0
18.413681 -53.165535 0 11 3198474849384 1 0
13.093437 -54.559067 -0.65320444 16 3198474851688 1 0
3.4742575 -10.035889 -1.6522627 36 3198474851688 1 0
3.0089972 -10.298864 -1.365717 8 3198474853992 1 0
22.574682 -56.19407 0.35196948 15 3198474853992 1 0
12.135825 -41.55962 -0.2516326 89 3198474856296 1 0
5.099596 -14.744785 -1.6805669 3 3198474856296 1 0
4.4400277 -18.536798 -1.7793212 2 3198474858600 1 0
18.35295 -53.09004 1.3071094 32 3198474858600 1 0
13.059832 -54.558895 0.65311134 19 3198474860904 1 0
0 0 0 7 3198474860904 1 0
5.958519 -20.438326 -1.7379452 4 3198474863208 1 0
16.201609 -40.39781 1.2667183 55 3198474863208 1 0
12.108886 -41.557205 0.75554955 16 3198474865512 1 0
9.544798 -23.809448 -1.6439646 15 3198474865512 1 0
6.7941523 -28.438126 -1.7027756 12 3198474867816 1 0
17.952162 -52.028675 3.2053206 45 3198474867816 1 0
12.09308 -41.54795 1.7629509 74 3198474870120 1 0
7.3604255 -21.341936 -1.0516034 11 3198474870120 1 1
8.03692 -27.62726 -1.5079036 43 3198474872424 1 0
12.800315 -37.1327 4.8226137 7 3198474872424 1 0
12.072074 -41.520794 3.5299163 36 3198474874728 1 0
10.807798 -27.005474 -1.1850704 64 3198474874728 1 0
6.814607 -28.597347 -1.0266036 41 3198474877032 1 0
0 0 0 9 3198474877032 1 0
8.543219 -29.415533 5.584829 35 3198474879336 1 0
11.405835 -33.134342 -0.8154196 87 3198474879336 1 0
0 0 0 4 3198474900072 1 0
13.065959 -32.799973 -0.61627936 16 3198474900072 1 0
8.051049 -27.872213 -0.84432364 38 3198474902376 1 0
1.9700464 -5.7502136 -1.7015597 6 3198474902376 1 0
2.3912845 -8.28299 -1.7242632 5 3198474904680 1 0
9.555892 -27.905178 0 4 3198474904680 1 0
12.904751 -54.612225 -0.6532976 16 3198474906984 1 0
3.4379244 -10.044216 -1.6516477 36 3198474906984 1 0
2.9741287 -10.313118 -1.3662221 4 3198474909288 1 0
0 0 0 26 3198474909288 1 0
11.991789 -41.60557 -0.25165588 61 3198474911592 1 0
5.053243 -14.777548 -1.6822804 3 3198474911592 1 0
4.38078 -18.575443 -1.781552 2 3198474913896 1 0
18.14941 -53.100803 1.3058066 32 3198474913896 1 0
0 0 0 3 3198474916200 1 0
12.869307 -54.60415 0.65311134 19 3198474916200 1 0
5.890447 -20.470495 -1.7389215 4 3198474918504 1 0
16.051643 -40.431824 1.26602 61 3198474918504 1 0
11.967067 -41.610752 0.755759 72 3198474920808 1 0
9.471936 -23.868593 -1.6457554 7 3198474920808 1 0
6.702158 -28.492765 -1.7046361 12 3198474923112 1 0
17.760124 -52.06079 3.20346 45 3198474923112 1 0
11.946873 -41.58607 1.762788 74 3198474925416 1 0
7.274277 -21.333464 -1.0499283 8 3198474925416 1 1
7.9426384 -27.662825 -1.5083222 30 3198474927720 1 0
12.665497 -37.162125 4.820664 7 3198474927720 1 0
11.925966 -41.558846 3.5295908 36 3198474930024 1 0
10.709049 -27.031889 -1.1845819 68 3198474930024 1 0
6.720221 -28.644312 -1.0274411 41 3198474932328 1 0
0 0 0 9 3198474932328 1 0
8.43615 -29.430044 5.581959 34 3198474934632 1 0
11.284952 -33.158813 -0.8150474 65 3198474934632 1 0
0 0 0 4 3198474955368 1 0
0 0 0 112 3198474955368 1 0
7.941651 -27.857851 -0.8430437 32 3198474957672 1 0
1.9511981 -5.7607036 -1.702638 5 3198474957672 1 0
2.361282 -8.287516 -1.7234788 4 3198474959976 1 0
9.454578 -27.926998 0 4 3198474959976 1 0
12.712228 -54.649147 -0.65320444 16 3198474962280 1 0
3.4028428 -10.056155 -1.6516477 32 3198474962280 1 0
2.9391973 -10.327253 -1.3667272 2 3198474964584 1 0
10.853565 -27.572195 0.17221862 12 3198474964584 1 0
13.871058 -48.76471 -0.29466403 38 3198474966888 1 0
5.0041766 -14.802632 -1.6831372 3 3198474966888 1 0
4.316814 -18.594501 -1.7819237 2 3198474969192 1 0
17.779606 -52.61829 1.292407 21 3198474969192 1 0
12.67772 -54.644844 0.6530648 19 3198474971496 1 0
7.196039 -21.306711 -1.57259 6 3198474971496 1 0
5.8244014 -20.510107 -1.7405488 4 3198474973800 1 0
15.901637 -40.46528 1.2653219 54 3198474973800 1 0
13.840811 -48.766167 0.88483703 39 3198474976104 1 0
9.387102 -23.897795 -1.6454996 7 3198474976104 1 0
6.6071625 -28.535439 -1.7057989 12 3198474978408 1 0
17.569357 -52.09598 3.201832 45 3198474978408 1 0
11.810358 -41.65828 1.7640907 27 3198474980712 1 0
7.1933837 -21.339792 -1.0489976 8 3198474980712 1 1
7.82316 -27.609673 -1.503926 13 3198474983016 1 0
12.536967 -37.209873 4.8211513 7 3198474983016 1 0
13.796982 -48.719635 4.133641 36 3198474985320 1 0
10.604412 -27.04306 -1.1834421 68 3198474985320 1 0
6.62469 -28.68707 -1.0281391 41 3198474987624 1 0
0 0 0 9 3198474987624 1 0
8.334439 -29.463099 5.5826764 35 3198474989928 1 0
7.2199626 -21.45988 -0.5268636 24 3198474989928 1 1
0 0 0 4 3198475010664 1 0
0 0 0 14 3198475010664 1 0
11.233878 -39.93235 -1.2072572 35 3198475012968 1 0
1.9311615 -5.7674513 -1.702638 5 3198475012968 1 0
2.333642 -8.299416 -1.7242632 3 3198475015272 1 0
0 0 0 89 3198475015272 1 0
12.523775 -54.692642 -0.65320444 16 3198475017576 1 0
3.3643968 -10.056581 -1.649803 9 3198475017576 1 0
2.905878 -10.344921 -1.3677374 2 3198475019880 1 0
12.899594 -33.102818 0.20648567 5 3198475019880 1 0
13.704303 -48.811836 -0.29466403 100 3198475022184 1 0
4.9585958 -14.834737 -1.6848508 3 3198475022184 1 0
4.273916 -18.698383 -1.7904745 2 3198475024488 1 0
17.590286 -52.64815 1.2916626 21 3198475024488 1 0
12.491573 -54.683594 0.6530182 19 3198475026792 1 0
7.147808 -21.402885 -1.5778915 6 3198475026792 1 0
5.756237 -20.533484 -1.7408743 4 3198475029096 1 0
15.754857 -40.492622 1.2645073 48 3198475029096 1 0
13.670417 -48.789288 0.88441813 100 3198475031400 1 0
9.3038645 -23.921759 -1.644988 5 3198475031400 1 0
6.5240974 -28.611887 -1.7090547 12 3198475033704 1 0
11.065172 -33.176117 2.0367262 21 3198475033704 1 0
13.65271 -48.77524 2.0635335 36 3198475036008 1 0
7.1159496 -21.34468 -1.048067 2 3198475036008 1 1
7.7240267 -27.608536 -1.5024606 13 3198475038312 1 0
12.414761 -37.25501 4.8216386 7 3198475038312 1 0
13.631761 -48.74956 4.132339 54 3198475040616 1 0
10.5121765 -27.070473 -1.1831164 64 3198475040616 1 0
6.537452 -28.739876 -1.029256 41 3198475042920 1 0
0 0 0 9 3198475042920 1 0
8.232684 -29.471266 5.579089 29 3198475045224 1 0
7.0916104 -21.308855 -0.5225832 76 3198475045224 1 1
0 0 0 4 3198475065960 1 0
13.00443 -33.63184 -0.6294036 11 3198475065960 1 0
11.125409 -40.033257 -1.2092353 43 3198475068264 1 0
1.9116536 -5.769889 -1.7015597 6 3198475068264 1 0
2.3102226 -8.318178 -1.7266166 4 3198475070568 1 0
10.999786 -33.21814 0 68 3198475070568 1 0
12.348876 -54.740597 -0.6532976 16 3198475072872 1 0
3.33315 -10.071143 -1.6504179 8 3198475072872 1 0
2.8721595 -10.354333 -1.3677374 2 3198475075176 1 0
13.53844 -48.837345 -0.2945478 76 3198475077480 1 0
4.913552 -14.862284 -1.6861359 3 3198475077480 1 0
4.2110114 -18.708569 -1.7901027 2 3198475079784 1 0
10.9743 -33.212383 0.81393075 85 3198475079784 1 0
15.67924 -40.626663 0.2530972 7 3198475075176 1 0
12.306821 -54.71727 0.6529251 19 3198475082088 1 0
5.685855 -20.548946 -1.7405488 4 3198475084392 1 0
15.606635 -40.515705 1.2635764 54 3198475084392 1 0
7.058653 -21.37363 -1.5739851 6 3198475082088 1 0
13.500025 -48.82011 0.8841389 98 3198475086696 1 0
9.220962 -23.949558 -1.6447321 7 3198475086696 1 0
5.135258 -22.883133 -1.3658019 5 3198475089000 1 0
10.951231 -33.2139 2.0367262 78 3198475089000 1 0
13.481662 -48.814503 2.0632079 84 3198475091304 1 0
7.0195107 -21.300877 -1.0447168 2 3198475091304 1 1
7.756205 -28.101246 -1.5277913 27 3198475093608 1 0
0 0 0 24 3198475093608 1 0
13.457971 -48.789555 4.131688 54 3198475095912 1 0
10.643345 -27.696756 -1.2088434 38 3198475095912 1 0
6.440655 -28.7863 -1.0300936 41 3198475098216 1 0
0 0 0 9 3198475098216 1 0
8.126141 -29.496738 5.5783715 29 3198475100520 1 0
7.0203204 -21.349287 -0.5229554 94 3198475100520 1 1
0 0 0 4 3198475121256 1 0
12.865201 -33.655376 -0.6289149 11 3198475121256 1 0
0 0 0 99 3198475123560 1 0
2.2785084 -8.3269205 -1.7266166 3 3198475125864 1 0
10.869396 -33.24841 0 63 3198475125864 1 0
12.138391 -54.775364 -0.6531579 16 3198475128168 1 0
1.8907663 -5.7808204 -1.702638 5 3198475123560 1 0
3.2924397 -10.07621 -1.649188 8 3198475128168 1 0
2.8434453 -10.403397 -1.3727881 8 3198475130472 1 0
15.522644 -40.67819 0.2530507 7 3198475130472 1 0
0 0 0 9 3198475132776 1 0
4.859999 -14.888249 -1.6869928 3 3198475132776 1 0
4.142499 -18.732016 -1.7908463 2 3198475135080 1 0
10.844634 -33.238125 0.8135585 80 3198475135080 1 0
6.994794 -21.449183 -1.5776124 6 3198475137384 1 0
12.102206 -54.76289 0.6529251 19 3198475137384 1 0
5.6145487 -20.589207 -1.742176 4 3198475139688 1 0
15.445709 -40.54738 1.262762 48 3198475139688 1 0
14.7638035 -54.171635 0.98005736 12 3198475141992 1 0
8.092304 -21.252844 -1.4574645 5 3198475141992 1 0
5.0627265 -22.956541 -1.3690577 5 3198475144296 1 0
10.821037 -33.23135 2.0353308 64 3198475144296 1 0
13.309296 -48.890778 2.0643475 48 3198475146600 1 0
6.9361353 -21.311365 -1.0439723 7 3198475146600 1 1
7.695103 -28.28366 -1.536165 49 3198475148904 1 0
10.79932 -33.197456 4.2863884 68 3198475148904 1 0
13.297551 -48.90376 4.137221 18 3198475151208 1 0
10.532224 -27.709276 -1.2077036 38 3198475151208 1 0
6.343671 -28.844667 -1.0313499 41 3198475153512 1 0
0 0 0 9 3198475153512 1 0
8.016169 -29.514582 5.576219 29 3198475155816 1 0
6.966429 -21.446833 -0.5247234 83 3198475155816 1 1
0 0 0 4 3198475176552 1 0
12.744814 -33.692596 -0.6287753 11 3198475176552 1 0
0 0 0 18 3198475178856 1 0
1.8693912 -5.78372 -1.7015597 6 3198475178856 1 0
2.2484062 -8.331037 -1.7258321 3 3198475181160 1 0
9.020697 -27.923061 0 52 3198475181160 1 0
11.947115 -54.8174 -0.6531579 16 3198475183464 1 0
3.2548182 -10.080118 -1.6479583 8 3198475183464 1 0
2.802982 -10.397934 -1.3707678 16 3198475185768 1 0
15.591094 -41.28969 0.2565146 16 3198475185768 1 0
14.601898 -54.19852 -0.32623434 20 3198475188072 1 0
4.8116627 -14.916478 -1.6882778 3 3198475188072 1 0
4.0787797 -18.754145 -1.7915899 2 3198475190376 1 0
10.723637 -33.26055 0.81318635 80 3198475190376 1 0
11.911824 -54.80871 0.6529716 29 3198475192680 1 0
6.917432 -21.465874 -1.5770544 6 3198475192680 1 0
5.544716 -20.616379 -1.742827 4 3198475194984 1 0
0 0 0 3 3198475194984 1 0
14.568391 -54.199665 0.97963846 25 3198475197288 1 0
0 0 0 90 3198475197288 1 0
4.979177 -22.958464 -1.3681275 5 3198475199592 1 0
10.697633 -33.246113 2.0339355 57 3198475199592 1 0
14.527231 -54.10932 2.2825387 43 3198475201896 1 0
0 0 0 94 3198475201896 1 0
7.589082 -28.283344 -1.5346996 45 3198475204200 1 0
0 0 0 8 3198475206504 1 0
10.682159 -33.23117 4.285901 62 3198475204200 1 0
0 0 0 3 3198475206504 1 0
6.2497053 -28.897894 -1.0324668 41 3198475208808 1 0
0 0 0 9 3198475208808 1 0
7.9110584 -29.534782 5.5747843 29 3198475211112 1 0
6.9098554 -21.528133 -0.5261192 54 3198475211112 1 1
0 0 0 4 3198475231296 1 0
12.618715 -33.714405 -0.62835646 16 3198475231296 1 0
12.849715 -48.253235 -1.4532467 10 3198475233600 1 0
1.8503628 -5.7938795 -1.702638 5 3198475233600 1 0
2.2223382 -8.350205 -1.7281855 4 3198475235904 1 0
10.628501 -33.296806 0 63 3198475235904 1 0
11.755694 -54.858772 -0.6531579 16 3198475238208 1 0
3.218411 -10.087653 -1.6473434 7 3198475238208 1 0
2.7676888 -10.4114895 -1.3712729 22 3198475240512 1 0
15.5742655 -41.684834 0.25863016 8 3198475240512 1 0
14.41981 -54.276222 -0.32639706 20 3198475242816 1 0
4.7607727 -14.936973 -1.6887063 3 3198475242816 1 0
4.0141234 -18.772163 -1.7919617 2 3198475245120 1 0
10.601401 -33.27873 0.8127211 70 3198475245120 1 0
11.709568 -54.799107 0.6523663 29 3198475247424 1 0
6.820668 -21.42145 -1.5720319 6 3198475247424 1 0
5.4757833 -20.64717 -1.7438034 2 3198475249728 1 0
14.378085 -54.246323 0.97956866 25 3198475252032 1 0
7.918637 -21.241493 -1.4528595 39 3198475252032 1 0
4.874857 -22.862446 -1.3613833 2 3198475254336 1 0
17.781984 -47.678425 1.4809409 24 3198475249728 1 0
10.577888 -33.271835 2.033238 64 3198475254336 1 0
14.335197 -54.14811 2.2820501 65 3198475256640 1 0
7.4882646 -28.301939 -1.5342809 45 3198475258944 1 0
6.8162274 -21.45066 -1.0484393 100 3198475256640 1 1
10.56249 -33.256905 4.2844386 62 3198475258944 1 0
0 0 0 8 3198475261248 1 0
10.108528 -27.164082 -1.1808368 12 3198475261248 1 0
0 0 0 9 3198475263552 1 0
7.803895 -29.546997 5.571914 29 3198475265856 1 0
6.1537833 -28.942993 -1.0333043 41 3198475263552 1 0
10.566292 -33.319263 -0.81337243 35 3198475265856 1 0
0 0 0 4 3198475286592 1 0
12.49262 -33.735744 -0.62793756 16 3198475286592 1 0
12.821325 -48.831474 -1.4693047 11 3198475288896 1 0
2.195168 -8.3654995 -1.7297544 4 3198475291200 1 0
1.828968 -5.7966294 -1.7015597 6 3198475288896 1 0
10.506193 -33.31463 0 63 3198475291200 1 0
11.563305 -54.895557 -0.65311134 16 3198475293504 1 0
3.1808023 -10.091287 -1.6461135 10 3198475293504 1 0
2.730323 -10.417249 -1.3707678 20 3198475295808 1 0
12.252786 -33.14729 0.20539303 5 3198475295808 1 0
14.228235 -54.318485 -0.32635057 20 3198475298112 1 0
4.7145762 -14.972466 -1.6908482 3 3198475298112 1 0
3.953487 -18.809444 -1.7941923 2 3198475300416 1 0
10.483972 -33.311718 0.81262803 75 3198475300416 1 0
11.518212 -54.839645 0.6523663 58 3198475302720 1 0
6.7434573 -21.437515 -1.5714738 6 3198475302720 1 0
17.593302 -47.680187 1.4790791 73 3198475305024 1 0
14.181564 -54.269096 0.97908 25 3198475307328 1 0
7.86378 -21.321438 -1.456441 33 3198475307328 1 0
4.775364 -22.785524 -1.3558019 2 3198475309632 1 1
5.407712 -20.681585 -1.7451053 4 3198475305024 1 0
10.456897 -33.293316 2.0323076 64 3198475309632 1 0
14.140042 -54.174618 2.281073 64 3198475311936 1 0
6.722161 -21.413328 -1.0454613 81 3198475311936 1 1
7.3894267 -28.327906 -1.5342809 45 3198475314240 1 0
10.442772 -33.282207 4.282976 68 3198475314240 1 0
0 0 0 8 3198475316544 1 0
10.009503 -27.18795 -1.1803483 52 3198475316544 1 0
0 0 0 21 3198475318848 1 0
0 0 0 9 3198475318848 1 0
7.7007093 -29.574059 5.571914 29 3198475321152 1 0
10.440358 -33.325413 -0.81262803 60 3198475321152 1 0
0 0 0 4 3198475341888 1 0
12.372033 -33.771637 -0.62779796 16 3198475341888 1 0
7.344225 -28.372473 -0.8529345 14 3198475344192 1 0
1.8099536 -5.8066297 -1.702638 6 3198475344192 1 0
2.1652148 -8.369251 -1.72897 4 3198475346496 1 0
10.38962 -33.346977 0 48 3198475346496 1 0
11.373199 -54.931175 -0.6530648 16 3198475348800 1 0
3.1518745 -10.121059 -1.649188 26 3198475348800 1 0
2.6965358 -10.434242 -1.371778 10 3198475351104 1 0
17.496006 -47.835953 0.29603565 11 3198475351104 1 0
0 0 0 18 3198475353408 1 0
4.665737 -14.996088 -1.691705 3 3198475353408 1 0
3.89106 -18.830591 -1.7949358 2 3198475355712 1 0
10.366976 -33.33575 0.81234884 85 3198475355712 1 0
11.329877 -54.866615 0.6522266 68 3198475358016 1 0
6.694459 -21.536453 -1.5770544 27 3198475358016 1 0
5.340882 -20.711296 -1.7460816 4 3198475360320 1 0
17.425457 -47.720505 1.4784973 40 3198475360320 1 0
14.005142 -54.339672 0.97949886 25 3198475362624 1 0
0 0 0 9 3198475362624 1 0
10.344281 -33.3243 2.0320752 64 3198475364928 1 0
4.7426405 -23.012568 -1.36836 5 3198475364928 1 0
13.957534 -54.213673 2.2807474 64 3198475367232 1 0
6.656723 -21.45468 -1.046392 44 3198475367232 1 1
7.289475 -28.329042 -1.5330248 36 3198475369536 1 0
10.327642 -33.301487 4.2810264 62 3198475369536 1 0
0 0 0 8 3198475371840 1 0
9.912844 -27.202074 -1.1795342 52 3198475371840 1 0
4.726061 -22.993011 -0.8197194 3 3198475374144 1 1
0 0 0 9 3198475374144 1 0
7.602908 -29.59529 5.571197 29 3198475376448 1 0
10.328879 -33.35176 -0.8124419 55 3198475376448 1 0
0 0 0 4 3198475397184 1 0
12.259056 -33.79154 -0.6274489 16 3198475397184 1 0
7.243342 -28.353004 -0.85165447 9 3198475399488 1 0
1.7926681 -5.8160205 -1.7037163 6 3198475399488 1 0
2.138424 -8.376137 -1.72897 3 3198475401792 1 0
10.287575 -33.395344 0 24 3198475401792 1 0
11.197372 -54.97545 -0.6531579 16 3198475404096 1 0
3.1122007 -10.108519 -1.6454986 31 3198475404096 1 0
17.341429 -47.896458 0.2960589 11 3198475406400 1 0
2.6605666 -10.435283 -1.3707678 9 3198475406400 1 0
0 0 0 19 3198475408704 1 0
4.6164193 -15.011343 -1.691705 3 3198475408704 1 0
3.8293872 -18.847294 -1.7953076 2 3198475411008 1 0
10.2505 -33.350834 0.81188357 75 3198475411008 1 0
11.143089 -54.888527 0.65204036 39 3198475413312 1 0
6.6235495 -21.56254 -1.5773333 12 3198475413312 1 0
5.271948 -20.733063 -1.746407 4 3198475415616 1 0
17.250748 -47.74143 1.4773337 48 3198475415616 1 0
13.822093 -54.394775 0.97963846 25 3198475417920 1 0
7.6638074 -21.220201 -1.445952 3 3198475417920 1 0
5.86678 -28.969835 -1.7213801 8 3198475420224 1 0
10.231006 -33.363426 2.0323076 49 3198475420224 1 0
13.768803 -54.25779 2.2805846 64 3198475422528 1 0
6.5976377 -21.527256 -1.0488116 16 3198475422528 1 1
7.1915255 -28.358187 -1.5332341 45 3198475424832 1 0
0 0 0 8 3198475427136 1 0
10.20901 -33.329742 4.280051 56 3198475424832 1 0
7.689381 -21.333735 -0.92389244 21 3198475427136 1 1
0 0 0 9 3198475429440 1 0
0 0 0 32 3198475429440 1 0
7.495039 -29.614674 5.5697618 29 3198475431744 1 0
10.217669 -33.41527 -0.8130933 15 3198475431744 1 0
0 0 0 4 3198475452480 1 0
12.126516 -33.830833 -0.6273093 11 3198475452480 1 0
12.368734 -49.199596 -1.4764028 11 3198475454784 1 0
1.7692872 -5.8191495 -1.702638 6 3198475454784 1 0
2.107446 -8.388028 -1.7297544 4 3198475457088 1 0
8.525021 -28.053278 0 24 3198475457088 1 0
5.821365 -29.146322 -0.34601957 8 3198475459392 1 0
3.0715082 -10.112697 -1.6442688 26 3198475459392 1 0
2.6201205 -10.44142 -1.3702627 11 3198475461696 1 0
17.114367 -47.833645 0.29526848 11 3198475461696 1 0
13.646968 -54.417946 -0.32607162 20 3198475464000 1 0
4.5644574 -15.043849 -1.6934185 3 3198475464000 1 0
3.7563019 -18.849813 -1.7941923 2 3198475466304 1 0
12.571594 -41.456013 1.0080384 34 3198475466304 1 0
10.9409685 -54.945488 0.6522266 48 3198475468608 1 0
6.530173 -21.545143 -1.574264 4 3198475468608 1 0
5.2160125 -20.837633 -1.7535671 4 3198475470912 1 0
17.06749 -47.790264 1.4768683 40 3198475470912 1 0
13.615404 -54.426266 0.9792894 12 3198475473216 1 0
7.5689487 -21.203365 -1.4428821 3 3198475473216 1 0
0 0 0 14 3198475475520 1 0
10.112309 -33.416283 2.033238 35 3198475475520 1 0
13.567118 -54.30033 2.2802591 64 3198475477824 1 0
8.337972 -27.56742 -1.3415854 80 3198475477824 1 0
0 0 0 3 3198475480128 1 0
7.092378 -28.403732 -1.5342809 40 3198475480128 1 0
7.571204 -21.248718 -0.91900754 38 3198475482432 1 1
4.605785 -23.253815 -0.82781607 32 3198475484736 1 1
0 0 0 8 3198475482432 1 0
0 0 0 9 3198475484736 1 0
7.3867874 -29.637804 5.5690446 29 3198475487040 1 0
11.655329 -38.61649 -0.93862116 18 3198475487040 1 0
0 0 0 4 3198475507776 1 0
12.001669 -33.854107 -0.6269603 11 3198475507776 1 0
7.095324 -28.64586 -0.85886896 4 3198475510080 1 0
1.7500714 -5.8289795 -1.7037163 6 3198475510080 1 0
2.0790958 -8.399141 -1.730539 4 3198475512384 1 0
8.422445 -28.067541 0 28 3198475512384 1 0
10.795716 -55.051655 -0.65311134 16 3198475514688 1 0
2.5846095 -10.454354 -1.3707678 4 3198475516992 1 0
17.052704 -48.19099 0.297105 11 3198475516992 1 0
13.4435 -54.410885 -0.32574615 20 3198475519296 1 0
3.0361896 -10.123357 -1.6442688 33 3198475514688 1 0
4.5141997 -15.06731 -1.6942753 3 3198475519296 1 0
3.6996572 -18.909714 -1.7986536 2 3198475521600 1 0
12.4233675 -41.48815 1.0077592 75 3198475521600 1 0
10.749106 -54.983345 0.6522266 29 3198475523904 1 0
5.1480165 -20.875067 -1.7551944 4 3198475526208 1 0
16.927198 -47.924953 1.4791955 16 3198475526208 1 0
6.975485 -23.307144 -1.7012209 7 3198475523904 1 0
13.424381 -54.469578 0.9792196 12 3198475528512 1 0
7.5002046 -21.244713 -1.4439054 5 3198475528512 1 0
4.468994 -22.912687 -1.3595228 33 3198475530816 1 1
12.389608 -41.46318 2.5202103 35 3198475530816 1 0
13.374626 -54.335716 2.2797706 64 3198475533120 1 0
8.238262 -27.584871 -1.341027 76 3198475533120 1 0
6.9998665 -28.45547 -1.5357463 45 3198475535424 1 0
0 0 0 8 3198475537728 1 0
11.137608 -37.312782 4.781178 7 3198475535424 1 0
0 0 0 3 3198475537728 1 0
4.533742 -23.31684 -0.82949126 65 3198475540032 1 1
0 0 0 9 3198475540032 1 0
11.421098 -38.323524 -0.9305256 12 3198475542336 1 0
0 0 0 4 3198475563072 1 0
7.2842255 -29.66723 5.5697618 29 3198475542336 1 0
11.8821 -33.89202 -0.6268904 11 3198475563072 1 0
6.992445 -28.6588 -0.85851985 4 3198475565376 1 0
1.7297138 -5.835053 -1.7037163 6 3198475565376 1 0
2.0497646 -8.406347 -1.730539 3 3198475567680 1 0
8.32442 -28.09677 0 32 3198475567680 1 0
0 0 0 17 3198475569984 1 0
3.000834 -10.133893 -1.6442688 26 3198475569984 1 0
2.5462234 -10.455602 -1.3697577 3 3198475572288 1 0
17.210709 -49.182755 0.3028472 11 3198475572288 1 0
13.252542 -54.453594 -0.3257229 20 3198475574592 1 0
4.463834 -15.090603 -1.6951321 3 3198475574592 1 0
3.629872 -18.902956 -1.7967948 2 3198475576896 1 0
12.273936 -41.515926 1.007387 68 3198475576896 1 0
10.559374 -55.032314 0.6523663 29 3198475579200 1 0
6.908785 -23.3811 -1.7048482 5 3198475579200 1 0
18.513311 -53.004074 1.6339571 27 3198475581504 1 0
5.0732355 -20.88516 -1.7545435 4 3198475581504 1 0
13.232278 -54.50833 0.97908 25 3198475583808 1 0
7.422054 -21.259459 -1.4431379 3 3198475583808 1 0
0 0 0 12 3198475586112 1 0
12.2448 -41.506176 2.5202103 100 3198475586112 1 0
13.182994 -54.374302 2.279445 64 3198475588416 1 0
8.136273 -27.594297 -1.3400964 80 3198475588416 1 0
6.9089613 -28.51467 -1.5376304 40 3198475590720 1 0
11.040962 -37.465683 4.7958026 7 3198475590720 1 0
0 0 0 8 3198475593024 1 0
9.708399 -27.860455 -1.2020046 20 3198475593024 1 0
4.4515743 -23.328596 -0.82935166 55 3198475595328 1 1
7.179698 -29.68865 5.5690446 29 3198475597632 1 0
0 0 0 9 3198475595328 1 0
11.796309 -40.093338 -0.97249234 40 3198475597632 1 0
11.755862 -33.910618 -0.6264716 16 3198475618368 1 0
0 0 0 4 3198475618368 1 0
1.7082533 -5.837358 -1.702638 6 3198475620672 1 0
6.8606024 -28.550854 -0.85456353 4 3198475620672 1 0
2.0213244 -8.417265 -1.7313235 4 3198475622976 1 0
8.221802 -28.1103 0 36 3198475622976 1 0
0 0 0 28 3198475625280 1 0
2.965442 -10.144306 -1.6442688 8 3198475625280 1 0
2.5106366 -10.468285 -1.3702627 2 3198475627584 1 0
18.371744 -53.09439 0.32653657 13 3198475627584 1 0
13.060518 -54.491745 -0.32567638 20 3198475629888 1 0
4.414475 -15.117545 -1.6964172 3 3198475629888 1 0
3.5646038 -18.919426 -1.7971665 2 3198475632192 1 0
12.124462 -41.543163 1.0070149 75 3198475632192 1 0
10.366471 -55.064907 0.6523197 19 3198475634496 1 0
6.8427706 -23.458702 -1.7087545 5 3198475634496 1 0
5.0049396 -20.922129 -1.7561707 4 3198475636800 1 0
0 0 0 10 3198475636800 1 0
13.041928 -54.554188 0.97908 12 3198475639104 1 0
7.3438916 -21.273916 -1.4423704 3 3198475639104 1 0
4.3118744 -22.959026 -1.3604531 8 3198475641408 1 1
12.095375 -41.53333 2.51928 71 3198475641408 1 0
12.991256 -54.412212 2.2791193 64 3198475643712 1 0
8.041018 -27.626366 -1.3402824 76 3198475643712 1 0
6.815874 -28.56581 -1.5390958 45 3198475646016 1 0
0 0 0 8 3198475648320 1 0
7.3391633 -21.300388 -0.9178678 7 3198475648320 1 1
10.90568 -37.488747 4.7938523 7 3198475646016 1 0
4.334071 -23.151457 -0.8225113 35 3198475650624 1 1
0 0 0 9 3198475650624 1 0
7.0723753 -29.69822 5.5661745 29 3198475652928 1 0
11.60275 -39.94994 -0.9680258 59 3198475652928 1 0
0 0 0 4 3198475673664 1 0
11.632234 -33.936314 -0.62619233 11 3198475673664 1 0
6.794962 -28.71859 -0.85886896 4 3198475675968 1 0
1.6900046 -5.8506866 -1.7047946 6 3198475675968 1 0
1.9937356 -8.431904 -1.7328924 5 3198475678272 1 0
8.123629 -28.138826 0 40 3198475678272 1 0
0 0 0 44 3198475680576 1 0
2.927822 -10.147 -1.643039 8 3198475680576 1 0
2.4786398 -10.496294 -1.3727881 2 3198475682880 1 0
18.185003 -53.15441 0.32651332 13 3198475682880 1 0
12.869308 -54.533108 -0.32565314 20 3198475685184 1 0
4.3693876 -15.159613 -1.6994159 3 3198475685184 1 0
3.5021596 -18.951336 -1.7990254 2 3198475687488 1 0
11.976055 -41.573704 1.0067357 82 3198475687488 1 0
10.174195 -55.100758 0.6523197 19 3198475689792 1 0
6.774091 -23.528458 -1.7121029 5 3198475689792 1 0
4.933705 -20.947233 -1.7568218 4 3198475692096 1 0
18.145409 -53.139595 1.6341898 27 3198475692096 1 0
12.8514185 -54.59938 0.97908 25 3198475694400 1 0
7.286349 -21.348534 -1.4456962 5 3198475694400 1 0
4.225196 -22.938593 -1.35836 13 3198475696704 1 1
11.947014 -41.56378 2.5185823 71 3198475696704 1 0
12.797585 -54.44167 2.278468 64 3198475699008 1 0
7.9423285 -27.646585 -1.3399103 76 3198475699008 1 0
6.724341 -28.624426 -1.5409799 40 3198475701312 1 0
10.774753 -37.526585 4.7938523 7 3198475701312 1 0
0 0 0 8 3198475703616 1 0
7.255745 -21.299395 -0.91672796 7 3198475703616 1 1
4.2178597 -22.973783 -0.815671 42 3198475705920 1 1
0 0 0 9 3198475705920 1 0
6.969564 -29.726557 5.566892 29 3198475708224 1 0
0 0 0 4 3198475728960 1 0
11.43568 -39.894096 -0.9656995 72 3198475708224 1 0
7.272758 -21.461767 -0.39554134 7 3198475728960 1 1
6.694185 -28.738142 -0.85875255 4 3198475731264 1 0
1.6707128 -5.8602304 -1.7058729 7 3198475731264 1 0
1.9627573 -8.431114 -1.7313235 5 3198475733568 1 0
8.023983 -28.159086 0 40 3198475733568 1 0
4.1848288 -23.033339 -0.27254105 74 3198475735872 1 1
2.8928277 -10.157033 -1.643039 8 3198475735872 1 0
2.4399009 -10.493145 -1.3712729 8 3198475738176 1 0
0 0 0 100 3198475738176 1 0
12.684653 -54.584568 -0.32569966 20 3198475740480 1 0
4.318636 -15.178284 -1.6998444 3 3198475740480 1 0
3.4376407 -18.963144 -1.7990254 2 3198475742784 1 0
11.841058 -41.6373 1.0072939 20 3198475742784 1 0
9.9852705 -55.12311 0.65218 29 3198475745088 1 0
6.7019544 -23.578146 -1.714056 5 3198475745088 1 0
4.8647966 -20.971529 -1.7574726 4 3198475747392 1 0
17.776665 -52.639877 1.6169683 53 3198475747392 1 0
12.6661 -54.63446 0.97894037 25 3198475749696 1 0
7.182665 -21.27834 -1.4393004 3 3198475749696 1 0
4.1413355 -22.913303 -1.3560345 33 3198475752000 1 1
11.814449 -41.626564 2.5199778 35 3198475752000 1 0
12.616186 -54.48399 2.278468 64 3198475754304 1 0
7.8611073 -27.711325 -1.3417715 25 3198475754304 1 0
6.6347857 -28.669918 -1.542236 46 3198475756608 1 0
10.651334 -37.56593 4.79434 7 3198475756608 1 0
0 0 0 8 3198475758912 1 0
7.1700687 -21.277784 -0.914774 40 3198475758912 1 1
4.1338143 -22.940313 -0.81399584 40 3198475761216 1 1
0 0 0 9 3198475761216 1 0
6.8731327 -29.75304 5.5676093 29 3198475763520 1 0
9.675428 -34.175163 -0.82649285 97 3198475763520 1 0
0 0 0 4 3198475784256 1 0
6.6486626 -28.957966 -0.864687 4 3198475786560 1 0
1.6521236 -5.865498 -1.7058729 5 3198475786560 1 0
1.938401 -8.44882 -1.7336768 5 3198475788864 1 0
7.9349236 -28.188467 0 40 3198475788864 1 0
4.1174583 -23.086107 -0.27300668 64 3198475791168 1 1
7.1938534 -21.450382 -0.39491305 26 3198475784256 1 1
2.8589468 -10.162516 -1.6424241 14 3198475791168 1 0
2.4101322 -10.520377 -1.3737983 10 3198475793472 1 0
11.104868 -33.182533 0.20337048 100 3198475793472 1 0
12.503379 -54.61817 -0.32565314 20 3198475795776 1 0
4.268721 -15.192397 -1.6998444 3 3198475795776 1 0
3.3775275 -18.990126 -1.8005124 2 3198475798080 1 0
9.794518 -55.120766 0.65176094 48 3198475800384 1 0
13.702954 -48.79885 1.1794412 87 3198475798080 1 0
6.6305904 -23.627327 -1.7160093 5 3198475800384 1 0
4.796668 -20.999485 -1.758449 4 3198475802688 1 0
11.079126 -33.176147 1.017936 68 3198475802688 1 0
12.479194 -54.67335 0.9788706 25 3198475804992 1 0
7.1190515 -21.329168 -1.4410913 5 3198475804992 1 0
4.0654488 -22.943111 -1.3569647 24 3198475807296 1 1
13.657678 -48.75747 2.948811 17 3198475807296 1 0
12.4257345 -54.519543 2.2781422 86 3198475809600 1 0
7.7338986 -27.626785 -1.3363739 17 3198475809600 1 0
6.5435386 -28.73185 -1.5443294 37 3198475811904 1 0
10.496607 -37.518764 4.7836156 7 3198475811904 1 0
0 0 0 8 3198475814208 1 0
7.1090245 -21.3446 -0.9165651 92 3198475814208 1 1
4.051682 -22.950903 -0.81385624 12 3198475816512 1 1
0 0 0 9 3198475816512 1 0
6.767507 -29.781279 5.568327 24 3198475818816 1 0
0 0 0 4 3198475839552 1 0
11.153518 -39.940685 -0.96495503 86 3198475818816 1 0
12.307704 -54.565483 -1.6279063 16 3198475841856 1 0
7.095094 -21.42849 -0.39400554 14 3198475839552 1 1
1.6285595 -5.868087 -1.7047946 5 3198475841856 1 0
1.9068081 -8.460028 -1.7344613 4 3198475844160 1 0
0 0 0 5 3198475846464 1 0
7.8255606 -28.214872 0 36 3198475844160 1 0
2.8199046 -10.173418 -1.6424241 8 3198475846464 1 0
2.3697193 -10.529554 -1.3737983 9 3198475848768 1 0
10.969845 -33.20214 0.20323099 71 3198475848768 1 0
12.288302 -54.64236 -0.32551366 30 3198475851072 1 0
4.2135386 -15.220175 -1.7011296 3 3198475851072 1 0
3.307315 -19.018648 -1.8019996 2 3198475853376 1 0
13.509082 -48.827984 1.1788828 61 3198475853376 1 0
9.569106 -55.07915 0.6508297 48 3198475855680 1 0
6.55577 -23.710302 -1.7201947 5 3198475855680 1 0
4.720365 -21.037199 -1.7600763 4 3198475857984 1 0
10.942894 -33.191864 1.0171214 76 3198475857984 1 0
12.265672 -54.705254 0.9785913 37 3198475860288 1 0
7.018362 -21.299477 -1.4372538 5 3198475860288 1 0
3.9793684 -22.970356 -1.3576624 13 3198475862592 1 1
13.467175 -48.798004 2.9481134 88 3198475862592 1 0
12.217176 -54.57075 2.278305 100 3198475864896 1 0
7.663883 -27.787241 -1.3427022 21 3198475864896 1 0
6.4401445 -28.787949 -1.5460042 41 3198475867200 1 0
0 0 0 8 3198475869504 1 0
10.3524685 -37.558792 4.7836156 7 3198475867200 1 0
7.024518 -21.364145 -0.91623944 45 3198475869504 1 1
3.9750848 -23.033258 -0.8162294 39 3198475871808 1 1
6.6573915 -29.826246 5.571914 24 3198475874112 1 0
0 0 0 9 3198475871808 1 0
11.014926 -40.037197 -0.9662578 66 3198475874112 1 0
0 0 0 4 3198475895296 1 0
10.878654 -33.243984 -0.610555 37 3198475895296 1 0
12.11882 -54.61184 -1.6280227 33 3198475897600 1 0
1.6081516 -5.8737125 -1.7047946 5 3198475897600 1 0
1.8758134 -8.458919 -1.7328924 4 3198475899904 1 0
7.728902 -28.24565 0 24 3198475899904 1 0
9.476425 -55.468517 -0.6551136 16 3198475902208 1 0
2.7848198 -10.183078 -1.6424241 17 3198475902208 1 0
2.3344207 -10.5415 -1.3743033 10 3198475904512 1 0
10.85209 -33.22819 0.20316125 71 3198475904512 1 0
12.110974 -54.727005 -0.3257694 30 3198475906816 1 0
4.1646366 -15.245996 -1.7024146 3 3198475906816 1 0
3.2566168 -19.112244 -1.809807 2 3198475909120 1 0
13.337558 -48.85439 1.1784177 51 3198475909120 1 0
9.406562 -55.253212 0.652506 19 3198475911424 1 0
6.4806337 -23.751629 -1.7215898 5 3198475911424 1 0
4.6536508 -21.072472 -1.7617036 4 3198475913728 1 0
12.086116 -54.765682 0.97894037 37 3198475916032 1 0
6.9294505 -21.269798 -1.4336722 3 3198475916032 1 0
10.829594 -33.224796 1.0170051 76 3198475913728 1 0
3.9111958 -23.03472 -1.3606857 11 3198475918336 1 1
12.0344925 -54.60724 2.2781422 64 3198475920640 1 0
13.305959 -48.850487 2.9485786 53 3198475918336 1 0
7.694085 -28.26369 -1.3644787 56 3198475920640 1 0
0 0 0 17 3198475922944 1 0
10.219523 -37.562267 4.7797155 7 3198475922944 1 0
0 0 0 8 3198475925248 1 0
0 0 0 1 3198475925248 1 0
0 0 0 9 3198475927552 1 0
3.888015 -22.979195 -0.81385624 65 3198475927552 1 1
6.562284 -29.859404 5.5740666 24 3198475929856 1 0
0 0 0 113 3198475929856 1 0
0 0 0 4 3198475950592 1 0
9.033597 -27.935211 -0.51247245 23 3198475950592 1 0
11.929821 -54.66162 -1.6282554 50 3198475952896 1 0
1.589647 -5.886728 -1.7069511 6 3198475952896 1 0
1.8471106 -8.469247 -1.7336768 4 3198475955200 1 0
7.630259 -28.272457 0 16 3198475955200 1 0
4.791478 -28.648102 -0.33815017 2 3198475957504 1 0
2.7492573 -10.192737 -1.6424241 34 3198475957504 1 0
2.2976098 -10.549584 -1.3743033 8 3198475959808 1 0
10.73235 -33.25445 0.20309152 71 3198475959808 1 0
11.92327 -54.78458 -0.32586238 30 3198475962112 1 0
4.1165657 -15.279641 -1.7045566 3 3198475962112 1 0
3.1905382 -19.127422 -1.8101786 2 3198475964416 1 0
14.603827 -54.237087 1.3070163 10 3198475964416 1 0
9.26492 -55.593445 0.656138 9 3198475966720 1 0
6.401833 -23.78952 -1.7227058 5 3198475966720 1 0
4.581758 -21.096378 -1.7623545 4 3198475969024 1 0
10.707422 -33.24337 1.0164232 72 3198475969024 1 0
11.886393 -54.76845 0.9782423 37 3198475971328 1 0
6.8698416 -21.339455 -1.4367422 5 3198475971328 1 0
3.839277 -23.099442 -1.3637089 5 3198475973632 1 1
13.139502 -48.91206 2.949509 35 3198475973632 1 0
11.84465 -54.65282 2.278305 64 3198475975936 1 0
7.5922713 -28.2788 -1.3639203 48 3198475975936 1 0
4.947887 -22.84627 -1.22508 3 3198475978240 1 1
10.090403 -37.60538 4.7806907 7 3198475978240 1 0
0 0 0 8 3198475980544 1 0
8.893997 -27.68219 -1.1845819 8 3198475980544 1 0
3.8201885 -23.06756 -0.81650865 39 3198475982848 1 1
6.4654965 -29.916746 5.580524 24 3198475985152 1 0
0 0 0 9 3198475982848 1 0
0 0 0 3 3198475985152 1 0
10.635348 -33.284832 -0.6099267 43 3198476005888 1 0
0 0 0 4 3198476005888 1 0
11.753162 -54.76531 -1.6301172 50 3198476008192 1 0
1.8194278 -8.48326 -1.7352458 5 3198476010496 1 0
1.5691745 -5.892218 -1.7069511 6 3198476008192 1 0
7.5333753 -28.302565 0 12 3198476010496 1 0
4.666851 -28.50656 -0.33628762 2 3198476012800 1 0
2.711058 -10.190694 -1.6405793 31 3198476012800 1 0
2.2663717 -10.580688 -1.3773338 3 3198476015104 1 0
10.614495 -33.279663 0.20302176 76 3198476015104 1 0
11.735113 -54.821102 -0.32583913 30 3198476017408 1 0
4.0684023 -15.308996 -1.7062702 3 3198476017408 1 0
3.1254218 -19.13817 -1.8101786 2 3198476019712 1 0
14.406835 -54.240097 1.3058996 21 3198476019712 1 0
14.056258 -86.142815 1.0161269 28 3198476022016 1 0
6.3252726 -23.826504 -1.723822 5 3198476022016 1 0
4.5313706 -21.209188 -1.7704909 4 3198476024320 1 0
10.590337 -33.26407 1.0159578 63 3198476024320 1 0
11.6989765 -54.792435 0.97796303 62 3198476026624 1 0
6.794476 -21.351004 -1.4359747 5 3198476026624 1 0
3.7902107 -23.285576 -1.3739413 2 3198476028928 1 1
14.348789 -54.135796 3.261599 71 3198476028928 1 0
11.662555 -54.691967 2.278305 100 3198476031232 1 0
7.4990654 -28.307793 -1.3641064 48 3198476031232 1 0
0 0 0 25 3198476033536 1 0
9.961578 -37.623283 4.778741 7 3198476033536 1 0
0 0 0 8 3198476035840 1 0
0 0 0 21 3198476035840 1 0
0 0 0 9 3198476038144 1 0
4.6072907 -28.399162 -1.0046867 28 3198476038144 1 0
6.374928 -29.972385 5.5869813 25 3198476040448 1 0
0 0 0 1 3198476040448 1 0
0 0 0 4 3198476061184 1 0
10.529523 -33.314266 -0.6098569 53 3198476061184 1 0
11.579859 -54.802216 -1.6301172 50 3198476063488 1 0
1.5515068 -5.900878 -1.7080295 7 3198476063488 1 0
1.7940181 -8.496688 -1.7368147 4 3198476065792 1 0
7.4462366 -28.338024 0 8 3198476065792 1 0
4.5557656 -28.398954 -0.3348441 2 3198476068096 1 0
2.2321963 -10.587952 -1.3773338 2 3198476070400 1 0
2.6783621 -10.199336 -1.6405793 30 3198476068096 1 0
10.504579 -33.306133 0.20297527 71 3198476070400 1 0
11.556021 -54.855045 -0.3258159 20 3198476072704 1 0
4.020634 -15.329834 -1.707127 3 3198476072704 1 0
3.0634046 -19.15223 -1.8105505 2 3198476075008 1 0
14.229258 -54.286953 1.3058996 21 3198476075008 1 0
13.770508 -86.1768 1.0159872 28 3198476077312 1 0
6.2528133 -23.870373 -1.7254962 5 3198476077312 1 0
4.463474 -21.235802 -1.7714673 4 3198476079616 1 0
10.47877 -33.295193 1.0158415 68 3198476079616 1 0
11.518483 -54.842922 0.9781725 12 3198476081920 1 0
0 0 0 49 3198476081920 1 0
3.697505 -23.207478 -1.3685925 5 3198476084224 1 1
14.158745 -54.15279 3.2597387 71 3198476084224 1 0
11.477543 -54.73109 2.278305 100 3198476086528 1 0
7.4022875 -28.329123 -1.3639203 48 3198476086528 1 0
9.833474 -37.65697 4.778741 7 3198476088832 1 0
4.7811522 -22.816448 -1.2217306 6 3198476088832 1 1
0 0 0 8 3198476091136 1 0
8.792566 -28.01213 -1.1961427 33 3198476091136 1 0
4.4962134 -28.331964 -1.0017551 28 3198476093440 1 0
0 0 0 9 3198476093440 1 0
6.2781677 -30.028984 5.5934386 25 3198476095744 1 0
14.1263895 -54.19811 -1.3032942 11 3198476095744 1 0
0 0 0 4 3198476116480 1 0
10.400202 -33.329727 -0.60943806 48 3198476116480 1 0
11.385006 -54.871613 -1.6309317 51 3198476118784 1 0
1.5289456 -5.902785 -1.7069511 6 3198476118784 1 0
1.7629879 -8.5031805 -1.7368147 4 3198476121088 1 0
7.3387256 -28.34953 0 8 3198476121088 1 0
4.4522676 -28.415363 -0.3348441 2 3198476123392 1 0
2.6421742 -10.212853 -1.6411942 30 3198476123392 1 0
2.1952918 -10.603769 -1.3783439 4 3198476125696 1 0
10.379837 -33.33265 0.20290554 71 3198476125696 1 0
11.356886 -54.896618 -0.3258159 20 3198476128000 1 0
3.9629886 -15.336622 -1.7062702 3 3198476128000 1 0
2.9940238 -19.163197 -1.8105505 2 3198476130304 1 0
14.028562 -54.322643 1.3055274 21 3198476130304 1 0
13.035795 -83.51502 0.984044 28 3198476132608 1 0
6.1734786 -23.91986 -1.7274493 5 3198476132608 1 0
4.386847 -21.251764 -1.7714673 4 3198476134912 1 0
10.355047 -33.32132 1.0154923 63 3198476134912 1 0
11.319373 -54.876194 0.9780328 21 3198476137216 1 0
6.6852617 -21.523428 -1.4444171 13 3198476137216 1 0
0 0 0 61 3198476139520 1 0
11.282054 -54.775803 2.278468 86 3198476141824 1 0
13.970089 -54.22651 3.261134 71 3198476139520 1 0
7.298682 -28.34774 -1.363548 43 3198476141824 1 0
5.980652 -29.058212 -1.5547966 9 3198476144128 1 0
9.69472 -37.676533 4.7767906 7 3198476144128 1 0
8.687756 -28.028078 -1.1954914 45 3198476146432 1 0
0 0 0 8 3198476146432 1 0
4.38359 -28.272749 -0.9991028 32 3198476148736 1 0
0 0 0 9 3198476148736 1 0
6.1824245 -30.105085 5.603483 20 3198476151040 1 0
7.2930865 -28.39441 -0.6821683 11 3198476151040 1 0
0 0 0 4 3198476171776 1 0
10.316779 -33.472843 -0.6113927 10 3198476171776 1 0
11.18701 -54.879677 -1.6300008 16 3198476174080 1 0
1.5073789 -5.9043536 -1.7058729 7 3198476174080 1 0
1.7340783 -8.513126 -1.7375993 5 3198476176384 1 0
7.240711 -28.378849 0 40 3198476176384 1 0
4.3318653 -28.292355 -0.33321437 2 3198476178688 1 0
2.6055322 -10.218184 -1.6405793 34 3198476178688 1 0
2.1630094 -10.634698 -1.3813744 5 3198476180992 1 0
0 0 0 3 3198476180992 1 0
0 0 0 100 3198476183296 1 0
3.9133558 -15.365778 -1.7079837 3 3198476183296 1 0
2.931922 -19.205029 -1.8135246 2 3198476185600 1 0
13.837869 -54.367405 1.3054343 21 3198476185600 1 0
13.150044 -86.22106 1.0153818 28 3198476187904 1 0
6.092896 -23.952868 -1.7282864 5 3198476187904 1 0
4.3165994 -21.286484 -1.7730947 4 3198476190208 1 0
0 0 0 6 3198476190208 1 0
11.126956 -54.911453 0.97796303 16 3198476192512 1 0
6.605407 -21.531368 -1.4433937 5 3198476192512 1 0
4.2798615 -28.144207 -1.6578923 19 3198476194816 1 0
13.771873 -54.24011 3.259041 71 3198476194816 1 0
11.08999 -54.810932 2.278305 100 3198476197120 1 0
7.198703 -28.369171 -1.363362 43 3198476197120 1 0
0 0 0 93 3198476199424 1 0
0 0 0 8 3198476201728 1 0
9.561193 -37.702446 4.775816 7 3198476199424 1 0
8.584016 -28.039125 -1.1946772 12 3198476201728 1 0
4.2776885 -28.240448 -0.99742764 40 3198476204032 1 0
0 0 0 9 3198476204032 1 0
6.090529 -30.192059 5.61568 15 3198476206336 1 0
7.1811705 -28.369299 -0.6809586 34 3198476206336 1 0
0 0 0 4 3198476227072 1 0
12.354449 -40.58687 -0.7405405 49 3198476227072 1 0
10.990666 -54.89487 -1.6293026 33 3198476229376 1 0
1.4876995 -5.913315 -1.7069511 6 3198476229376 1 0
1.7043514 -8.519128 -1.7375993 4 3198476231680 1 0
0 0 0 3 3198476231680 1 0
4.231897 -28.29939 -0.33312124 24 3198476233984 1 0
2.5688848 -10.223384 -1.6399645 15 3198476233984 1 0
2.1266515 -10.646074 -1.3818794 7 3198476236288 1 0
12.594083 -41.46068 0.25184184 76 3198476236288 1 0
0 0 0 19 3198476238592 1 0
3.866472 -15.406346 -1.7109824 3 3198476238592 1 0
2.8642786 -19.211206 -1.8131529 2 3198476240896 1 0
13.645088 -54.40374 1.3051552 21 3198476240896 1 0
19.741941 -132.54475 1.5600914 28 3198476243200 1 0
6.0170093 -24.004953 -1.7305186 5 3198476243200 1 0
4.243048 -21.30533 -1.7734201 4 3198476245504 1 0
12.562532 -41.443497 1.2603183 72 3198476245504 1 0
10.939115 -54.96957 0.9783121 11 3198476247808 1 0
7.645969 -25.237091 -1.690014 74 3198476247808 1 0
13.581487 -54.283978 3.2588084 71 3198476250112 1 0
4.192152 -28.230074 -1.6620784 15 3198476250112 1 0
10.900154 -54.85715 2.2786307 64 3198476252416 1 0
7.10254 -28.405756 -1.3639203 48 3198476252416 1 0
4.5306306 -22.818644 -1.2192185 57 3198476254720 1 1
9.426641 -37.724037 4.7743535 7 3198476254720 1 0
0 0 0 8 3198476257024 1 0
8.434041 -27.896763 -1.1873499 53 3198476257024 1 0
4.190783 -28.3343 -1.0002196 20 3198476259328 1 0
0 0 0 9 3198476259328 1 0
6.0003953 -30.290339 5.6300297 15 3198476261632 1 0
13.560313 -54.367233 -1.3038524 33 3198476261632 1 0
0 0 0 4 3198476282368 1 0
12.474039 -41.49918 -0.7563873 51 3198476282368 1 0
1.4679759 -5.9222107 -1.7080295 5 3198476284672 1 0
1.6761158 -8.532722 -1.7391682 4 3198476286976 1 0
0 0 0 28 3198476284672 1 0
13.485619 -54.438526 0 22 3198476286976 1 0
7.9640226 -54.55806 -0.64188933 7 3198476289280 1 0
2.533183 -10.232288 -1.6399645 8 3198476289280 1 0
2.0917678 -10.665114 -1.3833947 9 3198476291584 1 0
12.443535 -41.48523 0.2517256 61 3198476291584 1 0
5.7234106 -29.203943 -0.17296255 34 3198476293888 1 0
3.8117156 -15.415889 -1.710554 2 3198476293888 1 0
2.7983487 -19.22897 -1.8138964 2 3198476296192 1 0
13.461816 -54.478214 1.3058066 21 3198476296192 1 0
12.752069 -87.7159 1.0319122 28 3198476298496 1 0
5.9389195 -24.049053 -1.7321928 5 3198476298496 1 0
4.171713 -21.335663 -1.7747219 4 3198476300800 1 0
12.410912 -41.46411 1.2596201 42 3198476300800 1 0
7.5669813 -25.294222 -1.6920607 38 3198476303104 1 0
10.743334 -54.987797 0.97796303 87 3198476303104 1 0
4.307801 -29.722563 -1.7490543 8 3198476305408 1 0
13.388095 -54.315544 3.257878 70 3198476305408 1 0
7.010032 -28.457533 -1.3652232 48 3198476307712 1 0
10.708601 -54.894867 2.2786307 86 3198476307712 1 0
4.450951 -22.83432 -1.2192185 54 3198476310016 1 1
9.293954 -37.752857 4.7738657 7 3198476310016 1 0
0 0 0 8 3198476312320 1 0
8.368624 -28.033264 -1.1919092 100 3198476312320 1 0
4.1055584 -28.443712 -1.00357 24 3198476314624 1 0
0 0 0 9 3198476314624 1 0
5.914157 -30.41153 5.648684 15 3198476316928 1 0
13.370454 -54.414238 -1.3038524 45 3198476316928 1 0
0 0 0 4 3198476337664 1 0
11.891013 -40.06634 -0.7295106 35 3198476337664 1 0
0 0 0 18 3198476339968 1 0
1.4482082 -5.931041 -1.7091078 6 3198476339968 1 0
1.6470634 -8.542373 -1.7399526 2 3198476342272 1 0
13.294562 -54.48138 0 22 3198476342272 1 0
11.932948 -83.79285 -0.98534787 28 3198476344576 1 0
2.4965138 -10.237228 -1.6393496 8 3198476344576 1 0
2.0537767 -10.668454 -1.3828896 8 3198476346880 1 0
12.295241 -41.51691 0.25165588 61 3198476346880 1 0
0 0 0 19 3198476349184 1 0
3.7607043 -15.440692 -1.7118392 2 3198476349184 1 0
2.7323296 -19.246508 -1.81464 2 3198476351488 1 0
13.274406 -54.53653 1.3060857 21 3198476351488 1 0
12.1077175 -85.37589 1.0038805 28 3198476353792 1 0
5.865311 -24.112288 -1.735262 5 3198476353792 1 0
4.100218 -21.365757 -1.7760237 4 3198476356096 1 0
12.263833 -41.49951 1.2593874 66 3198476356096 1 0
10.555844 -55.04853 0.97838193 50 3198476358400 1 0
7.498995 -25.38939 -1.6966656 38 3198476358400 1 0
4.2096133 -29.776958 -1.7513798 8 3198476360704 1 0
13.1974745 -54.358067 3.2576456 70 3198476360704 1 0
10.515413 -54.92406 2.278305 64 3198476363008 1 0
6.9172487 -28.50901 -1.366526 48 3198476363008 1 0
0 0 0 8 3198476365312 1 0
9.158373 -37.769634 4.771916 7 3198476365312 1 0
8.287666 -28.11981 -1.1943516 41 3198476367616 1 0
0 0 0 8 3198476367616 1 0
4.0212927 -28.56475 -1.0073391 24 3198476369920 1 0
0 0 0 9 3198476369920 1 0
13.173846 -54.43337 -1.3032011 56 3198476372224 1 0
5.8315716 -30.555681 5.6716433 15 3198476372224 1 0
11.703855 -39.946404 -0.7265786 56 3198476392960 1 0
10.423399 -55.050163 -1.6305826 51 3198476395264 1 0
0 0 0 4 3198476392960 1 0
1.4265956 -5.9323144 -1.7080295 5 3198476395264 1 0
13.104305 -54.52746 0 22 3198476397568 1 0
11.571623 -83.33877 -0.9795273 14 3198476399872 1 0
1.617235 -8.54807 -1.7399526 3 3198476397568 1 0
2.4589179 -10.238194 -1.6381197 8 3198476399872 1 0
2.017261 -10.679458 -1.3833947 10 3198476402176 1 0
12.146878 -41.548058 0.2515861 61 3198476402176 1 0
10.3970785 -55.08646 -0.3258159 20 3198476404480 1 0
2.666768 -19.267763 -1.8157554 2 3198476406784 1 0
3.7104938 -15.469194 -1.7135528 3 3198476404480 1 0
13.083958 -54.582535 1.3060857 21 3198476406784 1 0
12.08297 -87.39469 1.0271161 28 3198476409088 1 0
5.7866855 -24.155897 -1.7369362 5 3198476409088 1 0
4.0270877 -21.387774 -1.7766746 4 3198476411392 1 0
12.114419 -41.526714 1.258922 66 3198476411392 1 0
10.360667 -55.069317 0.9781027 37 3198476413696 1 0
7.430436 -25.484394 -1.7012706 24 3198476413696 1 0
4.1154594 -29.862675 -1.7555659 12 3198476416000 1 0
10.323628 -54.96043 2.278305 64 3198476418304 1 0
13.005793 -54.396034 3.2571805 70 3198476416000 1 0
6.824192 -28.560186 -1.367829 48 3198476418304 1 0
4.2855353 -22.83343 -1.2175437 3 3198476420608 1 1
9.030165 -37.816822 4.7738657 7 3198476420608 1 0
0 0 0 8 3198476422912 1 0
8.150382 -28.014254 -1.1886526 37 3198476422912 1 0
3.9367752 -28.689507 -1.0112479 28 3198476425216 1 0
0 0 0 9 3198476425216 1 0
5.754569 -30.734436 5.70106 10 3198476427520 1 0
12.982831 -54.475136 -1.3031081 78 3198476427520 1 0
0 0 0 4 3198476448256 1 0
11.542122 -39.910175 -0.7251824 56 3198476448256 1 0
4.2516565 -22.890644 -0.6775767 37 3198476450560 1 1
1.40681 -5.940996 -1.7091078 6 3198476450560 1 0
1.5875112 -8.55364 -1.7399526 4 3198476452864 1 0
12.945082 -54.70113 0 22 3198476452864 1 0
11.042721 -81.60668 -0.95871305 14 3198476455168 1 0
2.4233885 -10.246662 -1.6381197 8 3198476455168 1 0
1.9802812 -10.686377 -1.3833947 9 3198476457472 1 0
11.999657 -41.578327 0.25151637 53 3198476457472 1 0
0 0 0 106 3198476459776 1 0
2.6019332 -19.288681 -1.8168707 2 3198476462080 1 0
3.6597793 -15.49353 -1.7148379 2 3198476459776 1 0
12.892977 -54.615635 1.3058066 21 3198476462080 1 0
11.812729 -87.66168 1.0297703 28 3198476464384 1 0
