# .PCD v.7 - Point Cloud Data file format
VERSION .7
FIELDS x y z rgb timestamp_ns device_id active
SIZE 4 4 4 4 8 1 1
TYPE F F F F F U U
COUNT 1 1 1 1 1 1 1
WIDTH 1026
HEIGHT 1
VIEWPOINT 0 0 0 1 0 0 0
POINTS 1026               
DATA ascii
8.170494 2.2556438 -1.6952379 1 3203750143680 1 0
0 0 0 11 3203750143680 1 0
58.63509 13.133361 -0.69953597 9 3203750145984 1 0
10.117517 3.3313632 -1.6571819 2 3203750145984 1 0
12.43958 3.4303246 -1.6424971 3 3203750148288 1 0
44.3543 17.040827 0.2761589 28 3203750148288 1 0
48.36784 13.330292 -0.29159534 28 3203750150592 1 0
13.823163 4.547053 -1.5674725 3 3203750150592 1 0
16.083452 3.5950773 -1.5384102 2 3203750152896 1 0
42.17874 13.867664 1.0331626 225 3203750152896 1 0
20.246733 6.653524 -1.4902773 5 3203750155200 1 0
76.083694 16.995102 0.9075854 26 3203750155200 1 0
17.80496 4.898731 -1.5075209 3 3203750157504 1 0
43.38676 16.640139 1.3523607 20 3203750157504 1 0
21.60343 8.281966 -1.4827915 4 3203750159808 1 0
0 0 0 10 3203750159808 1 0
23.221724 5.176487 -1.3855691 5 3203750162112 1 0
49.81007 16.344612 3.0529962 59 3203750162112 1 0
46.740776 12.837993 1.9747916 10 3203750164416 1 0
27.119677 8.894648 -1.3294873 4 3203750164416 1 0
26.213001 7.1956587 -1.4245847 4 3203750166720 1 0
49.455605 16.212366 6.390341 48 3203750166720 1 0
46.370583 12.721808 3.9253476 117 3203750169024 1 0
30.230997 11.569293 -1.318753 5 3203750169024 1 0
32.9003 7.313905 -1.1769506 5 3203750171328 1 0
49.338135 16.157965 13.911006 24 3203750171328 1 0
49.633667 13.601515 9.383144 14 3203750173632 1 0
42.5123 13.915695 -1.0408859 23 3203750173632 1 0
0 0 0 8 3203750194368 1 0
47.91839 18.250355 -0.8950292 9 3203750194368 1 0
39.861294 10.861208 -1.2023699 8 3203750196672 1 0
0 0 0 1 3203750196672 1 0
8.174534 2.2260792 -1.6944534 1 3203750198976 1 0
0 0 0 7 3203750198976 1 0
58.680576 12.928606 -0.69953597 9 3203750201280 1 0
10.121568 3.29358 -1.6559521 4 3203750201280 1 0
12.447649 3.38584 -1.641992 3 3203750203584 1 0
44.49203 16.915749 0.2766471 28 3203750203584 1 0
50.162586 13.636708 -0.30212653 28 3203750205888 1 0
13.827604 4.495085 -1.5661873 3 3203750205888 1 0
16.080343 3.535493 -1.5369232 2 3203750208192 1 0
42.299152 13.743828 1.0349306 224 3203750208192 1 0
76.24022 16.750874 0.9087495 26 3203750210496 1 0
20.269835 6.5828094 -1.4902773 5 3203750210496 1 0
17.818104 4.8355064 -1.5071955 3 3203750212800 1 0
43.676346 16.576551 1.3595752 21 3203750212800 1 0
47.786 12.960781 0.86424315 18 3203750215104 1 0
21.609816 8.19801 -1.4812566 4 3203750215104 1 0
23.23575 5.094541 -1.3853366 5 3203750217408 1 0
49.832634 16.159557 3.0509033 59 3203750217408 1 0
46.769875 12.670578 1.9741403 31 3203750219712 1 0
27.047934 8.7666645 -1.3244619 4 3203750219712 1 0
26.237959 7.1041145 -1.4245847 4 3203750222016 1 0
49.46657 16.024952 6.384491 48 3203750222016 1 0
0 0 0 20 3203750224320 1 0
30.177755 11.42831 -1.3146824 5 3203750224320 1 0
32.91782 7.197309 -1.1766714 5 3203750226624 1 0
49.394238 15.985644 13.911006 36 3203750226624 1 0
49.597267 13.405589 9.367359 14 3203750228928 1 0
42.594856 13.778292 -1.0417234 23 3203750228928 1 0
0 0 0 8 3203750249664 1 0
45.79996 17.260704 -0.8543302 8 3203750249664 1 0
39.732925 10.677381 -1.1973664 8 3203750251968 1 0
0 0 0 1 3203750251968 1 0
8.182254 2.1975312 -1.6944534 1 3203750254272 1 0
43.27952 13.923313 0 30 3203750254272 1 0
57.185192 12.389997 -0.6811896 8 3203750256576 1 0
10.125478 3.2558093 -1.6547223 3 3203750256576 1 0
12.447894 3.3392844 -1.6404768 3 3203750258880 1 0
44.397312 16.702595 0.27569392 28 3203750258880 1 0
50.17125 13.451167 -0.30189404 28 3203750261184 1 0
13.835638 4.4443574 -1.5653305 3 3203750261184 1 0
16.100372 3.4810238 -1.5376667 2 3203750263488 1 0
42.384945 13.608316 1.0358611 117 3203750263488 1 0
75.98937 16.417915 0.90507096 26 3203750265792 1 0
20.281292 6.5083566 -1.4894402 5 3203750265792 1 0
17.815619 4.7681265 -1.5055683 3 3203750268096 1 0
43.79383 16.446482 1.361437 21 3203750268096 1 0
50.14909 13.413958 0.90612894 21 3203750270400 1 0
21.634562 8.121125 -1.4810008 4 3203750270400 1 0
23.206549 5.003303 -1.382546 5 3203750272704 1 0
49.873524 15.980637 3.049973 58 3203750272704 1 0
27.047928 8.662447 -1.3229729 4 3203750275008 1 0
50.180832 13.406808 2.1161273 28 3203750275008 1 0
26.224005 7.0021787 -1.4224913 4 3203750277312 1 0
49.49952 15.844921 6.3815665 48 3203750277312 1 0
0 0 0 8 3203750279616 1 0
30.157583 11.300462 -1.312077 5 3203750279616 1 0
32.825493 7.0571537 -1.1724834 5 3203750281920 1 0
49.431335 15.807244 13.905829 36 3203750281920 1 0
49.704597 13.248596 9.3788395 14 3203750284224 1 0
41.320942 13.207064 -1.0094342 21 3203750284224 1 0
0 0 0 8 3203750304960 1 0
39.57671 10.487413 -1.1915482 8 3203750307264 1 0
0 0 0 1 3203750307264 1 0
8.182292 2.166948 -1.6928844 1 3203750309568 1 0
44.784447 16.699688 -0.83429486 16 3203750304960 1 0
41.231224 13.1057205 0 82 3203750309568 1 0
58.182613 12.393632 -0.6925513 18 3203750311872 1 0
10.136781 3.220445 -1.6547223 3 3203750311872 1 0
44.35788 16.511238 0.2750895 28 3203750314176 1 0
12.455639 3.2947981 -1.6399717 3 3203750314176 1 0
50.210163 13.27391 -0.30184755 28 3203750316480 1 0
13.843486 4.3936286 -1.5644736 3 3203750316480 1 0
16.104633 3.4231455 -1.5369232 2 3203750318784 1 0
83.198166 17.671669 0.9901905 28 3203750321088 1 0
0 0 0 3 3203750318784 1 0
20.185972 6.4001365 -1.4807904 5 3203750321088 1 0
17.824444 4.7038746 -1.5049173 3 3203750323392 1 0
43.33001 16.09994 1.3452626 20 3203750323392 1 0
50.187874 13.236783 0.90598935 21 3203750325696 1 0
21.655294 8.042778 -1.4804891 4 3203750325696 1 0
23.219967 4.9214387 -1.3823134 2 3203750328000 1 0
49.89855 15.796806 3.0481126 58 3203750328000 1 0
50.339405 13.261088 2.1208494 43 3203750330304 1 0
27.07419 8.566774 -1.3227868 4 3203750330304 1 0
26.236698 6.907546 -1.4218633 4 3203750332608 1 0
49.501534 15.655279 6.3747416 47 3203750332608 1 0
50.22182 13.214492 4.2394147 19 3203750334912 1 0
30.163118 11.18262 -1.3106116 5 3203750334912 1 0
32.92815 6.95906 -1.1752754 5 3203750337216 1 0
49.720093 13.067013 9.373099 14 3203750339520 1 0
49.464108 15.627617 13.899618 24 3203750337216 1 0
41.33247 13.0519085 -1.0085967 65 3203750339520 1 0
0 0 0 8 3203750360256 1 0
42.786266 15.784687 -0.79603916 23 3203750360256 1 0
39.85292 10.411862 -1.1987628 8 3203750362560 1 0
0 0 0 1 3203750362560 1 0
8.189806 2.1383734 -1.6928844 2 3203750364864 1 0
41.250008 12.953328 0 87 3203750364864 1 0
0 0 0 28 3203750367168 1 0
10.140418 3.1826742 -1.6534925 3 3203750367168 1 0
12.459385 3.2492971 -1.6389616 3 3203750369472 1 0
42.726166 15.734282 0.26462805 25 3203750369472 1 0
51.07289 13.311424 -0.3067528 19 3203750371776 1 0
13.839765 4.33933 -1.5623318 3 3203750371776 1 0
16.10479 3.3644657 -1.5358077 2 3203750374080 1 0
0 0 0 1 3203750374080 1 0
84.14421 17.56587 1.0007141 28 3203750376384 1 0
20.192959 6.3248644 -1.4796743 5 3203750376384 1 0
17.825321 4.637612 -1.5036155 3 3203750378688 1 0
0 0 0 13 3203750378688 1 0
55.091484 14.32459 0.9936004 25 3203750380992 1 0
21.578323 7.9285893 -1.4733258 4 3203750380992 1 0
23.248732 4.8427987 -1.383011 5 3203750383296 1 0
49.93814 15.617764 3.0471823 58 3203750383296 1 0
50.42407 13.095337 2.1224775 14 3203750385600 1 0
27.084862 8.466255 -1.3218561 4 3203750385600 1 0
49.514194 15.469368 6.3693795 47 3203750387904 1 0
26.26065 6.815921 -1.4218633 4 3203750387904 1 0
66.65306 17.289375 5.621309 28 3203750390208 1 0
32.94833 6.843264 -1.1751359 5 3203750392512 1 0
30.08565 11.034599 -1.3055639 4 3203750390208 1 0
49.38558 15.41342 13.862348 36 3203750392512 1 0
49.620647 12.855874 9.345836 13 3203750394816 1 0
41.28616 12.878971 -1.0063634 14 3203750394816 1 0
0 0 0 8 3203750415552 1 0
39.64896 10.210863 -1.1915482 8 3203750417856 1 0
42.687065 15.579021 -0.79317695 38 3203750415552 1 0
0 0 0 1 3203750417856 1 0
8.193422 2.108795 -1.6920999 2 3203750420160 1 0
41.3752 12.834146 0 61 3203750420160 1 0
0 0 0 28 3203750422464 1 0
10.143916 3.1449172 -1.6522627 2 3203750422464 1 0
12.462965 3.2038102 -1.6379514 3 3203750424768 1 0
0 0 0 19 3203750424768 1 0
56.0818 14.408053 -0.33653304 31 3203750427072 1 0
13.851028 4.2898173 -1.5619034 3 3203750427072 1 0
16.116436 3.308229 -1.5358077 2 3203750429376 1 0
46.26498 14.321404 1.1269596 8 3203750429376 1 0
0 0 0 9 3203750431680 1 0
20.20729 6.251981 -1.4791163 5 3203750431680 1 0
17.818232 4.56942 -1.5016627 3 3203750433984 1 0
42.60717 15.493707 1.3194302 53 3203750433984 1 0
55.094658 14.120283 0.9927627 25 3203750436288 1 0
23.234198 4.755211 -1.3811506 5 3203750438592 1 0
21.583359 7.8450365 -1.4717909 4 3203750436288 1 0
49.9542 15.431566 3.0448568 58 3203750438592 1 0
67.39717 17.252419 2.8343666 29 3203750440896 1 0
27.091341 8.364587 -1.3207394 4 3203750440896 1 0
26.179794 6.697482 -1.416211 4 3203750443200 1 0
49.529953 15.28473 6.364505 47 3203750443200 1 0
67.717255 17.313366 5.705928 28 3203750445504 1 0
30.105198 10.922698 -1.3047497 4 3203750445504 1 0
32.85843 6.7050323 -1.1710875 5 3203750447808 1 0
49.450157 15.244352 13.865454 36 3203750447808 1 0
49.684284 12.687455 9.349422 13 3203750450112 1 0
40.8952 12.600541 -0.99575543 14 3203750450112 1 0
0 0 0 8 3203750471296 1 0
42.737427 15.428563 -0.79310715 31 3203750471296 1 0
39.43246 10.008464 -1.1839848 8 3203750473600 1 0
0 0 0 1 3203750473600 1 0
8.196931 2.0792174 -1.6913155 1 3203750475904 1 0
42.513565 13.024751 0 72 3203750475904 1 0
10.151052 3.1083322 -1.6516477 3 3203750478208 1 0
12.458687 3.1563888 -1.6359311 3 3203750480512 1 0
42.67692 15.378662 0.26365164 43 3203750480512 1 0
56.548912 11.42794 -0.6716439 8 3203750478208 1 0
56.07746 14.198459 -0.33620757 10 3203750482816 1 0
13.854509 4.2379518 -1.5606182 3 3203750482816 1 0
16.116173 3.2495904 -1.5346924 2 3203750485120 1 0
46.704758 14.279078 1.1364509 16 3203750485120 1 0
0 0 0 21 3203750487424 1 0
17.822477 4.504264 -1.5006863 3 3203750489728 1 0
20.236622 6.183738 -1.4796743 5 3203750487424 1 0
42.67604 15.350299 1.3198957 26 3203750489728 1 0
53.200928 13.437207 0.95778805 23 3203750492032 1 0
23.227165 4.6693573 -1.3797553 5 3203750494336 1 0
21.603098 7.7669477 -1.4712793 4 3203750492032 1 0
68.6777 17.324997 2.8856578 29 3203750496640 1 0
49.984844 15.250108 3.0434616 58 3203750494336 1 0
27.124197 8.271134 -1.3209256 4 3203750496640 1 0
26.191395 6.6031275 -1.4155829 4 3203750498944 1 0
49.54123 15.099012 6.3591423 47 3203750498944 1 0
68.86746 17.351563 5.797707 28 3203750501248 1 0
30.146904 10.818895 -1.3049126 14 3203750501248 1 0
32.858112 6.585581 -1.1702499 5 3203750503552 1 0
49.632866 12.48994 9.331486 13 3203750505856 1 0
42.247326 12.855857 -1.0275794 15 3203750505856 1 0
0 0 0 8 3203750526592 1 0
42.83245 15.294081 -0.79387504 15 3203750526592 1 0
49.517853 15.076147 13.869595 36 3203750503552 1 0
39.47879 9.873669 -1.1843338 8 3203750528896 1 0
0 0 0 1 3203750528896 1 0
8.200334 2.049641 -1.690531 2 3203750531200 1 0
0 0 0 7 3203750531200 1 0
56.965088 11.305223 -0.6761141 8 3203750533504 1 0
10.150491 3.0694473 -1.649803 5 3203750533504 1 0
12.458079 3.1099975 -1.6344159 3 3203750535808 1 0
54.609222 13.624044 -0.32711774 10 3203750538112 1 0
13.850183 4.1838145 -1.5584762 3 3203750538112 1 0
42.741646 15.233627 0.2637214 34 3203750535808 1 0
16.12351 3.1925411 -1.5343207 2 3203750540416 1 0
43.971184 13.275683 1.0688018 22 3203750540416 1 0
87.09365 17.231844 1.0335885 57 3203750542720 1 0
20.246624 6.1096034 -1.4788373 5 3203750542720 1 0
17.81101 4.4352813 -1.4984081 3 3203750545024 1 0
42.729366 15.201239 1.3198957 59 3203750545024 1 0
54.473907 13.556627 0.9798479 37 3203750547328 1 0
21.615034 7.686142 -1.470256 6 3203750547328 1 0
23.16497 4.572784 -1.3751041 5 3203750549632 1 0
50.018654 15.069776 3.0422988 58 3203750549632 1 0
69.64536 17.310753 2.9237597 29 3203750551936 1 0
26.206532 6.509736 -1.4151642 8 3203750554240 1 0
27.14525 8.174099 -1.3205533 4 3203750551936 1 0
69.504135 17.254185 5.8462 28 3203750556544 1 0
30.048893 10.66547 -1.2990507 39 3203750556544 1 0
49.574627 14.920269 6.356705 47 3203750554240 1 0
32.86521 6.4677567 -1.1696916 5 3203750558848 1 0
49.69144 12.3204 9.334355 13 3203750561152 1 0
0 0 0 29 3203750561152 1 0
49.451775 14.867608 13.836466 24 3203750558848 1 0
0 0 0 8 3203750581888 1 0
42.832783 15.125831 -0.7928977 23 3203750581888 1 0
39.36542 9.6997385 -1.1799121 8 3203750584192 1 0
8.195984 2.0183096 -1.6881776 2 3203750586496 1 0
0 0 0 1 3203750584192 1 0
0 0 0 107 3203750586496 1 0
57.266994 11.158807 -0.6792339 8 3203750588800 1 0
10.1610775 3.0342183 -1.649803 4 3203750588800 1 0
12.472623 3.0678022 -1.634921 3 3203750591104 1 0
68.5462 16.849777 -0.41025135 60 3203750593408 1 0
42.77149 15.077604 0.2635819 25 3203750591104 1 0
13.85693 4.1336737 -1.5576195 3 3203750593408 1 0
16.1266 3.135424 -1.5335771 2 3203750595712 1 0
43.89022 13.0863285 1.0657309 22 3203750595712 1 0
87.250565 16.951233 1.0347526 28 3203750598016 1 0
20.256048 6.0365047 -1.4780002 5 3203750598016 1 0
17.80677 4.3693686 -1.4967809 3 3203750600320 1 0
0 0 0 249 3203750600320 1 0
72.364494 17.745968 1.3005533 24 3203750602624 1 0
21.629938 7.6080875 -1.4694884 6 3203750602624 1 0
23.153023 4.488261 -1.3734763 2 3203750604928 1 0
50.058388 14.89531 3.041601 58 3203750604928 1 0
27.077225 8.052993 -1.3159002 4 3203750607232 1 0
26.232414 6.4214573 -1.4153736 12 3203750609536 1 0
49.575645 14.736754 6.3503675 46 3203750609536 1 0
76.07206 18.610611 6.393295 28 3203750611840 1 0
29.971811 10.523637 -1.2941658 34 3203750611840 1 0
70.53861 17.277544 2.958768 29 3203750607232 1 0
32.886944 6.3563447 -1.1696916 5 3203750614144 1 0
0 0 0 29 3203750616448 1 0
49.46854 14.69004 13.827148 24 3203750614144 1 0
0 0 0 1 3203750616448 1 0
0 0 0 8 3203750637184 1 0
39.370243 9.562253 -1.1790975 8 3203750639488 1 0
42.87893 14.982389 -0.7928279 15 3203750637184 1 0
0 0 0 1 3203750639488 1 0
8.198849 1.9900752 -1.6873932 2 3203750641792 1 0
0 0 0 7 3203750641792 1 0
57.174286 10.94278 -0.6776973 17 3203750644096 1 0
10.163567 2.998048 -1.6485732 3 3203750644096 1 0
12.471247 3.023257 -1.6334057 3 3203750646400 1 0
0 0 0 247 3203750646400 1 0
13.859265 4.0838227 -1.5563343 3 3203750648704 1 0
68.781136 16.663206 -0.41132075 60 3203750648704 1 0
16.129221 3.079731 -1.5328336 2 3203750651008 1 0
43.891747 12.926368 1.0647074 22 3203750651008 1 0
87.57824 16.709084 1.0379655 28 3203750653312 1 0
20.25329 5.961508 -1.476326 5 3203750653312 1 0
17.809788 4.3064475 -1.4958044 3 3203750655616 1 0
42.03887 14.634 1.2954596 220 3203750655616 1 0
73.50092 17.761377 1.3198906 25 3203750657920 1 0
21.640461 7.5296535 -1.4684651 4 3203750657920 1 0
23.132793 4.4030538 -1.3713832 2 3203750660224 1 0
50.070267 14.714326 3.0392754 58 3203750660224 1 0
71.9256 17.35856 3.0144556 29 3203750662528 1 0
27.092916 7.9576106 -1.3153418 8 3203750662528 1 0
0 0 0 51 3203750664832 1 0
76.30175 18.391216 6.4072895 28 3203750667136 1 0
49.595036 14.558998 6.346468 46 3203750664832 1 0
29.966 10.406929 -1.2923747 9 3203750667136 1 0
32.88491 6.2394314 -1.168854 5 3203750669440 1 0
49.466553 14.505653 13.8126545 24 3203750669440 1 0
0 0 0 29 3203750671744 1 0
42.596203 12.484252 -1.0328834 7 3203750671744 1 0
0 0 0 8 3203750692480 1 0
39.23617 9.384772 -1.174094 8 3203750694784 1 0
0 0 0 1 3203750694784 1 0
8.205746 1.9614438 -1.6873932 2 3203750697088 1 0
42.866703 14.81042 -0.7916412 15 3203750692480 1 0
0 0 0 7 3203750697088 1 0
56.512413 10.611745 -0.66940886 17 3203750699392 1 0
10.170176 2.9614472 -1.6479583 3 3203750699392 1 0
12.474005 2.977863 -1.6323956 3 3203750701696 1 0
42.060555 14.504511 0.25858366 222 3203750701696 1 0
68.84277 16.42394 -0.411344 20 3203750704000 1 0
13.86198 4.032088 -1.5550492 3 3203750704000 1 0
16.132044 3.021944 -1.5320901 2 3203750706304 1 0
46.29048 13.45739 1.1217486 24 3203750706304 1 0
75.18512 14.072776 0.8904963 25 3203750708608 1 0
20.273977 5.8907743 -1.476326 5 3203750708608 1 0
17.813076 4.241483 -1.4948281 3 3203750710912 1 0
42.063236 14.478059 1.2946451 223 3203750710912 1 0
21.651514 7.448874 -1.4674418 4 3203750713216 1 0
23.155874 4.3237443 -1.3718483 5 3203750715520 1 0
74.74526 17.786156 1.3411127 26 3203750713216 1 0
50.105984 14.535008 3.0383453 58 3203750715520 1 0
73.043396 17.358736 3.0587451 29 3203750717824 1 0
27.105179 7.8585396 -1.3145972 4 3203750717824 1 0
26.209991 6.224767 -1.4118148 41 3203750720128 1 0
49.60742 14.374741 6.3415933 46 3203750720128 1 0
76.17153 18.07873 6.3910165 28 3203750722432 1 0
29.990803 10.298371 -1.2918862 4 3203750722432 1 0
32.87898 6.119483 -1.1678767 5 3203750724736 1 0
49.505753 14.329671 13.809549 36 3203750724736 1 0
0 0 0 29 3203750727040 1 0
0 0 0 8 3203750747776 1 0
42.84245 14.634841 -0.79024494 15 3203750747776 1 0
42.55117 12.309928 -1.0307432 7 3203750727040 1 0
39.210316 9.234007 -1.1723485 8 3203750750080 1 0
0 0 0 1 3203750750080 1 0
8.208724 1.9318899 -1.6866087 1 3203750752384 1 0
45.63464 13.122882 0 17 3203750752384 1 0
0 0 0 28 3203750754688 1 0
10.172853 2.9237452 -1.6467284 2 3203750754688 1 0
12.472735 2.9315789 -1.6308804 3 3203750756992 1 0
42.122288 14.361477 0.2586534 101 3203750756992 1 0
75.60508 17.758535 -0.45137647 26 3203750759296 1 0
13.86068 3.9792862 -1.5533355 3 3203750759296 1 0
16.14641 2.9663339 -1.5324618 2 3203750761600 1 0
46.3218 13.291312 1.1213764 24 3203750761600 1 0
75.08036 13.782082 0.8886803 25 3203750763904 1 0
17.812248 4.175638 -1.4935262 3 3203750766208 1 0
41.931828 14.269315 1.2890598 218 3203750766208 1 0
20.28291 5.816669 -1.4754889 5 3203750763904 1 0
75.93614 17.789688 1.3613576 27 3203750768512 1 0
21.567787 7.3359733 -1.4600227 6 3203750768512 1 0
23.139402 4.237135 -1.3699878 2 3203750770816 1 0
46.7973 13.398287 2.8348587 15 3203750770816 1 0
74.259346 17.374079 3.1071053 29 3203750773120 1 0
27.113237 7.758381 -1.3136667 4 3203750773120 1 0
26.200443 6.125964 -1.41014 8 3203750775424 1 0
49.630577 14.193849 6.338181 46 3203750775424 1 0
29.950878 10.167925 -1.2886297 4 3203750777728 1 0
76.23418 17.81273 6.3910165 28 3203750777728 1 0
32.83722 5.9931927 -1.1656432 5 3203750780032 1 0
49.58891 14.166328 13.818867 36 3203750780032 1 0
0 0 0 29 3203750782336 1 0
42.378548 12.099839 -1.0255322 7 3203750782336 1 0
0 0 0 8 3203750803072 1 0
41.91188 14.153784 -0.7721643 15 3203750803072 1 0
39.253994 9.099791 -1.1726977 8 3203750805376 1 0
0 0 0 1 3203750805376 1 0
8.219239 1.9041096 -1.6873932 1 3203750807680 1 0
46.526737 13.203754 0 26 3203750807680 1 0
10.179194 2.8871388 -1.6461135 3 3203750809984 1 0
0 0 0 28 3203750809984 1 0
12.486758 2.8889174 -1.6313854 3 3203750812288 1 0
42.05087 14.173472 0.25790948 217 3203750812288 1 0
13.866833 3.928711 -1.5524788 3 3203750814592 1 0
16.140987 2.9071305 -1.5309747 3 3203750816896 1 0
75.744545 17.512537 -0.4518414 26 3203750814592 1 0
75.06109 13.507875 0.88788867 25 3203750819200 1 0
46.45256 13.153507 1.1234236 24 3203750816896 1 0
20.187906 5.713236 -1.4671181 5 3203750819200 1 0
17.811176 4.1098514 -1.4922245 3 3203750821504 1 0
76.03675 17.5335 1.3620557 54 3203750823808 1 0
21.578127 7.2555537 -1.4589994 4 3203750823808 1 0
23.13833 4.1535153 -1.3690577 2 3203750826112 1 0
46.80151 13.222909 2.8323007 15 3203750826112 1 0
42.01928 14.135607 1.2902234 223 3203750821504 1 0
27.132463 7.661519 -1.3132944 4 3203750828416 1 0
75.50355 17.387419 3.1566052 29 3203750828416 1 0
49.649254 14.011892 6.334281 46 3203750830720 1 0
77.17009 17.747562 6.464245 28 3203750833024 1 0
29.936932 10.046784 -1.2865129 4 3203750833024 1 0
32.826458 5.872901 -1.1645265 5 3203750835328 1 0
26.17106 6.022824 -1.4074185 4 3203750830720 1 0
49.533928 13.963791 13.789879 24 3203750835328 1 0
0 0 0 29 3203750837632 1 0
0 0 0 8 3203750858368 1 0
42.23962 11.900867 -1.0211588 14 3203750837632 1 0
0 0 0 43 3203750858368 1 0
0 0 0 1 3203750860672 1 0
39.29721 8.965381 -1.1730467 8 3203750860672 1 0
8.210539 1.87192 -1.6842552 1 3203750862976 1 0
46.52632 13.028322 0 8 3203750862976 1 0
56.31717 9.965713 -0.6658234 8 3203750865280 1 0
10.1739855 2.8473284 -1.6436539 4 3203750865280 1 0
12.48516 2.8426702 -1.6298702 3 3203750867584 1 0
69.67013 15.85211 -0.41527286 20 3203750869888 1 0
42.11906 14.032923 0.2580257 224 3203750867584 1 0
13.876632 3.8792121 -1.5520505 3 3203750869888 1 0
16.076519 2.8376172 -1.523911 2 3203750872192 1 0
46.525154 12.99881 1.1240749 24 3203750872192 1 0
93.83352 16.548197 1.1092556 28 3203750874496 1 0
20.196196 5.6395125 -1.466281 5 3203750874496 1 0
17.81375 4.0450053 -1.491248 3 3203750876800 1 0
42.12907 14.009032 1.2920852 209 3203750876800 1 0
76.2184 17.295412 1.3642197 27 3203750879104 1 0
21.591959 7.176411 -1.4582319 5 3203750879104 1 0
23.12909 4.068571 -1.3676623 5 3203750881408 1 0
77.3529 17.529194 3.231344 29 3203750883712 1 0
46.639668 13.001557 2.8197424 15 3203750881408 1 0
27.143644 7.562473 -1.31255 8 3203750883712 1 0
26.110111 5.9129057 -1.4030223 4 3203750886016 1 0
49.659615 13.827849 6.3294063 46 3203750886016 1 0
77.42599 17.52208 6.4805174 28 3203750888320 1 0
32.82313 5.7541375 -1.1636888 5 3203750890624 1 0
49.556313 13.783553 13.782632 24 3203750890624 1 0
29.95285 9.935932 -1.2856988 4 3203750888320 1 0
0 0 0 29 3203750892928 1 0
0 0 0 21 3203750892928 1 0
0 0 0 8 3203750913664 1 0
0 0 0 100 3203750913664 1 0
39.152714 8.788746 -1.1678104 8 3203750915968 1 0
0 0 0 1 3203750915968 1 0
8.217023 1.8432484 -1.6842552 1 3203750918272 1 0
56.50137 9.79503 -0.6675928 17 3203750920576 1 0
48.965828 13.5272875 0 19 3203750918272 1 0
10.176243 2.8096933 -1.6424241 3 3203750920576 1 0
12.495007 2.7990716 -1.6298702 3 3203750922880 1 0
42.21718 13.902079 0.25832793 223 3203750922880 1 0
69.69381 15.601829 -0.41508687 41 3203750925184 1 0
13.878587 3.8275778 -1.5507653 3 3203750925184 1 0
16.070627 2.778768 -1.5224239 3 3203750927488 1 0
46.67433 12.865018 1.1265874 24 3203750927488 1 0
93.867065 16.216469 1.1089761 57 3203750929792 1 0
20.20037 5.564741 -1.465165 5 3203750929792 1 0
17.808308 3.9784527 -1.4896208 3 3203750932096 1 0
42.227093 13.878118 1.2935978 221 3203750932096 1 0
76.18072 17.00747 1.3624744 27 3203750934400 1 0
21.624462 7.103489 -1.4587436 4 3203750934400 1 0
23.088058 3.9783177 -1.3644066 5 3203750936704 1 0
46.86958 12.889501 2.8309052 31 3203750936704 1 0
76.30185 17.011211 3.1849377 29 3203750939008 1 0
27.17373 7.4687366 -1.312736 8 3203750939008 1 0
26.114998 5.818254 -1.402185 4 3203750941312 1 0
49.69227 13.650214 6.3274565 30 3203750941312 1 0
76.07797 16.93807 6.362702 28 3203750943616 1 0
32.8312 5.637499 -1.16327 5 3203750945920 1 0
49.66747 13.627865 13.800232 24 3203750945920 1 0
29.881014 9.796453 -1.2811395 4 3203750943616 1 0
0 0 0 29 3203750948224 1 0
0 0 0 8 3203750968960 1 0
0 0 0 14 3203750968960 1 0
39.366653 8.692542 -1.1732794 8 3203750971264 1 0
0 0 0 1 3203750971264 1 0
0 0 0 3 3203750948224 1 0
8.215747 1.8128641 -1.6826863 1 3203750973568 1 0
0 0 0 54 3203750973568 1 0
56.365654 9.568957 -0.6655906 17 3203750975872 1 0
12.493075 2.752877 -1.628355 3 3203750978176 1 0
42.299683 13.765768 0.25853717 117 3203750978176 1 0
69.86894 15.385122 -0.41580755 20 3203750980480 1 0
13.88035 3.7759774 -1.5494801 3 3203750980480 1 0
16.09201 2.7246487 -1.5235392 2 3203750982784 1 0
47.077827 12.799586 1.1352413 24 3203750982784 1 0
10.185988 2.7741547 -1.6424241 4 3203750975872 1 0
93.89155 15.883376 1.1086036 57 3203750985088 1 0
20.211971 5.492102 -1.4646069 5 3203750985088 1 0
17.802616 3.9119878 -1.4879935 3 3203750987392 1 0
42.320915 13.745455 1.2949942 200 3203750987392 1 0
79.77484 17.517744 1.4256521 29 3203750989696 1 0
21.618752 7.0181017 -1.4566969 5 3203750989696 1 0
23.05849 3.8903933 -1.3618485 5 3203750992000 1 0
46.898872 12.721635 2.829975 31 3203750992000 1 0
79.76889 17.492115 3.3270874 29 3203750994304 1 0
0 0 0 12 3203750994304 1 0
26.127344 5.72535 -1.4017663 8 3203750996608 1 0
49.728115 13.473557 6.325994 45 3203750996608 1 0
77.64379 17.002441 6.488654 28 3203750998912 1 0
29.869402 9.677307 -1.2791855 4 3203750998912 1 0
32.842793 5.521537 -1.1629908 5 3203751001216 1 0
49.561825 13.413028 13.757785 24 3203751001216 1 0
0 0 0 29 3203751003520 1 0
42.331043 11.449538 -1.0204144 7 3203751003520 1 0
0 0 0 8 3203751024256 1 0
41.226074 13.283883 -0.75603825 22 3203751024256 1 0
39.228745 8.51859 -1.1682758 8 3203751026560 1 0
0 0 0 1 3203751026560 1 0
8.229691 1.7858384 -1.6842552 2 3203751028864 1 0
0 0 0 7 3203751028864 1 0
0 0 0 10 3203751031168 1 0
10.184158 2.735506 -1.6405793 4 3203751031168 1 0
12.498731 2.708411 -1.6278499 3 3203751033472 1 0
0 0 0 3 3203751033472 1 0
69.92613 15.141987 -0.4158308 20 3203751035776 1 0
13.874241 3.7223501 -1.5473381 3 3203751035776 1 0
16.085707 2.665856 -1.522052 2 3203751038080 1 0
47.299892 12.6828165 1.1395217 16 3203751038080 1 0
93.85961 15.5411625 1.1075792 57 3203751040384 1 0
20.22331 5.4194503 -1.4640489 5 3203751040384 1 0
17.800577 3.846453 -1.4866916 3 3203751042688 1 0
0 0 0 6 3203751042688 1 0
79.882416 17.2493 1.42649 29 3203751044992 1 0
21.627914 6.9377184 -1.4556736 5 3203751044992 1 0
23.056171 3.8072782 -1.3609182 5 3203751047296 1 0
50.264378 13.4463625 3.0302057 57 3203751047296 1 0
79.75133 17.196714 3.3238308 29 3203751049600 1 0
27.148008 7.2582073 -1.3090136 57 3203751049600 1 0
26.119835 5.6282234 -1.4003009 4 3203751051904 1 0
49.71731 13.284519 6.3186817 45 3203751051904 1 0
0 0 0 8 3203751054208 1 0
29.895388 9.570548 -1.27886 4 3203751054208 1 0
32.853977 5.4055624 -1.1627116 5 3203751056512 1 0
49.60834 13.239943 13.757785 12 3203751056512 1 0
0 0 0 29 3203751058816 1 0
42.35916 11.298614 -1.0201352 7 3203751058816 1 0
0 0 0 8 3203751079552 1 0
41.245518 13.131403 -0.75554955 44 3203751079552 1 0
39.25824 8.381604 -1.1682758 8 3203751081856 1 0
0 0 0 1 3203751081856 1 0
8.2205305 1.7538269 -1.6811174 1 3203751084160 1 0
50.19129 13.301729 0 20 3203751084160 1 0
0 0 0 28 3203751086464 1 0
10.197466 2.700952 -1.6411942 4 3203751086464 1 0
12.508109 2.6647658 -1.6278499 3 3203751088768 1 0
0 0 0 10 3203751088768 1 0
69.96291 14.894475 -0.4157378 20 3203751091072 1 0
13.875615 3.670846 -1.546053 3 3203751091072 1 0
16.08312 2.6077778 -1.5209367 2 3203751093376 1 0
47.425064 12.539098 1.1414758 16 3203751093376 1 0
100.32921 16.25278 1.1832463 28 3203751095680 1 0
20.226673 5.344747 -1.4629328 5 3203751095680 1 0
17.806095 3.7826371 -1.4860407 3 3203751097984 1 0
0 0 0 13 3203751097984 1 0
83.18928 17.659664 1.4844319 58 3203751100288 1 0
21.640583 6.8585625 -1.4549061 5 3203751100288 1 0
23.06932 3.726774 -1.3609182 2 3203751102592 1 0
50.172005 13.234159 3.0218337 57 3203751102592 1 0
79.63884 16.88176 3.3166664 29 3203751104896 1 0
27.092041 7.1420097 -1.305105 88 3203751104896 1 0
26.154953 5.540325 -1.4011382 4 3203751107200 1 0
77.8581 16.480616 6.4967904 28 3203751109504 1 0
49.728825 13.1017885 6.3142943 45 3203751107200 1 0
29.879074 9.450466 -1.2767432 4 3203751109504 1 0
49.646782 13.064731 13.755714 24 3203751111808 1 0
32.864754 5.2895775 -1.1624324 5 3203751111808 1 0
0 0 0 29 3203751114112 1 0
0 0 0 8 3203751134296 1 0
42.224308 11.104914 -1.0159478 7 3203751114112 1 0
41.034798 12.922476 -0.7509422 14 3203751134296 1 0
39.284378 8.25823 -1.1682758 8 3203751136600 1 0
0 0 0 1 3203751136600 1 0
8.222161 1.7271863 -1.6803329 1 3203751138904 1 0
50.39149 13.185498 0 30 3203751138904 1 0
50.04107 7.9749756 -0.5899235 6 3203751141208 1 1
10.198254 2.6669025 -1.6399645 4 3203751141208 1 0
12.489235 2.619755 -1.6243144 3 3203751143512 1 0
79.33454 16.629251 -0.4711137 28 3203751145816 1 0
41.25011 12.963907 0.25130716 61 3203751143512 1 0
13.887079 3.6272364 -1.546053 3 3203751145816 1 0
16.071566 2.554113 -1.5190779 3 3203751148120 1 0
50.292652 13.128378 1.2094972 9 3203751148120 1 0
50.65404 8.042449 0.5970944 8 3203751150424 1 1
17.810087 3.7250466 -1.4853898 3 3203751152728 1 0
20.22792 5.277148 -1.4618167 5 3203751150424 1 0
47.001633 14.741431 1.4335815 15 3203751152728 1 0
0 0 0 7 3203751155032 1 0
21.658215 6.7893486 -1.4546503 5 3203751155032 1 0
23.073027 3.6530323 -1.3604531 2 3203751157336 1 0
50.19401 13.071443 3.020671 57 3203751157336 1 0
70.28218 14.667778 2.9250624 29 3203751159640 1 0
0 0 0 8 3203751159640 1 0
26.16441 5.4564986 -1.4007195 4 3203751161944 1 0
49.74669 12.9395 6.3113694 45 3203751161944 1 0
0 0 0 8 3203751164248 1 0
29.836143 9.333879 -1.2736493 4 3203751164248 1 0
32.88121 5.1863036 -1.1624324 5 3203751166552 1 0
49.668884 12.903838 13.750538 23 3203751166552 1 0
0 0 0 29 3203751168856 1 0
42.2048 10.9581375 -1.0146451 7 3203751168856 1 0
0 0 0 8 3203751189592 1 0
43.726135 13.602432 -0.7993202 7 3203751189592 1 0
39.25429 8.108633 -1.1665304 8 3203751191896 1 0
0 0 0 1 3203751191896 1 0
8.212799 1.695184 -1.6771951 1 3203751194200 1 0
56.08459 14.465305 0 34 3203751194200 1 0
50.36913 7.845945 -0.5934624 27 3203751196504 1 1
10.203731 2.6300786 -1.6393496 4 3203751196504 1 0
12.494492 2.574979 -1.6238093 3 3203751198808 1 0
42.346016 13.144736 0.25770026 40 3203751198808 1 0
13.892083 3.576251 -1.5451962 3 3203751201112 1 0
16.080492 2.4972954 -1.5190779 3 3203751203416 1 0
70.25657 14.467931 -0.4169002 21 3203751201112 1 0
52.47653 13.500533 1.2608622 30 3203751203416 1 0
103.71612 16.090858 1.2218946 28 3203751205720 1 0
20.250347 5.2064695 -1.4620957 5 3203751205720 1 0
46.599155 14.433762 1.4197345 15 3203751208024 1 0
0 0 0 21 3203751210328 1 0
21.579264 6.6804137 -1.4477428 5 3203751210328 1 0
17.815384 3.6602135 -1.484739 3 3203751208024 1 0
23.074057 3.5689602 -1.3597554 5 3203751212632 1 0
50.20546 12.883567 3.018578 57 3203751212632 1 0
70.26755 14.403089 2.9222941 29 3203751214936 1 0
27.178074 6.969928 -1.3069662 8 3203751214936 1 0
26.074192 5.340408 -1.3948579 4 3203751217240 1 0
49.765743 12.754528 6.307957 15 3203751217240 1 0
93.41066 19.11712 7.783651 28 3203751219544 1 0
33.03001 5.0882306 -1.1670392 5 3203751221848 1 0
49.718662 12.726279 13.751574 24 3203751221848 1 0
29.823591 9.212696 -1.2716955 4 3203751219544 1 0
0 0 0 29 3203751224152 1 0
41.899174 10.717939 -1.0063634 7 3203751224152 1 0
0 0 0 50 3203751244888 1 0
0 0 0 8 3203751244888 1 0
39.36598 7.9816747 -1.168974 8 3203751247192 1 0
0 0 0 1 3203751247192 1 0
8.226622 1.6667484 -1.678764 1 3203751249496 1 0
56.10601 14.252586 0 34 3203751249496 1 0
10.201753 2.5899673 -1.6375048 4 3203751251800 1 0
12.488215 2.5263839 -1.6217891 3 3203751254104 1 0
42.439426 13.004738 0.2579792 24 3203751254104 1 0
70.16354 14.183562 -0.41604003 21 3203751256408 1 0
50.36575 7.65757 -0.5930899 13 3203751251800 1 1
13.893405 3.5228832 -1.5439111 3 3203751256408 1 0
16.089432 2.4390428 -1.5190779 3 3203751258712 1 0
105.30799 15.948271 1.2399616 28 3203751261016 1 0
52.366142 13.270123 1.257047 20 3203751258712 1 0
20.156857 5.104836 -1.4540039 3 3203751261016 1 0
17.816746 3.5935647 -1.4837625 3 3203751263320 1 0
46.631798 14.259738 1.4191526 15 3203751263320 1 0
87.016754 17.537752 1.5494246 7 3203751265624 1 0
21.576448 6.5945234 -1.445952 5 3203751265624 1 0
23.078833 3.484852 -1.3592904 5 3203751267928 1 0
50.239807 12.700186 3.0178802 38 3203751267928 1 0
79.710495 16.04109 3.3125956 29 3203751270232 1 0
26.093134 5.247082 -1.3948579 4 3203751272536 1 0
49.826458 12.5802765 6.309907 45 3203751272536 1 0
93.93563 18.875353 7.8217297 28 3203751274840 1 0
29.802776 9.089825 -1.2694159 4 3203751274840 1 0
27.140903 6.856785 -1.3039882 4 3203751270232 1 0
33.05979 4.972284 -1.1674579 5 3203751277144 1 0
49.62133 12.513132 13.712233 23 3203751277144 1 0
0 0 0 29 3203751279448 1 0
0 0 0 35 3203751279448 1 0
0 0 0 8 3203751300184 1 0
0 0 0 7 3203751300184 1 0
39.30341 7.8262544 -1.1662977 8 3203751302488 1 0
0 0 0 1 3203751302488 1 0
8.232389 1.638022 -1.678764 1 3203751304792 1 0
57.173374 8.488518 -0.67290115 8 3203751307096 1 0
10.210731 2.5543408 -1.6375048 4 3203751307096 1 0
56.12438 14.0488825 0 23 3203751304792 1 0
12.489174 2.48123 -1.6207789 3 3203751309400 1 0
43.75944 13.242317 0.2657207 19 3203751309400 1 0
70.216545 13.939339 -0.41606328 21 3203751311704 1 0
13.886325 3.4695444 -1.5417691 3 3203751311704 1 0
16.089968 2.381699 -1.5183343 3 3203751314008 1 0
54.755543 13.672393 1.3132508 10 3203751314008 1 0
105.30367 15.571803 1.2392632 28 3203751316312 1 0
20.170681 5.0334783 -1.4537249 5 3203751316312 1 0
17.801805 3.5259287 -1.4814843 3 3203751318616 1 0
0 0 0 21 3203751320920 1 0
21.580229 6.5134006 -1.444673 5 3203751320920 1 0
43.829735 13.23576 1.3324628 13 3203751318616 1 0
23.082956 3.4031057 -1.3588252 5 3203751323224 1 0
0 0 0 3 3203751323224 1 0
87.08234 17.208548 3.6164348 29 3203751325528 1 0
27.133656 6.7542825 -1.3024992 4 3203751325528 1 0
26.095615 5.152873 -1.3940206 4 3203751327832 1 0
49.789158 12.386146 6.29967 29 3203751327832 1 0
0 0 0 8 3203751330136 1 0
29.834326 8.985738 -1.2694159 4 3203751330136 1 0
33.037395 4.851046 -1.166062 5 3203751332440 1 0
0 0 0 9 3203751332440 1 0
0 0 0 29 3203751334744 1 0
41.663174 10.345325 -0.99891925 71 3203751334744 1 0
0 0 0 8 3203751355480 1 0
42.673103 12.778194 -0.7775396 7 3203751355480 1 0
39.35011 7.6928477 -1.1668795 8 3203751357784 1 0
0 0 0 1 3203751357784 1 0
68.54249 16.903318 0 41 3203751360088 1 0
8.238057 1.6092756 -1.678764 1 3203751360088 1 0
57.39266 8.316425 -0.67513627 17 3203751362392 1 0
10.215748 2.5177374 -1.6368899 4 3203751362392 1 0
12.493864 2.4368598 -1.6202738 3 3203751364696 1 0
43.828396 13.096359 0.26586017 63 3203751364696 1 0
69.89965 13.622992 -0.41390124 20 3203751367000 1 0
13.89449 3.4201005 -1.5413407 3 3203751367000 1 0
16.0903 2.324381 -1.5175908 3 3203751369304 1 0
69.65599 17.134937 1.6691768 21 3203751369304 1 0
111.01044 16.019922 1.305757 28 3203751371608 1 0
17.802265 3.4614847 -1.480508 3 3203751373912 1 0
20.164879 4.957323 -1.4520508 3 3203751371608 1 0
43.85268 13.0758295 1.3317647 20 3203751373912 1 0
87.01536 16.906193 1.5472605 29 3203751376216 1 0
23.070978 3.3190987 -1.3574299 5 3203751378520 1 0
69.912094 17.154808 4.1922884 28 3203751378520 1 0
87.546 16.982864 3.6332061 29 3203751380824 1 0
21.591356 6.4346113 -1.4439054 5 3203751376216 1 0
27.164827 6.6614304 -1.3028715 4 3203751380824 1 0
26.093836 5.05795 -1.3929738 4 3203751383128 1 0
49.8051 12.205658 6.296258 14 3203751383128 1 0
0 0 0 8 3203751385432 1 0
29.78506 8.857618 -1.2659965 4 3203751385432 1 0
0 0 0 9 3203751387736 1 0
0 0 0 29 3203751390040 1 0
41.67184 10.19318 -0.9982679 64 3203751390040 1 0
32.943325 4.71982 -1.1621532 5 3203751387736 1 0
0 0 0 8 3203751410776 1 0
45.00712 13.306086 -0.81921595 8 3203751410776 1 0
39.192112 7.520317 -1.1614105 8 3203751413080 1 0
0 0 0 1 3203751413080 1 0
8.232045 1.5784136 -1.6764106 1 3203751415384 1 0
68.79907 16.71311 0 42 3203751415384 1 0
56.549885 7.9941225 -0.6648921 17 3203751417688 1 0
10.209056 2.4785554 -1.6344303 3 3203751417688 1 0
12.498328 2.3928509 -1.6197687 3 3203751419992 1 0
0 0 0 3 3203751419992 1 0
69.950226 13.382208 -0.4139245 41 3203751422296 1 0
13.90622 3.3720844 -1.5413407 3 3203751422296 1 0
16.094273 2.268348 -1.517219 3 3203751424600 1 0
72.7616 17.633131 1.74213 24 3203751424600 1 0
111.13222 15.64746 1.3065486 28 3203751426904 1 0
20.181812 4.887932 -1.4520508 3 3203751426904 1 0
17.80621 3.3988633 -1.4798571 3 3203751429208 1 0
46.59366 13.7191515 1.4135672 15 3203751429208 1 0
87.50883 16.691223 1.5550094 29 3203751431512 1 0
21.61327 6.360619 -1.4439054 5 3203751431512 1 0
23.078234 3.2396693 -1.3571973 2 3203751433816 1 0
70.30024 16.995514 4.2120557 28 3203751433816 1 0
87.572 16.678194 3.6319036 29 3203751436120 1 0
27.164085 6.5631113 -1.3017547 4 3203751436120 1 0
26.07558 4.9623923 -1.3910897 4 3203751438424 1 0
49.92354 12.054719 6.3060074 15 3203751438424 1 0
97.255775 18.49463 8.08177 28 3203751440728 1 0
29.768953 8.742899 -1.2640425 4 3203751440728 1 0
33.062065 4.622545 -1.1657828 5 3203751443032 1 0
0 0 0 9 3203751443032 1 0
0 0 0 29 3203751445336 1 0
42.118156 10.151528 -1.0081314 14 3203751445336 1 0
0 0 0 8 3203751466072 1 0
45.22759 13.208337 -0.8224272 16 3203751466072 1 0
39.23266 7.3927007 -1.161876 8 3203751468376 1 0
0 0 0 1 3203751468376 1 0
8.233424 1.5501412 -1.6756262 1 3203751470680 1 0
56.3585 7.774024 -0.66233104 8 3203751472984 1 0
10.209638 2.4424024 -1.6332004 4 3203751472984 1 0
74.09065 17.736313 0 25 3203751470680 1 0
12.498531 2.349198 -1.6187587 3 3203751475288 1 0
0 0 0 3 3203751475288 1 0
74.531784 13.997057 -0.4407523 24 3203751477592 1 0
13.902096 3.3212426 -1.5396272 3 3203751477592 1 0
16.082172 2.2108479 -1.5153601 3 3203751479896 1 0
74.0153 17.670477 1.7706972 25 3203751479896 1 0
111.367325 15.292557 1.3086905 28 3203751482200 1 0
20.182875 4.8152194 -1.4509346 3 3203751482200 1 0
17.809935 3.336256 -1.4792061 3 3203751484504 1 0
46.22199 13.437477 1.4008838 14 3203751484504 1 0
87.66019 16.407139 1.5566849 29 3203751486808 1 0
21.6159 6.280511 -1.4426262 5 3203751486808 1 0
23.085354 3.1592216 -1.3569647 5 3203751489112 1 0
81.60469 19.429691 4.885306 28 3203751489112 1 0
80.63245 15.066284 3.3419049 29 3203751491416 1 0
27.089558 6.445524 -1.2971016 4 3203751491416 1 0
26.09667 4.8720746 -1.391299 4 3203751493720 1 0
49.953724 11.8776245 6.304545 45 3203751493720 1 0
98.41736 18.358313 8.172898 28 3203751496024 1 0
29.807095 8.640725 -1.2643682 4 3203751496024 1 0
32.98703 4.493736 -1.162572 5 3203751498328 1 0
0 0 0 9 3203751498328 1 0
0 0 0 29 3203751500632 1 0
41.65963 9.885353 -0.99631375 7 3203751500632 1 0
0 0 0 8 3203751521368 1 0
45.506283 13.108906 -0.82661575 24 3203751521368 1 0
39.24366 7.2465234 -1.1614105 8 3203751523672 1 0
0 0 0 1 3203751523672 1 0
8.2235775 1.5173466 -1.6724882 1 3203751525976 1 0
75.29933 17.736418 0 26 3203751525976 1 0
48.4421 6.50336 -0.56901616 18 3203751528280 1 0
10.218416 2.4054117 -1.6332004 4 3203751528280 1 0
12.491315 2.301225 -1.6167383 3 3203751530584 1 0
46.507656 13.369536 0.28125012 20 3203751530584 1 0
75.26214 13.854492 -0.44477412 25 3203751532888 1 0
13.906195 3.269458 -1.5387704 3 3203751532888 1 0
70.22797 16.50092 1.6786681 22 3203751535192 1 0
16.08998 2.153293 -1.5153601 3 3203751535192 1 0
111.417145 14.895086 1.308644 28 3203751537496 1 0
20.19602 4.7423573 -1.4506556 3 3203751537496 1 0
17.805977 3.27015 -1.4779043 3 3203751539800 1 0
46.18483 13.249103 1.3983238 14 3203751539800 1 0
92.001434 16.883348 1.6327075 87 3203751542104 1 0
21.626451 6.200774 -1.4418588 5 3203751542104 1 0
22.993416 3.0642326 -1.3509183 5 3203751544408 1 0
81.34988 19.066711 4.8660035 28 3203751544408 1 0
80.66511 14.779958 3.3410907 29 3203751546712 1 0
27.088642 6.345063 -1.2959849 4 3203751546712 1 0
26.089943 4.776634 -1.390043 4 3203751549016 1 0
49.840252 11.666985 6.2850456 14 3203751549016 1 0
99.39825 18.18397 8.249056 28 3203751551320 1 0
29.82158 8.532662 -1.2637168 4 3203751551320 1 0
32.974648 4.375841 -1.1615949 5 3203751553624 1 0
0 0 0 9 3203751553624 1 0
93.5447 17.086405 17.337793 29 3203751555928 1 0
41.537697 9.705299 -0.9925917 7 3203751555928 1 0
45.653366 12.987476 -0.8285006 24 3203751576664 1 0
39.255722 7.113922 -1.1610614 8 3203751578968 1 0
0 0 0 1 3203751578968 1 0
0 0 0 8 3203751576664 1 0
8.244024 1.4927436 -1.6756262 1 3203751581272 1 0
75.62685 17.547907 0 79 3203751581272 1 0
49.843678 6.522223 -0.5852205 6 3203751583576 1 0
10.226388 2.37129 -1.6332004 5 3203751583576 1 0
12.487228 2.2573085 -1.6152232 3 3203751585880 1 0
46.49825 13.198592 0.28092465 10 3203751585880 1 0
0 0 0 9 3203751588184 1 0
13.909328 3.221025 -1.5379136 3 3203751588184 1 0
16.10897 2.1007674 -1.5164754 3 3203751590488 1 0
70.31807 16.272991 1.6795057 22 3203751590488 1 0
105.36662 13.725254 1.237028 28 3203751592792 1 0
17.801216 3.207221 -1.4766024 3 3203751595096 1 0
20.20021 4.671633 -1.4498185 3 3203751592792 1 0
46.471634 13.161828 1.4056545 22 3203751595096 1 0
93.5183 16.835024 1.6586069 87 3203751597400 1 0
21.54359 6.0982523 -1.4349513 5 3203751597400 1 0
23.086828 2.9970896 -1.3558019 5 3203751599704 1 0
81.22337 18.746916 4.854608 28 3203751599704 1 0
82.189964 14.771031 3.4021516 29 3203751602008 1 0
27.098354 6.250336 -1.2954265 4 3203751602008 1 0
26.106049 4.6878123 -1.390043 4 3203751604312 1 0
49.945442 11.512451 6.293333 14 3203751604312 1 0
100.47995 18.027905 8.333674 28 3203751606616 1 0
33.00527 4.2651596 -1.1621532 5 3203751608920 1 0
29.823586 8.423297 -1.262577 4 3203751606616 1 0
0 0 0 9 3203751608920 1 0
0 0 0 29 3203751611224 1 0
41.379734 9.519039 -0.9880321 6 3203751611224 1 0
0 0 0 8 3203751631960 1 0
46.272156 12.98909 -0.8389023 16 3203751631960 1 0
0 0 0 1 3203751634264 1 0
8.245343 1.4631523 -1.6748416 1 3203751636568 1 0
75.531906 17.247095 0 52 3203751636568 1 0
52.846035 6.7263794 -0.6201903 14 3203751638872 1 0
10.223094 2.3327177 -1.6313556 4 3203751638872 1 0
39.292175 6.978663 -1.1614105 8 3203751634264 1 0
12.491189 2.2126505 -1.6147181 3 3203751641176 1 0
46.521305 13.028377 0.28078517 30 3203751641176 1 0
78.7351 13.934491 -0.4647206 28 3203751643480 1 0
13.905092 3.1684124 -1.5362 3 3203751643480 1 0
16.045176 2.0348017 -1.5097834 3 3203751645784 1 0
105.39473 13.349493 1.2367952 28 3203751648088 1 0
75.99767 17.304611 1.8136874 26 3203751645784 1 0
20.204956 4.5974073 -1.4489815 3 3203751648088 1 0
17.816412 3.1447203 -1.4769279 3 3203751650392 1 0
46.533455 13.001129 1.4061201 22 3203751650392 1 0
93.82177 16.54542 1.6629351 58 3203751652696 1 0
21.549763 6.0173087 -1.433928 5 3203751652696 1 0
22.990393 2.9013047 -1.349523 5 3203751655000 1 0
83.7143 14.73661 3.4630497 29 3203751657304 1 0
27.116602 6.1526537 -1.2952404 4 3203751657304 1 0
26.020367 4.576387 -1.3846 4 3203751659608 1 0
49.94372 11.32402 6.2879705 44 3203751659608 1 0
76.59725 17.391924 4.574378 28 3203751655000 1 0
101.820076 17.89179 8.439448 28 3203751661912 1 0
29.811241 8.3045225 -1.2607859 4 3203751661912 1 0
33.067974 4.1525393 -1.1638284 5 3203751664216 1 0
0 0 0 9 3203751664216 1 0
0 0 0 29 3203751666520 1 0
41.425434 9.372668 -0.98831123 6 3203751666520 1 0
0 0 0 8 3203751687256 1 0
46.828247 12.96022 -0.8481172 16 3203751687256 1 0
0 0 0 1 3203751689560 1 0
39.33704 6.838885 -1.1619923 8 3203751689560 1 0
8.23513 1.4305965 -1.6717038 1 3203751691864 1 0
75.629 16.981325 0 52 3203751691864 1 0
55.771618 6.8948317 -0.65422887 16 3203751694168 1 0
10.231425 2.295902 -1.6313556 5 3203751694168 1 0
12.499026 2.167944 -1.6147181 3 3203751696472 1 0
48.37974 13.362347 0.29171157 21 3203751696472 1 0
80.75474 13.995944 -0.47634444 28 3203751698776 1 0
13.90463 3.1163352 -1.5349149 3 3203751698776 1 0
16.048315 1.9775937 -1.5094117 3 3203751701080 1 0
105.32188 12.964555 1.2353983 28 3203751703384 1 0
76.031044 17.029787 1.8130361 26 3203751701080 1 0
20.213192 4.5246663 -1.4484234 3 3203751703384 1 0
17.807638 3.079114 -1.4753007 3 3203751705688 1 0
46.933174 12.936363 1.4168254 15 3203751705688 1 0
93.8116 16.208292 1.6617483 58 3203751707992 1 0
21.562809 5.940399 -1.4334164 5 3203751707992 1 0
22.988367 2.8205802 -1.3488253 5 3203751710296 1 0
76.38784 17.067707 4.558332 28 3203751710296 1 0
0 0 0 14 3203751712600 1 0
27.09852 6.05103 -1.2933791 4 3203751712600 1 0
26.023983 4.485768 -1.383972 4 3203751714904 1 0
49.89285 11.1340885 6.2767587 29 3203751714904 1 0
103.349396 17.80046 8.56117 28 3203751717208 1 0
29.831446 8.201547 -1.2604603 4 3203751717208 1 0
33.049995 4.0375376 -1.1627116 5 3203751719512 1 0
0 0 0 9 3203751719512 1 0
93.29014 16.04275 17.258871 29 3203751721816 1 0
0 0 0 8 3203751721816 1 0
0 0 0 4 3203751742552 1 0
47.20436 12.904797 -0.8541906 8 3203751742552 1 0
39.196735 6.6876993 -1.1572214 8 3203751744856 1 0
0 0 0 1 3203751744856 1 0
8.239584 1.4047179 -1.6717038 8 3203751747160 1 0
75.47888 16.698715 0 26 3203751747160 1 0
56.325123 6.7836733 -0.6604685 8 3203751749464 1 0
10.22315 2.2603347 -1.6288961 5 3203751749464 1 0
12.49404 2.1266692 -1.6132028 3 3203751751768 1 0
80.928444 13.764309 -0.4771116 28 3203751754072 1 0
50.130974 13.676673 0.3020103 34 3203751751768 1 0
13.910467 3.0717795 -1.5344865 3 3203751754072 1 0
16.050493 1.926692 -1.5090399 3 3203751756376 1 0
76.40828 16.862371 1.8207594 27 3203751756376 1 0
0 0 0 21 3203751758680 1 0
17.8015 3.0204868 -1.4739988 3 3203751760984 1 0
46.911858 12.772049 1.4149636 15 3203751760984 1 0
93.798965 15.902799 1.6606314 58 3203751763288 1 0
21.562105 5.867388 -1.4321373 3 3203751763288 1 0
20.219515 4.459424 -1.4478654 3 3203751758680 1 0
23.00108 2.74882 -1.3490578 5 3203751765592 1 0
76.44888 16.829361 4.558797 28 3203751765592 1 0
87.05635 14.736201 3.597221 29 3203751767896 1 0
27.093983 5.9607167 -1.2922623 4 3203751767896 1 0
26.014315 4.399992 -1.382716 4 3203751770200 1 0
49.888805 10.968765 6.271884 29 3203751770200 1 0
88.51027 14.958475 7.32801 28 3203751772504 1 0
29.772211 8.084745 -1.256878 4 3203751772504 1 0
33.098244 3.9379385 -1.163968 5 3203751774808 1 0
0 0 0 9 3203751774808 1 0
93.19263 15.724712 17.231607 29 3203751777112 1 0
41.614193 9.132343 -0.991382 21 3203751777112 1 0
0 0 0 4 3203751798296 1 0
48.144985 12.9815 -0.8703864 25 3203751798296 1 0
39.350075 6.5720015 -1.1610614 8 3203751800600 1 0
0 0 0 1 3203751800600 1 0
8.256084 1.3776448 -1.6740572 17 3203751802904 1 0
72.26571 15.721243 0 23 3203751802904 1 0
0 0 0 28 3203751805208 1 0
10.227213 2.2233493 -1.6282811 5 3203751805208 1 0
12.49368 2.0810125 -1.6121926 3 3203751807512 1 0
50.15602 13.492446 0.3018708 23 3203751807512 1 0
49.924557 8.308232 -0.2941526 9 3203751809816 1 1
13.9174385 3.0213482 -1.5340581 3 3203751809816 1 0
16.049374 1.8683313 -1.5082964 3 3203751812120 1 0
70.62955 15.32227 1.681739 22 3203751812120 1 0
120.39282 13.997359 1.411039 28 3203751814424 1 0
20.231504 4.385912 -1.4475863 3 3203751814424 1 0
17.800482 2.954299 -1.4730225 3 3203751816728 1 0
47.293583 12.692923 1.4250871 15 3203751816728 1 0
100.21217 16.616974 1.7730947 16 3203751819032 1 0
21.567791 5.7851243 -1.431114 5 3203751819032 1 0
23.018856 2.6660867 -1.349523 5 3203751821336 1 0
80.849655 17.490162 4.8173995 28 3203751821336 1 0
90.36257 14.956726 3.731555 29 3203751823640 1 0
26.9984 5.8364387 -1.2866787 4 3203751823640 1 0
26.014503 4.302008 -1.3818786 4 3203751825944 1 0
49.905388 10.78081 6.268959 43 3203751825944 1 0
90.07515 14.882234 7.452986 28 3203751828248 1 0
29.774733 7.967905 -1.2557381 4 3203751828248 1 0
33.120506 3.816553 -1.1642472 5 3203751830552 1 0
0 0 0 9 3203751830552 1 0
93.17265 15.366162 17.217258 29 3203751832856 1 0
41.67123 8.982997 -0.9919403 14 3203751832856 1 0
0 0 0 4 3203751853592 1 0
48.36007 12.858582 -0.873458 8 3203751853592 1 0
39.3926 6.4372554 -1.1616431 8 3203751855896 1 0
0 0 0 1 3203751855896 1 0
8.233785 1.3441534 -1.6685659 15 3203751858200 1 0
72.28148 15.458424 0 23 3203751858200 1 0
0 0 0 28 3203751860504 1 0
10.231142 2.1863637 -1.6276662 5 3203751860504 1 0
50.184254 13.309239 0.30175456 34 3203751862808 1 0
12.481405 2.0334713 -1.6096673 3 3203751862808 1 0
49.835403 8.111003 -0.29345515 9 3203751865112 1 1
13.916448 2.9692464 -1.532773 3 3203751865112 1 0
70.71912 15.07697 1.6825764 22 3203751867416 1 0
16.044083 1.8095568 -1.507181 3 3203751867416 1 0
51.03785 5.7481146 0.5979326 8 3203751869720 1 1
20.126146 4.28743 -1.4389366 3 3203751869720 1 0
17.807087 2.8894346 -1.472697 3 3203751872024 1 0
47.16125 12.475218 1.4197345 15 3203751872024 1 0
100.24801 16.250101 1.7726759 29 3203751874328 1 0
21.580883 5.7049375 -1.4306022 5 3203751874328 1 0
23.028399 2.5823703 -1.349523 5 3203751876632 1 0
92.08942 14.897363 3.8005946 29 3203751878936 1 0
80.779915 17.167845 4.8094926 28 3203751876632 1 0
26.984348 5.730368 -1.2850035 4 3203751878936 1 0
26.01038 4.203445 -1.3808318 4 3203751881240 1 0
49.91738 10.592056 6.265547 43 3203751881240 1 0
91.931885 14.841695 7.6020455 28 3203751883544 1 0
29.799986 7.8572693 -1.2555754 4 3203751883544 1 0
33.166164 3.6977143 -1.165364 5 3203751885848 1 0
0 0 0 9 3203751885848 1 0
93.16684 15.010482 17.205778 29 3203751888152 1 0
41.223057 8.726519 -0.98049486 6 3203751888152 1 0
0 0 0 4 3203751908888 1 0
47.325764 12.389199 -0.85391134 17 3203751908888 1 0
39.23127 6.2574983 -1.1561742 8 3203751911192 1 0
0 0 0 1 3203751911192 1 0
8.238809 1.3130074 -1.6685659 16 3203751913496 1 0
51.771168 5.667579 -0.6063142 7 3203751915800 1 1
