# .PCD v.7 - Point Cloud Data file format
VERSION .7
FIELDS x y z rgb timestamp_ns device_id active
SIZE 4 4 4 4 8 1 1
TYPE F F F F F U U
COUNT 1 1 1 1 1 1 1
WIDTH 989
HEIGHT 1
VIEWPOINT 0 0 0 1 0 0 0
POINTS 989               
DATA ascii
-8.790613 -12.652943 -1.6595758 15 3201989857184 1 0
0 0 0 11 3201989859488 1 0
-51.31743 -73.84298 2.092473 28 3201989859488 1 0
-52.020355 -61.112007 0.93431336 28 3201989861792 1 0
-15.431504 -20.028574 -2.064054 3 3201989864096 1 0
-17.400888 -25.031546 -2.1317577 4 3201989861792 1 0
-60.055866 -96.05973 3.2970047 44 3201989864096 1 0
-52.455578 -68.06272 1.4999297 58 3201989866400 1 0
-24.824308 -29.1384 -2.2292826 5 3201989868704 1 0
-17.874624 -28.581785 -2.1604857 4 3201989866400 1 0
-63.222225 -90.86612 6.446687 28 3201989868704 1 0
-52.531616 -68.122444 3.504734 29 3201989871008 1 0
-28.220888 -40.54851 -2.3012433 9 3201989871008 1 0
-28.888735 -37.4519 -2.47884 11 3201989873312 1 0
0 0 0 1 3201989873312 1 0
-52.614487 -68.19093 7.0311923 28 3201989875616 1 0
-15.070057 -24.067642 -1.1569009 46 3201989875616 1 1
-23.878977 -27.997421 -1.2849995 6 3201989877920 1 0
0 0 0 9 3201989877920 1 0
0 0 0 29 3201989880224 1 0
-32.877483 -47.183586 -1.3381889 34 3201989880224 1 0
-2.3276563 -3.007294 -1.7733063 4 3201989900960 1 0
-29.642216 -47.18054 -0.9725877 30 3201989900960 1 0
-3.6407626 -5.20954 -1.7791973 4 3201989903264 1 0
-51.96064 -67.11213 -2.4701355 28 3201989903264 1 0
-5.6247206 -7.2626815 -1.8372267 3 3201989905568 1 0
-33.025227 -47.240913 0 23 3201989905568 1 0
-51.800205 -60.51111 -0.9273287 28 3201989907872 1 0
-6.7974324 -9.720372 -1.8453443 3 3201989907872 1 0
-9.428089 -12.1663065 -1.9591777 16 3201989910176 1 0
-29.371233 -46.6889 0.32058516 37 3201989910176 1 0
-52.3982 -67.59601 -0.49708134 28 3201989912480 1 0
-11.37322 -13.274052 -1.631726 23 3201989914784 1 0
-8.876304 -12.685312 -1.6677152 16 3201989912480 1 0
-51.264835 -73.240974 2.0802832 28 3201989914784 1 0
-51.96294 -60.629772 0.9296103 28 3201989917088 1 0
-17.434721 -24.900904 -2.1256192 4 3201989917088 1 0
-15.499 -19.976389 -2.064054 3 3201989919392 1 0
-54.169937 -85.99821 2.9579256 44 3201989919392 1 0
-52.42306 -67.54688 1.49246 58 3201989921696 1 0
-17.96479 -28.511045 -2.1597183 4 3201989921696 1 0
-25.01911 -29.166248 -2.2378871 5 3201989924000 1 0
-52.505276 -67.6122 3.487637 29 3201989926304 1 0
-63.41979 -90.494385 6.4355245 28 3201989924000 1 0
-28.358433 -40.452435 -2.3012433 9 3201989926304 1 0
-28.998877 -37.331284 -2.4773748 11 3201989928608 1 0
0 0 0 1 3201989928608 1 0
-52.58502 -67.67424 6.9963684 28 3201989930912 1 0
-15.213901 -24.114128 -1.161623 62 3201989930912 1 1
-24.0136 -27.961132 -1.2870934 6 3201989933216 1 0
0 0 0 9 3201989933216 1 0
0 0 0 29 3201989935520 1 0
-33.1308 -47.201622 -1.341911 34 3201989935520 1 0
-2.3403685 -3.0020096 -1.7749968 4 3201989956256 1 0
-29.898722 -47.222076 -0.9755895 30 3201989956256 1 0
-39.839314 -51.086884 -1.8854157 45 3201989958560 1 0
-3.66336 -5.203099 -1.781354 5 3201989958560 1 0
-5.650038 -7.2430034 -1.8372267 3 3201989960864 1 0
-33.231384 -47.18421 0 34 3201989960864 1 0
-51.75256 -60.030014 -0.9227188 27 3201989963168 1 0
-6.835874 -9.703048 -1.8465742 4 3201989963168 1 0
-9.477824 -12.142706 -1.960693 6 3201989965472 1 0
-29.608988 -46.70433 0.32139882 38 3201989965472 1 0
-8.957192 -12.706259 -1.6745695 16 3201989967776 1 0
-52.385216 -67.09426 -0.49473333 28 3201989967776 1 0
-11.468922 -13.291562 -1.6387898 17 3201989970080 1 0
-51.174503 -72.571365 2.0663252 28 3201989970080 1 0
-51.925987 -60.160374 0.92518675 28 3201989972384 1 0
-17.574436 -24.91489 -2.132037 4 3201989972384 1 0
-15.573545 -19.928448 -2.064705 3 3201989974688 1 0
0 0 0 3 3201989974688 1 0
-52.37773 -67.00427 1.4845017 58 3201989976992 1 0
-25.13382 -29.093847 -2.23905 5 3201989979296 1 0
-63.62243 -90.11261 6.4241295 28 3201989979296 1 0
-52.42825 -67.0287 3.4669576 29 3201989981600 1 0
-28.490244 -40.340145 -2.3004987 9 3201989981600 1 0
-18.064203 -28.448164 -2.1597183 4 3201989976992 1 0
0 0 0 1 3201989983904 1 0
-52.511326 -67.094696 6.9553604 28 3201989986208 1 0
-15.35588 -24.151937 -1.1660193 64 3201989986208 1 1
-23.99599 -27.744102 -1.2809511 6 3201989988512 1 0
-29.129011 -37.22983 -2.4773748 11 3201989983904 1 0
0 0 0 9 3201989988512 1 0
0 0 0 29 3201989990816 1 0
-33.272274 -47.053036 -1.3409804 46 3201989990816 1 0
-2.3485944 -2.9909706 -1.7733063 4 3201990011552 1 0
-30.097795 -47.171368 -0.97670645 30 3201990011552 1 0
-39.809937 -50.683384 -1.8756412 22 3201990013856 1 0
-3.6815 -5.1902795 -1.781354 4 3201990013856 1 0
-5.6752863 -7.2232366 -1.8372267 3 3201990016160 1 0
-33.23849 -46.846092 0 34 3201990016160 1 0
-51.723167 -59.574158 -0.91848147 13 3201990018464 1 0
-6.8742776 -9.685574 -1.847804 4 3201990018464 1 0
-9.507891 -12.093951 -1.9581677 5 3201990020768 1 0
-29.834286 -46.698444 0.322073 38 3201990020768 1 0
-50.35421 -64.03094 -0.4734385 28 3201990023072 1 0
-9.029124 -12.713825 -1.6797101 18 3201990023072 1 0
0 0 0 28 3201990025376 1 0
-51.151917 -72.00435 2.0552518 28 3201990025376 1 0
-51.865402 -59.667824 0.9203906 27 3201990027680 1 0
-17.617382 -24.791592 -2.1267354 4 3201990027680 1 0
-15.640548 -19.870832 -2.0643795 3 3201990029984 1 0
-51.72675 -80.86213 2.7936223 32 3201990029984 1 0
-18.178455 -28.40847 -2.161509 4 3201990032288 1 0
-52.363895 -66.506805 1.4775207 29 3201990032288 1 0
-25.22736 -28.996899 -2.2383523 5 3201990034592 1 0
-63.800037 -89.69799 6.4104085 28 3201990034592 1 0
-52.409622 -66.52506 3.450349 29 3201990036896 1 0
-28.649416 -40.266495 -2.3019876 9 3201990036896 1 0
-29.399717 -37.306755 -2.4893074 11 3201990039200 1 0
0 0 0 1 3201990039200 1 0
-52.46879 -66.56032 6.9189095 28 3201990041504 1 0
-15.498308 -24.189049 -1.1704158 64 3201990041504 1 1
-24.011295 -27.566725 -1.2766236 6 3201990043808 1 0
0 0 0 9 3201990043808 1 0
0 0 0 29 3201990046112 1 0
-33.287823 -46.72816 -1.3350251 34 3201990046112 1 0
-2.365767 -2.9912846 -1.7783777 4 3201990067296 1 0
-30.350952 -47.203945 -0.97956866 30 3201990067296 1 0
-40.008938 -50.572334 -1.8766885 45 3201990069600 1 0
-3.699595 -5.177397 -1.781354 4 3201990069600 1 0
-5.7028995 -7.206458 -1.8380113 3 3201990071904 1 0
-33.40879 -46.739544 0 80 3201990071904 1 0
-6.905746 -9.658303 -1.8471891 2 3201990074208 1 0
-33.52795 -38.345905 -0.5929968 6 3201990074208 1 0
-30.068565 -46.705006 0.32284018 38 3201990076512 1 0
-9.552511 -12.0638 -1.9586726 4 3201990076512 1 0
-52.231457 -65.94303 -0.48892143 28 3201990078816 1 0
-9.103531 -12.7242775 -1.6852791 7 3201990078816 1 0
-11.666347 -13.331055 -1.6536609 1 3201990081120 1 0
-51.1004 -71.40261 2.0431552 28 3201990081120 1 0
-33.444874 -38.206013 0.5911342 8 3201990083424 1 0
-17.764204 -24.814302 -2.13399 4 3201990083424 1 0
-15.709814 -19.816116 -2.0643795 3 3201990085728 1 0
-51.62959 -80.09297 2.7732587 32 3201990085728 1 0
-52.25528 -65.89431 1.4679568 58 3201990088032 1 0
-18.262367 -28.32136 -2.1597183 4 3201990088032 1 0
0 0 0 73 3201990090336 1 0
-64.17788 -89.56563 6.41692 28 3201990090336 1 0
-52.35086 -65.97541 3.431298 29 3201990092640 1 0
-28.843336 -40.24094 -2.3062687 9 3201990092640 1 0
-29.281427 -36.89103 -2.468373 11 3201990094944 1 0
0 0 0 1 3201990094944 1 0
-52.455387 -66.06766 6.886689 28 3201990097248 1 0
0 0 0 1 3201990097248 1 0
-24.067833 -27.437664 -1.2745296 6 3201990099552 1 0
0 0 0 9 3201990099552 1 0
0 0 0 29 3201990101856 1 0
-2.369418 -2.9745016 -1.7733063 4 3201990122592 1 0
-33.497364 -46.67666 -1.3368862 81 3201990101856 1 0
-30.609053 -47.242043 -0.98257047 30 3201990122592 1 0
-40.247517 -50.510544 -1.8795975 45 3201990124896 1 0
-3.7198954 -5.1675777 -1.7824323 4 3201990124896 1 0
-5.72313 -7.1803727 -1.8364424 3 3201990127200 1 0
-33.651207 -46.733006 0 69 3201990127200 1 0
-6.9417276 -9.637346 -1.847804 2 3201990129504 1 0
0 0 0 78 3201990129504 1 0
-9.59209 -12.02728 -1.9581677 4 3201990131808 1 0
-30.30543 -46.713852 0.3236306 38 3201990131808 1 0
-52.219357 -65.45701 -0.4866664 28 3201990134112 1 0
0 0 0 4 3201990134112 1 0
0 0 0 17 3201990136416 1 0
-51.115467 -70.89942 2.0338497 28 3201990136416 1 0
-33.776405 -38.31406 0.59462655 17 3201990138720 1 0
-17.804033 -24.687414 -2.1284096 4 3201990138720 1 0
-51.5277 -79.32549 2.7528954 33 3201990141024 1 0
-15.781378 -19.764273 -2.064705 3 3201990141024 1 0
-52.23538 -65.399 1.4609759 58 3201990143328 1 0
-18.35024 -28.240704 -2.1584392 4 3201990143328 1 0
0 0 0 12 3201990145632 1 0
-64.279785 -89.04965 6.39599 28 3201990145632 1 0
-52.33881 -65.489426 3.4155037 29 3201990147936 1 0
-29.00234 -40.165928 -2.3077576 9 3201990147936 1 0
-29.410023 -36.788593 -2.468373 11 3201990150240 1 0
0 0 0 1 3201990150240 1 0
-52.342083 -65.454475 6.841776 28 3201990152544 1 0
-28.700672 -44.113644 -2.1441338 10 3201990152544 1 0
-24.155521 -27.344496 -1.2741108 6 3201990154848 1 0
0 0 0 9 3201990154848 1 0
0 0 0 29 3201990157152 1 0
-33.728035 -46.653427 -1.3395847 34 3201990157152 1 0
-2.382055 -2.9690404 -1.7749968 4 3201990177888 1 0
-30.806568 -47.18514 -0.9836176 30 3201990177888 1 0
0 0 0 13 3201990180192 1 0
-3.7379107 -5.154561 -1.7824323 4 3201990180192 1 0
-5.755526 -7.1695275 -1.8387957 2 3201990182496 1 0
0 0 0 3 3201990182496 1 0
0 0 0 28 3201990184800 1 0
-6.9799685 -9.619454 -1.8490337 2 3201990184800 1 0
-9.643954 -12.006098 -1.9601879 4 3201990187104 1 0
-30.531778 -46.704876 0.3243048 38 3201990187104 1 0
-52.111805 -64.8565 -0.4835512 28 3201990189408 1 0
-9.273922 -12.773051 -1.7002728 2 3201990189408 1 0
-11.888671 -13.395241 -1.6718779 24 3201990191712 1 0
-51.404938 -70.7788 2.0355248 28 3201990191712 1 0
-34.17283 -38.49204 0.59923637 26 3201990194016 1 0
-15.857767 -19.718386 -2.0656812 3 3201990196320 1 0
-17.939352 -24.69291 -2.134269 4 3201990194016 1 0
-51.530567 -78.72697 2.7383502 33 3201990196320 1 0
-52.19511 -64.882835 1.4535062 58 3201990198624 1 0
-18.450893 -28.179817 -2.158695 4 3201990198624 1 0
-19.837513 -22.32521 -1.7392869 12 3201990200928 1 1
-64.57379 -88.802124 6.394362 28 3201990200928 1 0
-52.296436 -64.970085 3.3979182 29 3201990203232 1 0
-29.161173 -40.090294 -2.3092465 9 3201990203232 1 0
-29.433043 -36.555035 -2.4595807 11 3201990205536 1 0
0 0 0 1 3201990205536 1 0
-52.31767 -64.95777 6.8089046 28 3201990207840 1 0
-24.232225 -27.239103 -1.2731336 6 3201990210144 1 0
-28.983767 -44.210396 -2.153741 10 3201990207840 1 0
0 0 0 9 3201990210144 1 0
-51.361 -70.523964 -2.0301278 29 3201990212448 1 0
0 0 0 29 3201990212448 1 0
-2.3924043 -2.9607074 -1.7749968 4 3201990233184 1 0
-31.061209 -47.214306 -0.9864798 30 3201990233184 1 0
-40.88318 -50.579712 -1.8927464 46 3201990235488 1 0
-3.758153 -5.1445923 -1.7835106 4 3201990235488 1 0
-5.780517 -7.1493936 -1.8387957 3 3201990237792 1 0
-51.55378 -70.5512 0 28 3201990237792 1 0
-51.510902 -57.682686 -0.90032136 13 3201990240096 1 0
-7.020501 -9.604604 -1.8508785 2 3201990240096 1 0
-9.680813 -11.966191 -1.9591777 4 3201990242400 1 0
-30.769434 -46.711586 0.3250952 39 3201990242400 1 0
-52.093803 -64.3726 -0.48129618 28 3201990244704 1 0
0 0 0 46 3201990244704 1 0
0 0 0 56 3201990247008 1 0
-51.46279 -70.340744 2.0280805 28 3201990247008 1 0
-34.261665 -38.32183 0.5984448 8 3201990249312 1 0
-18.018366 -24.62048 -2.133432 4 3201990249312 1 0
-51.419823 -77.96251 2.7179868 34 3201990251616 1 0
-52.161953 -64.38018 1.4463159 58 3201990253920 1 0
-15.9265 -19.662912 -2.0656812 3 3201990251616 1 0
-18.55794 -28.128567 -2.1597183 4 3201990253920 1 0
-20.011185 -22.362957 -1.747659 21 3201990256224 1 1
-52.26618 -64.47047 3.3813095 29 3201990258528 1 0
-64.79607 -88.456985 6.3857574 28 3201990256224 1 0
-29.310383 -40.001152 -2.3099911 9 3201990258528 1 0
0 0 0 1 3201990260832 1 0
-30.420937 -37.51315 -2.531176 11 3201990260832 1 0
-52.282894 -64.45275 6.775057 28 3201990263136 1 0
-29.186378 -44.18232 -2.1573231 10 3201990263136 1 0
-24.32716 -27.154352 -1.2731336 6 3201990265440 1 0
0 0 0 9 3201990265440 1 0
0 0 0 29 3201990267744 1 0
-51.57848 -70.305565 -2.029011 29 3201990267744 1 0
-2.4027245 -2.9523382 -1.7749968 5 3201990288480 1 0
-31.327477 -47.258934 -0.9896911 30 3201990288480 1 0
-41.15288 -50.551422 -1.8970519 23 3201990290784 1 0
-3.776088 -5.1314425 -1.7835106 4 3201990290784 1 0
-5.8079147 -7.1322136 -1.8395802 3 3201990293088 1 0
-51.664574 -70.1872 0 28 3201990293088 1 0
-51.546116 -57.31814 -0.8974344 13 3201990295392 1 0
-7.0563283 -9.583221 -1.8514934 2 3201990295392 1 0
-9.73255 -11.944631 -1.9611981 4 3201990297696 1 0
-31.01193 -46.723873 0.32593212 39 3201990297696 1 0
-52.05032 -63.861706 -0.47883195 28 3201990300000 1 0
-9.438355 -12.810454 -1.7139812 25 3201990300000 1 0
-12.093802 -13.436244 -1.6874925 1 3201990302304 1 0
-51.69378 -70.141365 2.0275223 28 3201990302304 1 0
-51.707916 -57.430817 0.89966947 26 3201990304608 1 0
-16.00008 -19.613377 -2.066332 3 3201990306912 1 0
-18.099463 -24.55101 -2.132874 4 3201990304608 1 0
-51.41502 -77.366295 2.7034416 34 3201990306912 1 0
-52.123394 -63.875446 1.4390557 58 3201990309216 1 0
-18.636126 -28.033697 -2.1574156 4 3201990309216 1 0
-19.8619 -22.04082 -1.7278917 28 3201990311520 1 1
-64.98589 -88.06961 6.37413 28 3201990311520 1 0
-52.169884 -63.894463 3.3606303 29 3201990313824 1 0
-29.435596 -39.879307 -2.3088744 9 3201990313824 1 0
0 0 0 1 3201990316128 1 0
-52.247757 -63.95186 6.7415347 28 3201990318432 1 0
-29.561186 -36.193974 -2.4491134 11 3201990316128 1 0
-29.355927 -44.10346 -2.1584628 10 3201990318432 1 0
0 0 0 9 3201990320736 1 0
0 0 0 10 3201990320736 1 0
-51.823578 -70.12509 -2.029011 29 3201990323040 1 0
-2.4130156 -2.9439332 -1.7749968 4 3201990343776 1 0
-31.598875 -47.30893 -0.99304193 30 3201990343776 1 0
-41.405144 -50.50022 -1.9005427 46 3201990346080 1 0
0 0 0 29 3201990323040 1 0
-3.798565 -5.124419 -1.7856672 4 3201990346080 1 0
-5.835263 -7.1149297 -1.8403647 3 3201990348384 1 0
-51.90926 -70.00643 0 28 3201990348384 1 0
-51.49887 -56.86511 -0.89315045 13 3201990350688 1 0
-7.0873823 -9.555358 -1.8508785 2 3201990350688 1 0
-9.7716675 -11.907517 -1.960693 4 3201990352992 1 0
-31.241547 -46.715084 0.32662955 39 3201990352992 1 0
-51.996292 -63.342632 -0.47629794 28 3201990355296 1 0
-9.518567 -12.825334 -1.720407 22 3201990355296 1 0
0 0 0 13 3201990357600 1 0
-51.893013 -69.89948 2.0257542 28 3201990357600 1 0
-51.666275 -56.983295 0.89547867 25 3201990359904 1 0
-18.192188 -24.497292 -2.133711 4 3201990359904 1 0
0 0 0 90 3201990362208 1 0
-51.37554 -76.724556 2.687267 34 3201990362208 1 0
-52.08195 -63.371773 1.4317955 58 3201990364512 1 0
-18.769411 -28.02154 -2.161509 4 3201990364512 1 0
-19.898464 -21.926996 -1.7244034 70 3201990366816 1 1
-65.18334 -87.69481 6.363432 28 3201990366816 1 0
-52.13875 -63.40327 3.3443472 29 3201990369120 1 0
-29.605616 -39.818 -2.311294 9 3201990369120 1 0
0 0 0 8 3201990371424 1 0
0 0 0 1 3201990371424 1 0
-52.19963 -63.439686 6.706711 28 3201990373728 1 0
-29.589838 -44.120216 -2.1643248 10 3201990373728 1 0
0 0 0 9 3201990376032 1 0
0 0 0 86 3201990376032 1 0
0 0 0 29 3201990378336 1 0
-51.90328 -69.722435 -2.0225904 29 3201990378336 1 0
-2.4232771 -2.9354923 -1.7749968 4 3201990399072 1 0
-31.810713 -47.26802 -0.9945079 30 3201990399072 1 0
-41.70846 -50.509537 -1.9063609 23 3201990401376 1 0
-3.81182 -5.1049557 -1.7835106 4 3201990401376 1 0
-5.860063 -7.094517 -1.8403647 2 3201990403680 1 0
-52.160492 -69.83442 0 28 3201990403680 1 0
-51.476044 -56.442665 -0.8893322 13 3201990405984 1 0
-7.127791 -9.540059 -1.8527232 2 3201990405984 1 0
-9.813173 -11.873336 -1.960693 4 3201990408288 1 0
-31.48042 -46.71853 0.32741997 39 3201990408288 1 0
-51.9877 -62.883293 -0.47420567 28 3201990410592 1 0
0 0 0 6 3201990410592 1 0
-12.318875 -13.49562 -1.7057096 23 3201990412896 1 0
-52.105556 -69.676285 2.0245445 28 3201990412896 1 0
-51.641026 -56.55744 0.89161384 25 3201990415200 1 0
-11.106791 -13.422623 -1.422251 28 3201990417504 1 0
-18.260859 -24.411274 -2.1317577 4 3201990415200 1 0
-51.22935 -75.93157 2.6657403 35 3201990417504 1 0
-52.042732 -62.875336 1.4246749 58 3201990419808 1 0
-18.862644 -27.949234 -2.1609974 4 3201990419808 1 0
-19.929087 -21.807293 -1.7204499 53 3201990422112 1 1
-65.34785 -87.278145 6.3497114 28 3201990422112 1 0
-52.09717 -62.903843 3.327576 29 3201990424416 1 0
-29.816284 -39.810356 -2.3168776 9 3201990424416 1 0
0 0 0 8 3201990426720 1 0
0 0 0 1 3201990426720 1 0
-29.830936 -44.14581 -2.170675 10 3201990429024 1 0
0 0 0 10 3201990431328 1 0
0 0 0 9 3201990431328 1 0
0 0 0 29 3201990433632 1 0
-52.17655 -62.9624 6.675467 28 3201990429024 1 0
-51.00438 -68.01795 -1.9782975 29 3201990433632 1 0
-2.4358268 -2.9298031 -1.7766871 4 3201990454368 1 0
-32.074276 -47.302338 -0.9975796 30 3201990454368 1 0
-42.024395 -50.533325 -1.9127609 23 3201990456672 1 0
-3.8295424 -5.091675 -1.7835106 4 3201990456672 1 0
-5.892111 -7.083236 -1.842718 2 3201990458976 1 0
-50.858067 -67.60133 0 57 3201990458976 1 0
-51.461983 -56.038055 -0.8857467 13 3201990461280 1 0
-7.160633 -9.515432 -1.8527232 2 3201990461280 1 0
-9.864023 -11.851782 -1.9627132 4 3201990463584 1 0
-50.162655 -60.255188 -0.45567727 27 3201990465888 1 0
-31.723717 -46.732647 0.32828012 39 3201990463584 1 0
-9.695455 -12.876821 -1.7362573 2 3201990465888 1 0
-12.394381 -13.485871 -1.709799 2 3201990468192 1 0
-50.838783 -67.502106 1.9663867 28 3201990468192 1 0
-51.556286 -56.081768 0.8868643 25 3201990470496 1 0
-18.353083 -24.361998 -2.132874 4 3201990470496 1 0
0 0 0 28 3201990472800 1 0
-51.260536 -75.42759 2.654104 35 3201990472800 1 0
-50.228367 -60.269917 1.3694555 27 3201990475104 1 0
-18.960928 -27.892305 -2.161509 4 3201990475104 1 0
0 0 0 24 3201990477408 1 0
-65.51924 -86.89963 6.3380837 28 3201990477408 1 0
-50.327885 -60.35719 3.201709 29 3201990479712 1 0
-29.951118 -39.71402 -2.3170638 9 3201990479712 1 0
0 0 0 8 3201990482016 1 0
0 0 0 1 3201990482016 1 0
-52.11853 -62.471416 6.641619 28 3201990484320 1 0
-30.091206 -44.215588 -2.1789794 10 3201990484320 1 0
-20.907032 -22.700418 -1.0776964 4 3201990486624 1 0
0 0 0 9 3201990486624 1 0
0 0 0 29 3201990488928 1 0
-50.8749 -67.38472 -1.9647118 87 3201990488928 1 0
-32.28135 -47.287224 -0.9993946 30 3201990509664 1 0
-2.445019 -2.9221363 -1.7766871 4 3201990509664 1 0
-42.879494 -51.23104 -1.9442949 23 3201990511968 1 0
-3.8526053 -5.088748 -1.7867455 5 3201990511968 1 0
-5.912125 -7.061425 -1.8419336 2 3201990514272 1 0
-52.526913 -69.35863 0 28 3201990514272 1 0
-51.399815 -55.61131 -0.8816025 13 3201990516576 1 0
-7.1934996 -9.495569 -1.8533381 2 3201990516576 1 0
-9.909884 -11.828996 -1.9642285 2 3201990518880 1 0
-31.953447 -46.74555 0.3290938 39 3201990518880 1 0
-51.858654 -61.882206 -0.4692539 28 3201990521184 1 0
-9.778104 -12.899115 -1.7435399 5 3201990521184 1 0
-12.543925 -13.559257 -1.7242984 1 3201990523488 1 0
-51.042496 -67.31307 1.9657353 28 3201990523488 1 0
-18.442884 -24.314121 -2.13399 4 3201990525792 1 0
-51.54516 -55.70026 0.88351166 24 3201990525792 1 0
-16.279535 -19.408073 -2.0679595 3 3201990528096 1 0
-51.115173 -74.67978 2.6337407 36 3201990528096 1 0
-51.992245 -61.96469 1.4118997 58 3201990530400 1 0
-19.049416 -27.822271 -2.1609974 4 3201990530400 1 0
-20.142694 -21.74642 -1.7262638 8 3201990532704 1 1
-65.68044 -86.50727 6.3255253 28 3201990532704 1 0
-52.217545 -62.194614 3.3085248 29 3201990535008 1 0
-30.11666 -39.653877 -2.3194835 9 3201990535008 1 0
-23.218275 -27.645956 -1.8920494 22 3201990537312 1 0
0 0 0 1 3201990537312 1 0
-52.234753 -62.17654 6.629252 28 3201990539616 1 0
0 0 0 10 3201990541920 1 0
-30.353214 -44.27378 -2.1869578 10 3201990539616 1 0
0 0 0 9 3201990541920 1 0
0 0 0 29 3201990544224 1 0
-52.25086 -68.71026 -2.0086327 29 3201990544224 1 0
-2.4580493 -2.9159272 -1.7783777 4 3201990564960 1 0
-32.538326 -47.290497 -1.0019776 31 3201990564960 1 0
-3.8688576 -5.071559 -1.7856672 4 3201990567264 1 0
-42.84237 -50.80792 -1.9341714 23 3201990567264 1 0
-5.940393 -7.0427933 -1.842718 2 3201990569568 1 0
-52.648735 -68.99469 0 28 3201990569568 1 0
-51.36224 -55.16606 -0.8775048 12 3201990571872 1 0
-7.2280474 -9.469298 -1.8533381 2 3201990571872 1 0
-9.960508 -11.801981 -1.9657437 2 3201990574176 1 0
-32.20263 -46.744343 0.32990748 39 3201990574176 1 0
-51.845486 -61.412422 -0.46711513 28 3201990576480 1 0
-9.863472 -12.914116 -1.7503941 25 3201990576480 1 0
0 0 0 14 3201990578784 1 0
-52.626053 -68.881836 2.0171003 28 3201990578784 1 0
-51.50887 -55.259056 0.8794606 24 3201990581088 1 0
-18.530643 -24.247305 -2.13399 4 3201990581088 1 0
-16.336569 -19.334002 -2.066332 3 3201990583392 1 0
-51.17989 -74.19871 2.623268 36 3201990583392 1 0
-51.96196 -61.47779 1.4050584 58 3201990585696 1 0
0 0 0 23 3201990588000 1 0
-19.14491 -27.746948 -2.1604857 4 3201990585696 1 0
-52.558907 -62.14738 3.316015 29 3201990590304 1 0
-52.698013 -68.89291 5.0513506 28 3201990588000 1 0
-30.263489 -39.551994 -2.3198557 9 3201990590304 1 0
0 0 0 59 3201990592608 1 0
0 0 0 1 3201990592608 1 0
-52.53884 -62.087017 6.6396666 28 3201990594912 1 0
-30.62242 -44.32625 -2.1949365 10 3201990594912 1 0
0 0 0 10 3201990597216 1 0
0 0 0 9 3201990597216 1 0
0 0 0 29 3201990599520 1 0
-52.246815 -68.20022 -1.9991412 29 3201990599520 1 0
-2.470559 -2.9100928 -1.7800682 4 3201990620256 1 0
-32.778393 -47.285095 -1.0042813 31 3201990620256 1 0
-42.921112 -50.54225 -1.9297496 23 3201990622560 1 0
-3.886537 -5.058023 -1.7856672 4 3201990622560 1 0
-5.9624014 -7.019025 -1.8419336 2 3201990624864 1 0
-52.56992 -68.395035 0 28 3201990624864 1 0
-48.266167 -51.479214 -0.8215345 23 3201990627168 1 0
-7.265876 -9.450276 -1.854568 2 3201990627168 1 0
-10.004213 -11.770164 -1.9662488 2 3201990629472 1 0
-32.44771 -46.749943 0.3307444 39 3201990629472 1 0
-51.800446 -60.926334 -0.46479037 28 3201990631776 1 0
-12.757233 -13.59458 -1.7402847 23 3201990634080 1 0
-9.930315 -12.907976 -1.7542497 22 3201990631776 1 0
-52.62717 -68.38714 2.0079813 28 3201990634080 1 0
-51.474243 -54.836872 0.8755957 24 3201990636384 1 0
-18.612736 -24.179312 -2.133711 4 3201990636384 1 0
-16.411709 -19.285967 -2.0673084 9 3201990638688 1 0
-51.0872 -73.51397 2.605348 37 3201990638688 1 0
-51.929966 -61.006718 1.3984264 58 3201990640992 1 0
-19.250763 -27.69306 -2.161509 4 3201990640992 1 0
-20.20599 -21.507162 -1.7185894 28 3201990643296 1 1
-52.915462 -62.127842 3.324808 29 3201990645600 1 0
-52.71395 -68.41752 5.0299554 28 3201990643296 1 0
-30.425758 -39.47776 -2.321717 9 3201990645600 1 0
-23.293947 -27.341278 -1.8824197 30 3201990647904 1 0
0 0 0 1 3201990647904 1 0
-30.829472 -44.294533 -2.1986816 10 3201990650208 1 0
-53.008667 -62.200607 6.6715612 28 3201990650208 1 0
0 0 0 10 3201990652512 1 0
0 0 0 9 3201990652512 1 0
0 0 0 29 3201990654816 1 0
-52.284237 -67.75782 -1.9915109 29 3201990654816 1 0
-2.478346 -2.8986957 -1.7783777 4 3201990675552 1 0
-33.027977 -47.29171 -1.0068642 31 3201990675552 1 0
-51.379417 -60.076134 -2.3005958 27 3201990677856 1 0
-3.9065268 -5.047472 -1.7867455 4 3201990677856 1 0
-5.9945154 -7.007111 -1.844287 2 3201990680160 1 0
-48.31926 -51.17664 -0.81939256 23 3201990682464 1 0
-52.55368 -67.88218 0 28 3201990680160 1 0
-7.293979 -9.418607 -1.8533381 2 3201990682464 1 0
-10.0452385 -11.735171 -1.9662488 2 3201990684768 1 0
-32.681755 -46.738014 0.33146507 40 3201990684768 1 0
-51.75525 -60.444355 -0.46248883 28 3201990687072 1 0
-10.011851 -12.920389 -1.7606754 23 3201990687072 1 0
-52.61078 -67.87431 1.9983038 57 3201990689376 1 0
-12.848376 -13.59628 -1.7462331 6 3201990689376 1 0
-51.445538 -54.424324 0.8718706 23 3201990691680 1 0
-18.694578 -24.11104 -2.133432 4 3201990691680 1 0
-16.46077 -19.20737 -2.0650303 31 3201990693984 1 0
-50.81378 -72.57859 2.5784686 37 3201990693984 1 0
-51.93697 -60.5852 1.3929114 57 3201990696288 1 0
-19.340443 -27.615885 -2.1607416 4 3201990696288 1 0
-20.231543 -21.384285 -1.7144035 40 3201990698592 1 1
-52.675804 -67.87662 5.003677 28 3201990698592 1 0
-53.243896 -62.073196 3.3318095 29 3201990700896 1 0
-30.634432 -39.46285 -2.3271146 9 3201990700896 1 0
-23.394447 -27.265863 -1.8828384 7 3201990703200 1 0
0 0 0 1 3201990703200 1 0
-53.248833 -62.042423 6.6744905 28 3201990705504 1 0
-31.059624 -44.294636 -2.204055 10 3201990705504 1 0
-21.500246 -22.69881 -1.0917958 4 3201990707808 1 0
0 0 0 29 3201990710112 1 0
0 0 0 9 3201990707808 1 0
-52.2505 -67.227585 -1.9812751 29 3201990710112 1 0
-2.48558 -2.8877137 -1.7766871 4 3201990730296 1 0
-33.159313 -47.14594 -1.0060964 31 3201990730296 1 0
-44.10455 -51.224255 -1.9672183 47 3201990732600 1 0
-3.9232798 -5.034461 -1.7867455 4 3201990732600 1 0
-6.0255 -6.996022 -1.8466405 2 3201990734904 1 0
-52.496674 -67.34396 0 28 3201990734904 1 0
-48.28866 -50.803432 -0.81599337 23 3201990737208 1 0
-7.330238 -9.400441 -1.854568 2 3201990737208 1 0
-10.09221 -11.710519 -1.967764 2 3201990739512 1 0
-32.925438 -46.752697 0.33234847 40 3201990739512 1 0
-51.685978 -59.95543 -0.4600711 27 3201990741816 1 0
0 0 0 6 3201990741816 1 0
-13.001044 -13.665569 -1.7607324 1 3201990744120 1 0
-51.388607 -53.998726 0.8678195 23 3201990746424 1 0
-52.521122 -67.29052 1.9863 28 3201990744120 1 0
-18.780565 -24.054249 -2.13399 4 3201990746424 1 0
-16.56716 -19.200012 -2.0702376 18 3201990748728 1 0
-50.943184 -72.24333 2.5726504 37 3201990748728 1 0
-51.893288 -60.121605 1.3862796 56 3201990751032 1 0
-20.317665 -21.33006 -1.7155663 34 3201990753336 1 1
-52.573574 -67.27296 4.9722815 28 3201990753336 1 0
-53.587627 -62.04628 3.3401139 29 3201990755640 1 0
-30.805187 -39.4058 -2.3299065 9 3201990755640 1 0
-23.41921 -27.107496 -1.8773954 7 3201990757944 1 0
-52.764996 -67.47541 10.517324 28 3201990757944 1 0
-19.445223 -27.566637 -2.1620207 4 3201990751032 1 0
-53.470554 -61.872513 6.675792 28 3201990760248 1 0
-31.311968 -44.33208 -2.2112195 10 3201990760248 1 0
0 0 0 10 3201990762552 1 0
0 0 0 9 3201990762552 1 0
-16.185041 -18.716679 4.5114856 3 3201990764856 1 0
-2.4985223 -2.881323 -1.7783777 4 3201990785592 1 0
-33.195435 -46.83158 -1.0019776 41 3201990785592 1 0
-39.966686 -51.060818 -1.5088472 16 3201990764856 1 0
-3.9440114 -5.0231347 -1.7878238 4 3201990787896 1 0
0 0 0 9 3201990787896 1 0
-6.045757 -6.9681416 -1.8450714 2 3201990790200 1 0
-52.42495 -66.749985 0 28 3201990790200 1 0
-48.31743 -50.46643 -0.8133858 23 3201990792504 1 0
-7.3691173 -9.380049 -1.8557978 2 3201990792504 1 0
-10.139586 -11.680034 -1.9687742 2 3201990794808 1 0
-33.181828 -46.757587 0.3332319 40 3201990794808 1 0
-10.197193 -12.972486 -1.7773826 2 3201990797112 1 0
0 0 0 13 3201990799416 1 0
-33.40916 -38.47407 -0.29615188 9 3201990797112 1 0
-51.317772 -53.540947 0.86339587 23 3201990801720 1 0
-18.868628 -23.99031 -2.134269 4 3201990801720 1 0
-16.590734 -19.089943 -2.064705 9 3201990804024 1 0
-52.48224 -66.74695 1.975785 57 3201990799416 1 0
-50.91209 -71.65793 2.5582216 38 3201990804024 1 0
-33.349796 -38.362865 0.88728034 30 3201990806328 1 0
-19.535591 -27.487978 -2.1612532 4 3201990806328 1 0
-20.38985 -21.255531 -1.7153337 90 3201990808632 1 1
-52.555626 -66.764305 4.9483285 28 3201990808632 1 0
-31.002449 -39.372925 -2.3343735 9 3201990810936 1 0
-33.41651 -38.41816 2.074443 25 3201990810936 1 0
-52.68331 -66.88847 10.45444 28 3201990813240 1 0
-23.469118 -26.974352 -1.8738366 7 3201990813240 1 0
-53.80832 -61.827614 6.6910887 28 3201990815544 1 0
-31.57015 -44.36951 -2.2185469 10 3201990815544 1 0
0 0 0 10 3201990817848 1 0
0 0 0 9 3201990817848 1 0
-16.184856 -18.586584 4.493549 3 3201990820152 1 0
-51.337288 -65.12396 -1.929631 29 3201990820152 1 0
-2.5080633 -2.8730218 -1.7783777 4 3201990840888 1 0
-33.40167 -46.792854 -1.0035133 62 3201990840888 1 0
0 0 0 9 3201990843192 1 0
-3.96072 -5.0099707 -1.7878238 4 3201990843192 1 0
-6.0664525 -6.9449244 -1.844287 2 3201990845496 1 0
-50.60843 -63.995224 0 57 3201990845496 1 0
-7.4005904 -9.355237 -1.8557978 2 3201990847800 1 0
-10.184163 -11.651728 -1.9697843 2 3201990850104 1 0
-48.525574 -50.34413 -0.8140377 34 3201990847800 1 0
-33.430122 -46.77227 0.33413854 40 3201990850104 1 0
-33.534084 -38.35461 -0.29610538 9 3201990852408 1 0
-10.2954 -13.006457 -1.7868072 12 3201990852408 1 0
-13.217801 -13.700587 -1.7770905 20 3201990854712 1 0
-51.308823 -53.16665 0.86018294 23 3201990857016 1 0
-50.59905 -63.903095 1.8966904 28 3201990854712 1 0
-18.96538 -23.944447 -2.1359432 4 3201990857016 1 0
-16.653538 -19.029882 -2.0643795 25 3201990859320 1 0
-50.79475 -70.975525 2.540069 38 3201990859320 1 0
-33.647797 -38.437263 0.89167833 20 3201990861624 1 0
-19.644169 -27.439949 -2.1627882 4 3201990861624 1 0
-20.540987 -21.265244 -1.7218453 78 3201990863928 1 0
-52.525936 -66.253426 4.92391 28 3201990863928 1 0
-33.494553 -38.238632 2.0710237 37 3201990866232 1 0
-31.17885 -39.31501 -2.3373513 9 3201990866232 1 0
-23.584192 -26.9163 -1.8755113 7 3201990868536 1 0
-52.647526 -66.36514 10.401304 28 3201990868536 1 0
-54.15084 -61.782536 6.706711 28 3201990870840 1 0
-31.75575 -44.300808 -2.2206635 10 3201990870840 1 0
0 0 0 10 3201990873144 1 0
0 0 0 9 3201990873144 1 0
0 0 0 29 3201990875448 1 0
-2.5233648 -2.8692546 -1.7817585 4 3201990896184 1 0
-40.07351 -50.467384 -1.499542 32 3201990875448 1 0
-33.643017 -46.767517 -1.0056076 20 3201990896184 1 0
0 0 0 9 3201990898488 1 0
-3.9790194 -4.995449 -1.7878238 4 3201990898488 1 0
-6.0995393 -6.9315653 -1.8466405 2 3201990900792 1 0
-52.344757 -65.69647 0 28 3201990900792 1 0
-48.87863 -50.34205 -0.8168781 23 3201990903096 1 0
-7.439553 -9.3343935 -1.8570276 2 3201990903096 1 0
-10.218596 -11.605686 -1.9682691 2 3201990905400 1 0
-33.67244 -46.751022 0.33485922 27 3201990905400 1 0
-33.588448 -38.136616 -0.29536146 9 3201990907704 1 0
-10.374764 -13.009433 -1.7923762 23 3201990907704 1 0
0 0 0 84 3201990910008 1 0
-52.436123 -65.73264 1.9566162 28 3201990910008 1 0
-19.051798 -23.875744 -2.1359432 4 3201990912312 1 0
-16.758978 -19.011559 -2.0689359 21 3201990914616 1 0
-51.2581 -52.73134 0.8561318 22 3201990912312 1 0
-51.165024 -70.95075 2.545771 38 3201990914616 1 0
-33.807106 -38.339886 0.8922368 20 3201990916920 1 0
-19.745153 -27.372295 -2.163044 4 3201990916920 1 0
-20.68965 -21.26573 -1.7278917 53 3201990919224 1 0
-52.50195 -65.73667 4.899492 28 3201990919224 1 0
-54.586624 -61.86919 3.3614445 29 3201990921528 1 0
-31.414373 -39.3216 -2.3444242 9 3201990921528 1 0
-52.621914 -65.84759 10.349632 28 3201990923832 1 0
-19.995739 -22.656788 -1.583686 4 3201990923832 1 1
-32.030735 -44.349136 -2.228805 11 3201990926136 1 0
-21.366 -21.935366 -1.0693206 4 3201990928440 1 0
-54.495106 -61.72926 6.7220073 28 3201990926136 1 0
0 0 0 9 3201990928440 1 0
0 0 0 6 3201990930744 1 0
-2.533365 -2.860429 -1.7817585 4 3201990951480 1 0
0 0 0 29 3201990930744 1 0
-51.20779 -70.662865 -1.523246 29 3201990951480 1 0
0 0 0 9 3201990953784 1 0
-4.0012536 -4.987539 -1.7899804 4 3201990953784 1 0
-6.118495 -6.904361 -1.8450714 2 3201990956088 1 0
-52.33092 -65.21075 0 28 3201990956088 1 0
-49.258183 -50.379894 -0.8202773 23 3201990958392 1 0
-7.467142 -9.302203 -1.8557978 2 3201990958392 1 0
-10.264311 -11.575884 -1.9692792 2 3201990960696 1 0
0 0 0 1 3201990960696 1 0
-53.688763 -60.531376 -0.47025356 28 3201990963000 1 0
-10.45747 -13.019649 -1.798802 18 3201990963000 1 0
-13.473683 -13.768483 -1.7982818 1 3201990965304 1 0
-52.407272 -65.22812 1.9470317 28 3201990965304 1 0
-51.257195 -52.36345 0.8530586 22 3201990967608 1 0
-19.142523 -23.818426 -2.1367803 4 3201990967608 1 0
-16.856998 -18.98872 -2.0728414 6 3201990969912 1 0
-51.19383 -70.47089 2.534949 38 3201990969912 1 0
-51.695812 -58.216164 1.358984 27 3201990972216 1 0
-19.849966 -27.316122 -2.1640673 4 3201990972216 1 0
0 0 0 24 3201990974520 1 0
-52.475796 -65.235634 4.875771 28 3201990974520 1 0
-54.911095 -61.80077 3.3681204 29 3201990976824 1 0
-31.58651 -39.255287 -2.34703 9 3201990976824 1 0
0 0 0 68 3201990979128 1 0
-52.540276 -65.2769 10.288697 28 3201990979128 1 0
-32.17829 -44.227364 -2.2283165 11 3201990981432 1 0
-21.459234 -21.877773 -1.0701581 4 3201990983736 1 0
-54.85329 -61.699554 6.739582 28 3201990981432 1 0
0 0 0 9 3201990983736 1 0
0 0 0 29 3201990986040 1 0
-40.6163 -50.4173 -1.506521 65 3201990986040 1 0
-2.5385084 -2.8461576 -1.7783777 5 3201991006776 1 0
-51.432915 -70.45461 -1.5226177 29 3201991006776 1 0
0 0 0 9 3201991009080 1 0
-4.0113764 -4.964553 -1.7867455 4 3201991009080 1 0
-6.1451697 -6.8858876 -1.845856 2 3201991011384 1 0
-52.304276 -64.71348 0 28 3201991011384 1 0
-49.5965 -50.37295 -0.822978 23 3201991013688 1 0
-7.5020523 -9.279155 -1.8564126 2 3201991013688 1 0
-10.29937 -11.534064 -1.9682691 2 3201991015992 1 0
-51.41242 -70.34057 0.50638044 38 3201991015992 1 0
-51.4323 -57.58118 -0.44872624 26 3201991018296 1 0
0 0 0 6 3201991018296 1 0
0 0 0 14 3201991020600 1 0
-52.370514 -64.718376 1.9372612 28 3201991020600 1 0
-51.18696 -51.927845 0.8488678 22 3201991022904 1 0
-19.220526 -23.745258 -2.1362224 4 3201991022904 1 0
-16.936464 -18.944624 -2.0744686 6 3201991025208 1 0
-51.49854 -70.37242 2.5378582 38 3201991025208 1 0
-51.72542 -57.841576 1.3544464 54 3201991027512 1 0
-21.109644 -21.396507 -1.7504497 8 3201991029816 1 0
-52.38646 -64.66112 4.846469 28 3201991029816 1 0
-19.945196 -27.246666 -2.1640673 4 3201991027512 1 0
-55.25974 -61.757637 3.376262 29 3201991032120 1 0
0 0 0 17 3201991034424 1 0
-31.803846 -39.244125 -2.3529859 9 3201991032120 1 0
-52.5028 -64.76619 10.237025 28 3201991034424 1 0
-55.19863 -61.653244 6.7555294 28 3201991036728 1 0
-32.44116 -44.263058 -2.2358067 11 3201991036728 1 0
-21.549517 -21.816954 -1.0708562 4 3201991039032 1 0
0 0 0 9 3201991039032 1 0
0 0 0 29 3201991041336 1 0
-40.95581 -50.477066 -1.5125694 100 3201991041336 1 0
-2.543583 -2.831885 -1.7749968 5 3201991062072 1 0
-52.53862 -71.44423 -1.5479586 29 3201991062072 1 0
-4.0286455 -4.9505496 -1.7867455 4 3201991064376 1 0
0 0 0 9 3201991064376 1 0
-6.169069 -6.864485 -1.845856 2 3201991066680 1 0
-52.195587 -64.12178 0 28 3201991066680 1 0
-49.94272 -50.373867 -0.8258184 23 3201991068984 1 0
-7.5366907 -9.256141 -1.8570276 2 3201991068984 1 0
-10.333927 -11.492442 -1.9672589 2 3201991071288 1 0
-51.591568 -70.07521 0.50575274 38 3201991071288 1 0
-51.443653 -57.194996 -0.4470989 25 3201991073592 1 0
-10.643092 -13.063873 -1.8150808 2 3201991073592 1 0
-13.69792 -13.804724 -1.8153836 13 3201991075896 1 0
-52.24467 -64.10968 1.92442 28 3201991075896 1 0
-50.993347 -51.376743 0.8427213 21 3201991078200 1 0
-16.96405 -18.844894 -2.0699122 3 3201991080504 1 0
-51.62117 -70.03431 2.53204 38 3201991080504 1 0
-19.314697 -23.694468 -2.1376173 4 3201991078200 1 0
-51.67703 -57.390636 1.3480239 53 3201991082808 1 0
-20.040773 -27.181404 -2.164323 4 3201991082808 1 0
-21.343063 -21.485712 -1.7637054 8 3201991085112 1 0
-52.329483 -64.141335 4.8208876 28 3201991085112 1 0
-55.606487 -61.72024 3.384566 29 3201991087416 1 0
-31.962772 -39.16638 -2.3548472 9 3201991087416 1 0
-52.464325 -64.27034 10.186814 28 3201991089720 1 0
-19.967873 -22.15712 -1.5631703 4 3201991089720 1 1
-55.519806 -61.589798 6.769199 28 3201991092024 1 0
-32.60079 -44.16549 -2.236458 11 3201991092024 1 0
0 0 0 86 3201991094328 1 0
0 0 0 9 3201991094328 1 0
0 0 0 29 3201991096632 1 0
-41.219883 -50.45286 -1.5160123 33 3201991096632 1 0
-2.5578225 -2.8288126 -1.7783777 4 3201991117368 1 0
0 0 0 9 3201991119672 1 0
-51.816086 -69.97433 -1.5198253 29 3201991117368 1 0
-4.0524354 -4.9460425 -1.7899804 4 3201991119672 1 0
-6.194629 -6.846718 -1.8466405 2 3201991121976 1 0
-52.141026 -63.61889 0 28 3201991121976 1 0
-50.275562 -50.36998 -0.82851917 24 3201991124280 1 0
-7.5627346 -9.224654 -1.8557978 2 3201991124280 1 0
-10.380637 -11.466332 -1.9687742 2 3201991126584 1 0
-51.82773 -69.90073 0.50575274 38 3201991126584 1 0
-51.39554 -56.753498 -0.4450066 25 3201991128888 1 0
-10.742794 -13.095375 -1.8245053 13 3201991128888 1 0
0 0 0 28 3201991131192 1 0
-52.22664 -63.64401 1.9157661 57 3201991131192 1 0
-51.092316 -51.125767 0.84146404 21 3201991133496 1 0
-19.387974 -23.61906 -2.1367803 4 3201991133496 1 0
-17.039345 -18.79837 -2.071214 3 3201991135800 1 0
-51.86126 -69.85671 2.53204 38 3201991135800 1 0
-51.6274 -56.939583 1.3416014 53 3201991138104 1 0
-20.141489 -27.121775 -2.1650906 4 3201991138104 1 0
0 0 0 10 3201991140408 1 0
-52.285023 -63.63584 4.796469 28 3201991140408 1 0
-55.976456 -61.698254 3.3940103 29 3201991142712 1 0
-32.187523 -39.163082 -2.3613615 9 3201991142712 1 0
-19.961876 -21.995586 -1.5566807 9 3201991145016 1 1
-52.42109 -63.761738 10.135142 28 3201991145016 1 0
-55.890774 -61.566017 6.7880754 28 3201991147320 1 0
-32.848404 -44.176025 -2.2428083 11 3201991147320 1 0
-21.64315 -21.611065 -1.0680642 52 3201991149624 1 0
0 0 0 9 3201991149624 1 0
0 0 0 29 3201991151928 1 0
-41.514824 -50.448906 -1.5202928 50 3201991151928 1 0
-2.573056 -2.8247788 -1.7817585 4 3201991172664 1 0
-52.06025 -69.767914 -1.5194763 29 3201991172664 1 0
-4.0705004 -4.931186 -1.7899804 3 3201991174968 1 0
0 0 0 9 3201991174968 1 0
-6.224867 -6.829856 -1.8482094 2 3201991177272 1 0
-52.118248 -63.119675 0 28 3201991177272 1 0
-50.657257 -50.383915 -0.83177865 24 3201991179576 1 0
-7.59881 -9.200087 -1.8564126 2 3201991179576 1 0
-52.036064 -69.650925 0.505311 38 3201991181880 1 0
-10.419587 -11.425579 -1.9682691 4 3201991181880 1 0
-51.36123 -56.30361 -0.44293755 25 3201991184184 1 0
-10.82318 -13.096158 -1.8300743 18 3201991184184 1 0
-13.995135 -13.907476 -1.8417797 9 3201991186488 1 0
-52.199448 -63.143158 1.9063678 57 3201991186488 1 0
-51.1661 -50.830833 0.83964807 21 3201991188792 1 0
-19.4783 -23.554983 -2.1373384 4 3201991188792 1 0
-17.101664 -18.7309 -2.070563 3 3201991191096 1 0
-52.112896 -69.6692 2.53204 38 3201991191096 1 0
-51.586597 -56.484634 1.3352487 52 3201991193400 1 0
-20.224642 -27.029919 -2.1635556 4 3201991193400 1 0
-21.831354 -21.669384 -1.7913796 46 3201991195704 1 0
-52.281597 -63.16766 4.7753067 28 3201991195704 1 0
-56.29705 -61.606335 3.400035 29 3201991198008 1 0
0 0 0 2 3201991198008 1 0
0 0 0 34 3201991200312 1 0
-52.38806 -63.258823 10.084932 28 3201991200312 1 0
-56.36313 -61.642628 6.8186684 28 3201991202616 1 0
-33.132935 -44.227985 -2.2514384 11 3201991202616 1 0
0 0 0 9 3201991204920 1 0
0 0 0 29 3201991207224 1 0
-21.702988 -21.516918 -1.0672266 74 3201991204920 1 0
-41.826668 -50.461052 -1.5251315 16 3201991207224 1 0
-2.58045 -2.8131084 -1.7800682 4 3201991227960 1 0
-50.748734 -67.51731 -1.4743094 58 3201991227960 1 0
0 0 0 9 3201991230264 1 0
-4.0925417 -4.922931 -1.792137 4 3201991230264 1 0
-6.251124 -6.8111567 -1.8489938 2 3201991232568 1 0
-50.25463 -60.435352 0 27 3201991232568 1 0
-51.28023 -50.653103 -0.8391358 24 3201991234872 1 0
-7.6279507 -9.1708 -1.8557978 2 3201991234872 1 0
-10.469479 -11.401438 -1.9702893 4 3201991237176 1 0
-50.745262 -67.43914 0.4905255 40 3201991237176 1 0
-51.30985 -55.862606 -0.44084528 24 3201991239480 1 0
-10.916214 -13.117169 -1.8382137 10 3201991239480 1 0
-14.099078 -13.915719 -1.8492151 17 3201991241784 1 0
-52.155647 -62.65472 1.8969696 57 3201991241784 1 0
-51.298206 -50.617817 0.8389962 21 3201991244088 1 0
-19.560564 -23.491905 -2.1376173 4 3201991244088 1 0
-17.16477 -18.673086 -2.070563 3 3201991246392 1 0
-50.77196 -67.40114 2.455823 40 3201991246392 1 0
-51.575768 -56.093136 1.3300828 52 3201991248696 1 0
-20.322548 -26.97138 -2.164323 4 3201991248696 1 0
-22.057272 -21.74763 -1.8039376 43 3201991251000 1 0
-52.21908 -62.66417 4.750423 28 3201991251000 1 0
-56.477573 -61.392014 3.3985693 29 3201991253304 1 0
0 0 0 2 3201991253304 1 0
0 0 0 8 3201991255608 1 0
-52.343307 -62.779816 10.036184 28 3201991255608 1 0
-56.54204 -61.429806 6.815739 28 3201991257912 1 0
-33.406334 -44.28746 -2.2600682 11 3201991257912 1 0
0 0 0 9 3201991260216 1 0
-21.7679 -21.439854 -1.0669475 52 3201991260216 1 0
0 0 0 29 3201991262520 1 0
-42.16323 -50.52962 -1.531366 17 3201991262520 1 0
-2.589275 -2.804988 -1.7800682 4 3201991283256 1 0
0 0 0 9 3201991285560 1 0
-52.08989 -68.8502 -1.5069804 29 3201991283256 1 0
-4.1031866 -4.9040217 -1.7899804 2 3201991285560 1 0
-6.2782087 -6.7968826 -1.8505628 2 3201991287864 1 0
-52.003548 -62.13308 0 28 3201991287864 1 0
-7.6600595 -9.149153 -1.8564126 2 3201991290168 1 0
-51.72898 -50.767418 -0.84379226 12 3201991290168 1 0
-10.485023 -11.343957 -1.9662488 4 3201991292472 1 0
-52.46949 -69.25978 0.5050088 38 3201991292472 1 0
-51.294968 -55.479248 -0.4391482 24 3201991294776 1 0
-11.018014 -13.151333 -1.8480667 2 3201991294776 1 0
-14.199179 -13.921865 -1.8562789 3 3201991297080 1 0
-52.098564 -62.165733 1.8873851 28 3201991297080 1 0
-51.658627 -50.633514 0.84211594 43 3201991299384 1 0
-19.62366 -23.407993 -2.1359432 4 3201991299384 1 0
0 0 0 249 3201991301688 1 0
-52.400642 -69.07701 2.5233128 39 3201991301688 1 0
-51.527283 -55.659016 1.3239396 51 3201991303992 1 0
-20.409397 -26.895699 -2.1638114 4 3201991303992 1 0
-22.291567 -21.828243 -1.8169607 35 3201991306296 1 0
-52.179745 -62.18173 4.7274003 28 3201991306296 1 0
-56.657154 -61.16096 3.3966155 29 3201991308600 1 0
-23.151325 -27.580082 -1.677354 6 3201991308600 1 0
-52.31704 -62.304836 9.989387 28 3201991310904 1 0
-20.06975 -21.658188 -1.5474695 9 3201991310904 1 1
-56.76875 -61.242107 6.817041 28 3201991313208 1 0
-33.566845 -44.175972 -2.2603939 11 3201991313208 1 0
0 0 0 10 3201991315512 1 0
0 0 0 9 3201991315512 1 0
0 0 0 29 3201991317816 1 0
-42.423515 -50.47334 -1.5342506 17 3201991317816 1 0
-2.6024954 -2.7976794 -1.7817585 4 3201991338552 1 0
-52.084667 -68.296684 -1.4992316 29 3201991338552 1 0
-21.539278 -23.147272 -0.92019176 16 3201991340856 1 0
-4.1219864 -4.8882303 -1.7899804 4 3201991340856 1 0
-6.296243 -6.764113 -1.8482094 2 3201991343160 1 0
-51.991566 -61.636364 0 28 3201991343160 1 0
-54.109818 -52.697647 -0.87932086 26 3201991345464 1 0
-7.7002306 -9.125714 -1.8576425 2 3201991345464 1 0
-10.528502 -11.303614 -1.9662488 4 3201991347768 1 0
-52.480145 -68.72401 0.5025678 38 3201991347768 1 0
-11.117179 -13.166665 -1.856206 2 3201991350072 1 0
-14.326747 -13.939452 -1.8659451 3 3201991352376 1 0
-52.11497 -61.7025 1.8793826 57 3201991352376 1 0
-51.27584 -55.03313 -0.43717214 24 3201991350072 1 0
-52.024696 -50.60211 0.8449098 21 3201991354680 1 0
-19.703094 -23.320278 -2.1348271 4 3201991354680 1 0
0 0 0 252 3201991356984 1 0
-52.442055 -68.58309 2.5126076 39 3201991356984 1 0
-51.497807 -55.200485 1.3177265 25 3201991359288 1 0
-20.539196 -26.85201 -2.1666255 4 3201991359288 1 0
-22.54991 -21.912245 -1.8311466 35 3201991361592 1 0
-52.53674 -62.12117 4.7380977 28 3201991361592 1 0
-56.80976 -60.85532 3.3917305 29 3201991363896 1 0
0 0 0 22 3201991363896 1 0
0 0 0 100 3201991366200 1 0
-52.473816 -62.006516 9.973787 28 3201991366200 1 0
-56.86741 -60.87801 6.800768 28 3201991368504 1 0
-33.86259 -44.21175 -2.268861 11 3201991368504 1 0
-22.576918 -21.910414 -1.0986362 4 3201991370808 1 0
0 0 0 9 3201991370808 1 0
0 0 0 29 3201991373112 1 0
-42.753994 -50.47179 -1.5391824 17 3201991373112 1 0
-2.6072884 -2.7832866 -1.7783777 4 3201991394296 1 0
-52.071808 -67.78778 -1.4920411 29 3201991394296 1 0
-21.597404 -23.049232 -0.91926086 5 3201991396600 1 0
-4.1363893 -4.8709965 -1.788902 4 3201991396600 1 0
-6.3194237 -6.742461 -1.8482094 2 3201991398904 1 0
-51.954227 -61.16487 0 28 3201991398904 1 0
-7.726126 -9.0934305 -1.8564126 2 3201991401208 1 0
-56.439247 -54.593246 -0.91415095 40 3201991401208 1 0
-10.56387 -11.265129 -1.9657437 4 3201991403512 1 0
-52.46059 -68.21993 0.5001733 39 3201991403512 1 0
-51.26536 -54.65416 -0.43552157 23 3201991405816 1 0
-11.215255 -13.193034 -1.8652022 15 3201991405816 1 0
0 0 0 10 3201991408120 1 0
-52.67109 -50.894978 0.85268605 44 3201991410424 1 0
-19.777058 -23.252348 -2.1345482 4 3201991410424 1 0
-52.047302 -61.209465 1.8696121 57 3201991408120 1 0
-13.018163 -13.8677845 -1.5527596 116 3201991412728 1 0
-52.399364 -68.066536 2.4999242 39 3201991412728 1 0
-51.4814 -54.826916 1.31277 25 3201991415032 1 0
-20.608744 -26.763414 -2.1648347 4 3201991415032 1 0
-22.795145 -22.009172 -1.8453325 30 3201991417336 1 0
-52.86466 -62.104786 4.7497253 28 3201991417336 1 0
-23.305246 -27.371471 -1.6745621 72 3201991419640 1 0
-56.988743 -60.660324 3.3909163 29 3201991419640 1 0
-20.250551 -21.549568 -1.5497724 37 3201991421944 1 1
-52.838253 -62.040848 10.00596 28 3201991421944 1 0
-57.07846 -60.723957 6.803372 28 3201991424248 1 0
-34.09764 -44.232754 -2.2753742 11 3201991424248 1 0
-22.903326 -22.090462 -1.1112 4 3201991426552 1 0
0 0 0 9 3201991426552 1 0
0 0 0 29 3201991428856 1 0
-43.063595 -50.523575 -1.5447656 17 3201991428856 1 0
-2.6185062 -2.7777197 -1.7800682 4 3201991449592 1 0
-21.510946 -22.812233 -0.9125119 5 3201991451896 1 0
-52.010525 -67.269485 -1.4842224 29 3201991449592 1 0
-4.154245 -4.8608456 -1.7899804 4 3201991451896 1 0
-6.3434615 -6.7252436 -1.8489938 2 3201991454200 1 0
-56.517693 -54.32173 -0.91261435 54 3201991456504 1 0
-7.760189 -9.074783 -1.8576425 2 3201991456504 1 0
-10.594415 -11.225498 -1.9647336 4 3201991458808 1 0
-52.428867 -67.7291 0.49780202 39 3201991458808 1 0
-51.207375 -54.241867 -0.4335455 23 3201991461112 1 0
-51.88798 -60.695793 0 28 3201991454200 1 0
-11.309315 -13.217353 -1.87377 10 3201991461112 1 0
-14.604394 -14.024695 -1.8901106 13 3201991463416 1 0
-51.97944 -60.73121 1.8601207 56 3201991463416 1 0
-51.60674 -49.543865 0.8328497 20 3201991465720 1 0
-19.854965 -23.191113 -2.1348271 4 3201991465720 1 0
0 0 0 19 3201991468024 1 0
-52.361217 -67.56047 2.4875898 39 3201991468024 1 0
-51.42154 -54.405277 1.3066965 25 3201991470328 1 0
-20.696215 -26.69583 -2.1648347 4 3201991470328 1 0
-23.022987 -22.083393 -1.8578906 45 3201991472632 1 0
-53.190636 -62.073196 4.7606554 28 3201991472632 1 0
-57.142025 -60.422474 3.3881483 29 3201991474936 1 0
-23.359083 -27.251905 -1.6719563 18 3201991474936 1 0
-20.354843 -21.517118 -1.5522845 9 3201991477240 1 0
-53.16774 -62.00996 10.02936 28 3201991477240 1 0
-57.135166 -60.38003 6.7861223 28 3201991479544 1 0
-34.389362 -44.305218 -2.284981 11 3201991479544 1 0
-23.066578 -22.099455 -1.1155275 4 3201991481848 1 0
0 0 0 9 3201991481848 1 0
0 0 0 29 3201991484152 1 0
-43.79822 -51.037132 -1.564958 18 3201991484152 1 0
-2.635674 -2.7764502 -1.7851396 4 3201991504888 1 0
-21.606964 -22.754402 -0.91321003 5 3201991507192 1 0
-39.390797 -50.58149 -1.1190484 14 3201991504888 1 0
-4.1787252 -4.8550735 -1.7932153 2 3201991507192 1 0
-6.366898 -6.70306 -1.8489938 2 3201991509496 1 0
-51.84899 -60.223293 0 28 3201991509496 1 0
-59.90413 -57.17566 -0.96406794 14 3201991511800 1 0
-7.7918186 -9.04764 -1.8576425 2 3201991511800 1 0
-10.633534 -11.188448 -1.9647336 4 3201991514104 1 0
-52.4141 -67.22392 0.49543077 39 3201991514104 1 0
-51.153877 -53.80768 -0.43149972 23 3201991516408 1 0
-11.425478 -13.25914 -1.8853364 3 3201991516408 1 0
-14.774314 -14.089069 -1.9057251 3 3201991518712 1 0
-51.96397 -60.285873 1.8520252 56 3201991518712 1 0
-53.878216 -51.364346 0.8666088 23 3201991521016 1 0
-19.938402 -23.124687 -2.135106 4 3201991521016 1 0
0 0 0 28 3201991523320 1 0
-52.279346 -66.97071 2.472579 40 3201991523320 1 0
-51.36022 -53.961826 1.3003439 24 3201991525624 1 0
-20.80156 -26.639154 -2.1661139 4 3201991525624 1 0
-23.178001 -22.077255 -1.8641696 18 3201991527928 1 0
-53.503517 -61.999004 4.7692604 28 3201991527928 1 0
-57.267143 -60.132923 3.3831007 29 3201991530232 1 0
-23.43318 -27.146006 -1.6704674 6 3201991530232 1 0
-20.465645 -21.483536 -1.5550059 37 3201991532536 1 0
-53.44874 -61.899117 10.041547 28 3201991532536 1 0
-57.331833 -60.165794 6.7844954 28 3201991534840 1 0
-34.5635 -44.210094 -2.2862837 11 3201991534840 1 0
-23.360794 -22.22546 -1.1259973 15 3201991537144 1 0
0 0 0 9 3201991537144 1 0
0 0 0 29 3201991539448 1 0
-2.6378343 -2.7593715 -1.7800682 4 3201991560184 1 0
-44.16699 -51.1048 -1.5717508 18 3201991539448 1 0
-39.675724 -50.582146 -1.1221199 14 3201991560184 1 0
-21.66968 -22.661503 -0.9125119 5 3201991562488 1 0
-4.1906013 -4.8346357 -1.7910587 4 3201991562488 1 0
-6.39568 -6.6864634 -1.8505628 2 3201991564792 1 0
-51.781136 -59.72159 0 27 3201991564792 1 0
-60.03948 -56.905674 -0.9630435 14 3201991567096 1 0
-7.8207636 -9.0174 -1.8570276 2 3201991567096 1 0
