# .PCD v.7 - Point Cloud Data file format
VERSION .7
FIELDS x y z rgb timestamp_ns device_id active
SIZE 4 4 4 4 8 1 1
TYPE F F F F F U U
COUNT 1 1 1 1 1 1 1
WIDTH 957
HEIGHT 1
VIEWPOINT 0 0 0 1 0 0 0
POINTS 957               
DATA ascii
0 0 0 15 3202320758216 1 0
-16.134497 21.684568 -1.732226 8 3202320758216 1 0
-9.58791 17.849571 -1.1799896 19 3202320760520 1 0
-12.280262 18.314634 1.2841747 12 3202320760520 1 0
-88.02707 146.30637 6.9563856 29 3202320762824 1 0
-12.549689 18.722635 -1.0499283 44 3202320762824 1 0
-9.797937 16.290401 -0.99626726 7 3202320765128 1 0
-12.941969 19.314245 2.8546674 15 3202320765128 1 0
-11.132202 18.515198 1.7636564 25 3202320767432 1 0
-15.950224 21.464273 -1.0894897 3 3202320767432 1 0
-12.402761 23.123785 -0.91632116 36 3202320769736 1 0
-11.714159 17.493448 5.64122 22 3202320769736 1 0
-12.682881 21.108902 4.489961 9 3202320772040 1 0
-12.350467 18.449778 -0.5166278 4 3202320772040 1 0
-24.28604 32.79675 -0.71233743 13 3202320792776 1 0
-2.1217194 3.5423284 -1.9254488 3 3202320792776 1 0
-10.837136 18.098574 -0.61392665 31 3202320795080 1 0
-4.1005187 6.1455636 -2.0681822 5 3202320795080 1 0
-5.9550624 9.948214 -2.3188908 1 3202320797384 1 0
-12.314718 18.46165 0 2 3202320797384 1 0
-9.967006 18.668503 -0.24637188 17 3202320799688 1 0
-9.098147 13.643387 -2.5512607 8 3202320799688 1 0
-9.150785 15.295906 -2.2687874 4 3202320801992 1 0
-24.23647 32.765667 0.23687035 6 3202320801992 1 0
-10.550788 17.641308 -0.119469695 26 3202320804296 1 0
-10.258257 15.391789 -1.9924335 60 3202320804296 1 0
0 0 0 3 3202320806600 1 0
-8.627674 16.17518 -1.7112862 41 3202320806600 1 0
-10.196233 19.121944 0.25228554 26 3202320808904 1 0
-11.36792 17.06644 -1.4339141 1 3202320808904 1 0
0 0 0 93 3202320811208 1 0
-10.86213 18.183489 0.3697118 17 3202320813512 1 0
-16.080524 21.769302 -1.7345284 11 3202320813512 1 0
-24.233229 32.79719 1.1867775 5 3202320811208 1 0
-12.342543 23.16903 -1.5288237 57 3202320815816 1 0
-12.232545 18.380125 1.2858026 6 3202320815816 1 0
-82.864586 138.8 6.5859494 29 3202320818120 1 0
-12.52754 18.828716 -1.0534647 66 3202320818120 1 0
-9.678976 16.217321 -0.9897776 7 3202320820424 1 0
-12.126369 18.230936 2.6884377 7 3202320820424 1 0
-11.11651 18.631481 1.7711419 8 3202320822728 1 0
-15.929755 21.58884 -1.0930719 3 3202320822728 1 0
-11.561204 17.391132 5.595668 24 3202320825032 1 0
-12.080286 20.258839 4.300548 12 3202320827336 1 0
-17.85995 26.873753 -0.75084114 4 3202320827336 1 0
-2.1142864 3.555208 -1.9288298 3 3202320848072 1 0
-25.344156 34.451454 -0.7465441 14 3202320848072 1 0
-9.818317 18.453913 -0.7299579 20 3202320825032 1 0
-10.82669 18.211891 -0.61660296 34 3202320850376 1 0
-4.0810127 6.158534 -2.0681822 5 3202320850376 1 0
-5.925204 9.97059 -2.3196752 1 3202320852680 1 0
-21.699097 32.75684 0 5 3202320852680 1 0
-9.968464 18.817223 -0.2479085 37 3202320854984 1 0
-9.058413 13.679283 -2.5524905 8 3202320854984 1 0
-10.476575 17.642225 -2.611732 20 3202320857288 1 0
-24.04197 32.725185 0.2360102 6 3202320857288 1 0
-10.500911 17.689651 -0.119562685 28 3202320859592 1 0
-10.168103 15.365727 -1.9847225 53 3202320859592 1 0
-8.607516 16.267067 -1.7179781 33 3202320861896 1 0
-21.63255 32.701817 0.91238034 5 3202320861896 1 0
-10.106028 19.106447 0.25163364 26 3202320864200 1 0
0 0 0 1 3202320864200 1 0
-24.025452 32.7466 1.1820066 5 3202320866504 1 0
-10.739002 18.11714 0.3676175 36 3202320868808 1 0
-15.952044 21.74987 -1.7286444 5 3202320868808 1 0
-9.066957 15.290753 -1.4512167 25 3202320866504 1 0
-12.274136 23.232443 -1.5302191 60 3202320871112 1 0
-12.435706 18.825163 1.3139418 9 3202320871112 1 0
-82.308266 138.95879 6.5799246 29 3202320873416 1 0
-12.477701 18.895308 -1.0547675 49 3202320873416 1 0
-12.064845 18.276468 2.6889253 7 3202320875720 1 0
-9.6039915 16.220074 -0.9878935 7 3202320875720 1 0
-11.067109 18.697939 1.7737455 23 3202320878024 1 0
-15.907987 21.718933 -1.096817 3 3202320878024 1 0
-12.291207 23.300848 -0.9199507 25 3202320880328 1 0
-11.514306 17.454628 5.602915 13 3202320880328 1 0
-12.031764 20.342575 4.3091574 9 3202320882632 1 0
-17.884764 27.121094 -0.755959 4 3202320882632 1 0
-2.096938 3.5570543 -1.9254488 3 3202320903368 1 0
-10.893226 18.483805 -0.62439924 23 3202320905672 1 0
-23.905602 32.758736 -0.7078696 20 3202320903368 1 0
-4.0511684 6.1643834 -2.0649474 4 3202320905672 1 0
-5.887457 9.992925 -2.3196752 1 3202320907976 1 0
-21.476233 32.688225 0 5 3202320907976 1 0
-9.754633 18.581808 -0.24432306 19 3202320910280 1 0
-9.007017 13.713178 -2.5524905 8 3202320910280 1 0
-23.820995 32.67872 0.2350338 6 3202320912584 1 0
-10.463896 17.776583 -0.11988816 22 3202320914888 1 0
-10.078532 15.353316 -1.9782966 28 3202320914888 1 0
-8.594082 16.386683 -1.7272725 35 3202320917192 1 0
-21.45989 32.700645 0.9101471 5 3202320917192 1 0
-10.4128275 17.68453 -2.612237 16 3202320912584 1 0
-9.962198 19.001371 0.24977107 31 3202320919496 1 0
0 0 0 1 3202320919496 1 0
-9.0117445 15.323359 -1.4512167 6 3202320921800 1 0
-23.869522 32.781334 1.1801448 5 3202320921800 1 0
-10.659924 18.131313 0.36712882 34 3202320924104 1 0
-11.506801 15.807273 -1.2530562 3 3202320924104 1 0
-9.214115 17.591312 -1.1565014 42 3202320926408 1 0
-12.346929 18.835781 1.3116163 6 3202320926408 1 0
-81.68098 139.0133 6.5688524 29 3202320928712 1 0
-12.343225 18.835506 -1.0489976 38 3202320928712 1 0
-9.429971 16.053732 -0.9757516 50 3202320931016 1 0
-12.527486 19.122147 2.8068948 20 3202320931016 1 0
-11.0326 18.787704 1.7786274 8 3202320933320 1 0
-15.88442 21.844984 -1.1003993 3 3202320933320 1 0
-12.255627 23.427912 -0.9233011 29 3202320935624 1 0
-13.475553 20.581041 6.5916033 12 3202320935624 1 0
-12.589863 21.452467 4.5351624 16 3202320937928 1 0
-17.823019 27.228647 -0.75726175 4 3202320937928 1 0
-2.089415 3.569882 -1.9288298 3 3202320958664 1 0
-23.73919 32.74625 -0.7059848 6 3202320958664 1 0
-10.889216 18.61135 -0.627541 20 3202320960968 1 0
-4.037964 6.1868453 -2.0681822 5 3202320960968 1 0
-5.8555975 10.011626 -2.3196752 1 3202320963272 1 0
-21.350147 32.722965 0 5 3202320963272 1 0
-8.956515 13.732061 -2.5506458 8 3202320965576 1 0
-10.317629 17.65297 -2.6026406 10 3202320967880 1 0
-23.694244 32.726303 0.23482457 6 3202320967880 1 0
-10.946838 18.736084 -0.12611853 36 3202320970184 1 0
-9.707924 18.637827 -0.24464901 26 3202320965576 1 0
0 0 0 4 3202320970184 1 0
-8.595557 16.52071 -1.7384259 27 3202320972488 1 0
-21.278538 32.65678 0.9069833 5 3202320972488 1 0
-9.831263 18.902794 0.2480482 31 3202320974792 1 0
-10.179256 15.627614 -1.304167 1 3202320974792 1 0
-23.669315 32.733948 1.1756066 5 3202320977096 1 0
-8.944804 15.325613 -1.448613 3 3202320977096 1 0
-10.639652 18.235884 0.36852503 27 3202320979400 1 0
-11.444618 15.832653 -1.2520328 20 3202320979400 1 0
-9.118142 17.551298 -1.1518503 62 3202320981704 1 0
-12.266151 18.85038 1.3097559 26 3202320981704 1 0
-80.9447 138.83296 6.547359 29 3202320984008 1 0
-12.534375 19.269018 -1.0707742 41 3202320984008 1 0
-9.365222 16.068476 -0.97470486 60 3202320986312 1 0
-11.192966 19.211191 1.8150786 24 3202320988616 1 0
-12.512114 19.241222 2.8181067 34 3202320986312 1 0
-17.891548 24.783304 -1.2453171 4 3202320988616 1 0
-9.095203 17.533318 -0.68975365 26 3202320990920 1 0
-13.621377 20.961061 6.698237 9 3202320990920 1 0
-11.929301 20.489393 4.3227897 9 3202320993224 1 0
-17.833027 27.451275 -0.7617283 4 3202320993224 1 0
-2.074497 3.5743804 -1.9271393 3 3202321013960 1 0
-25.31926 35.196575 -0.75680614 14 3202321013960 1 0
-10.457888 18.02509 -0.60647947 63 3202321016264 1 0
-4.013212 6.198341 -2.0671039 4 3202321016264 1 0
-5.815074 10.026151 -2.3181064 1 3202321018568 1 0
-21.206638 32.76375 0 5 3202321018568 1 0
-9.60693 18.6091 -0.24381085 19 3202321020872 1 0
-8.910719 13.771239 -2.5518756 8 3202321020872 1 0
-10.199649 17.597677 -2.5890036 7 3202321023176 1 0
-23.484068 32.68555 0.2339179 6 3202321023176 1 0
-10.7364 18.529957 -0.12446795 31 3202321025480 1 0
-9.97915 15.432306 -1.9795818 13 3202321025480 1 0
-9.023058 17.496838 -1.8376901 23 3202321027784 1 0
-9.896667 19.197727 0.2514474 22 3202321030088 1 0
-10.068563 15.580518 -1.2971914 1 3202321030088 1 0
-8.915429 15.402633 -1.452844 1 3202321032392 1 0
-23.525448 32.783375 1.1743267 5 3202321032392 1 0
-10.822313 18.70331 0.3771814 33 3202321034696 1 0
-11.341014 15.808878 -1.2469162 25 3202321034696 1 0
-21.155788 32.726913 0.90679723 5 3202321027784 1 0
-9.014811 17.505838 -1.146734 60 3202321037000 1 0
-12.181026 18.867485 1.3078954 32 3202321037000 1 0
-80.11233 138.54448 6.5201664 29 3202321039304 1 0
-12.060033 18.686039 -1.0359689 15 3202321039304 1 0
0 0 0 34 3202321041608 1 0
-12.481934 19.345917 2.8268814 28 3202321041608 1 0
-17.800615 24.84378 -1.2451543 4 3202321043912 1 0
-9.005246 17.51229 -0.6876597 60 3202321046216 1 0
-13.456567 20.869837 6.65372 21 3202321046216 1 0
-11.879978 20.572578 4.3313994 9 3202321048520 1 0
-10.912863 18.885138 1.7805802 8 3202321043912 1 0
-17.841455 27.679214 -0.76628786 4 3202321048520 1 0
-2.0620074 3.5816002 -1.9271393 3 3202321069256 1 0
-25.31478 35.450733 -0.76036644 22 3202321069256 1 0
-10.436788 18.134258 -0.6089231 33 3202321071560 1 0
-3.993634 6.215553 -2.0681822 4 3202321071560 1 0
-5.7917767 10.066787 -2.3228133 2 3202321073864 1 0
-21.00351 32.69959 0 5 3202321073864 1 0
-9.496354 18.55351 -0.24264674 26 3202321076168 1 0
-8.866865 13.808911 -2.5531056 8 3202321076168 1 0
-10.1183815 17.598774 -2.583953 3 3202321078472 1 0
-23.339638 32.72499 0.23361568 6 3202321078472 1 0
-10.749388 18.70257 -0.1253746 61 3202321080776 1 0
-9.873672 15.386715 -1.9693005 5 3202321080776 1 0
-7.5350537 14.73747 -1.5451022 23 3202321083080 1 0
-20.942097 32.64573 0.9025168 5 3202321083080 1 0
-9.813211 19.200104 0.25102833 37 3202321085384 1 0
-9.960265 15.531596 -1.2902157 1 3202321085384 1 0
0 0 0 66 3202321087688 1 0
-23.3088 32.722008 1.1692067 5 3202321087688 1 0
-10.739042 18.709755 0.37655312 31 3202321089992 1 0
-11.292708 15.858124 -1.2476836 5 3202321089992 1 0
-8.920964 17.47318 -1.1425481 66 3202321092296 1 0
-12.140943 18.95024 1.3106861 6 3202321092296 1 0
-80.70603 140.70232 6.60842 29 3202321094600 1 0
-11.923617 18.616987 -1.0298269 7 3202321094600 1 0
-9.420301 16.428822 -0.99249905 7 3202321096904 1 0
-12.420751 19.399399 2.8283436 23 3202321096904 1 0
-10.910318 19.033796 1.7909948 17 3202321099208 1 0
-17.760113 24.970903 -1.2484108 4 3202321099208 1 0
-8.904118 17.465265 -0.68458855 47 3202321101512 1 0
-13.33574 20.841827 6.6299086 31 3202321101512 1 0
-11.667265 20.368073 4.2797413 18 3202321103816 1 0
-24.275908 37.95188 -1.0483302 7 3202321103816 1 0
-2.0530884 3.595072 -1.9305202 3 3202321124552 1 0
-25.24176 35.610664 -0.7619023 14 3202321124552 1 0
-10.428928 18.267803 -0.6121812 27 3202321126856 1 0
-3.971913 6.229455 -2.0681822 5 3202321126856 1 0
0 0 0 49 3202321129160 1 0
-20.859138 32.725483 0 5 3202321129160 1 0
-9.560037 18.839787 -0.2459528 19 3202321131464 1 0
-8.854716 13.896443 -2.563559 9 3202321131464 1 0
-10.04706 17.616753 -2.5814276 20 3202321133768 1 0
-23.192907 32.76056 0.23329021 6 3202321133768 1 0
-10.65036 18.680906 -0.12497939 31 3202321136072 1 0
-9.7472725 15.307031 -1.9547353 2 3202321136072 1 0
-7.458355 14.713948 -1.5398973 22 3202321138376 1 0
-20.72279 32.553337 0.8979572 5 3202321138376 1 0
-9.659354 19.062984 0.24879323 28 3202321140680 1 0
-9.76674 15.347453 -1.2720791 1 3202321140680 1 0
-8.866874 15.568426 -1.4626077 6 3202321142984 1 0
-10.570769 18.566399 0.37292302 10 3202321145288 1 0
-23.097485 32.666054 1.1643195 5 3202321142984 1 0
0 0 0 4 3202321145288 1 0
-12.158275 19.123928 1.3197558 9 3202321147592 1 0
-35.32517 62.086784 2.910245 87 3202321149896 1 0
-11.807121 18.577562 -1.0253599 7 3202321149896 1 0
-10.293064 18.097 -1.0911 8 3202321152200 1 0
-12.391281 19.502956 2.8371184 11 3202321152200 1 0
-8.825654 17.436522 -1.1381295 70 3202321147592 1 0
-10.877311 19.130682 1.7965276 21 3202321154504 1 0
-17.785788 25.192732 -1.2563895 4 3202321154504 1 0
-8.8467045 17.503376 -0.68486774 49 3202321156808 1 0
-13.225629 20.82954 6.611274 21 3202321156808 1 0
-11.821603 20.805557 4.3629684 15 3202321159112 1 0
-20.735878 32.668217 -0.90037656 5 3202321159112 1 0
-25.195549 35.80977 -0.7642758 15 3202321179296 1 0
-10.729444 18.947826 -0.6337082 24 3202321181600 1 0
-2.0405269 3.6022167 -1.9305202 3 3202321179296 1 0
-3.9480393 6.2400556 -2.0671039 5 3202321181600 1 0
-5.719278 10.103645 -2.3220286 17 3202321183904 1 0
-20.680157 32.69698 0 5 3202321183904 1 0
-9.4560585 18.798214 -0.24497496 11 3202321186208 1 0
-8.864993 14.021 -2.5807765 8 3202321186208 1 0
-9.521981 16.833473 -2.4617252 5 3202321188512 1 0
-22.990067 32.717625 0.23240681 6 3202321188512 1 0
-10.521403 18.606936 -0.124235466 34 3202321190816 1 0
-9.648614 15.27071 -1.9457392 5 3202321190816 1 0
-7.3794837 14.686835 -1.5343207 22 3202321193120 1 0
-20.586252 32.592564 0.89702666 5 3202321193120 1 0
-8.906013 17.73172 0.23100565 16 3202321195424 1 0
-9.74641 15.435929 -1.2765435 1 3202321195424 1 0
-8.811568 15.599795 -1.4626077 3 3202321197728 1 0
-12.620714 17.984135 0.63940996 1 3202321197728 1 0
-10.457484 18.52029 0.3712476 34 3202321200032 1 0
-8.734815 17.410751 -1.1344086 72 3202321202336 1 0
-12.104964 19.190773 1.3213837 32 3202321202336 1 0
-11.1046715 19.680502 0.9206359 3 3202321204640 1 0
-11.788201 16.803288 -1.3154787 1 3202321200032 1 0
-11.698089 18.552006 -1.0216373 25 3202321204640 1 0
-10.175263 18.039774 -1.0854478 5 3202321206944 1 0
-10.832151 19.21123 1.800433 12 3202321209248 1 0
-17.77562 25.3709 -1.2620885 4 3202321209248 1 0
-12.475969 19.792345 2.8727043 87 3202321206944 1 0
-13.060104 20.733074 6.5657215 6 3202321211552 1 0
-11.630731 20.642273 4.3199196 15 3202321213856 1 0
-20.539307 32.617443 -0.8969336 5 3202321213856 1 0
-2.0237598 3.60335 -1.9271393 3 3202321234592 1 0
-8.815994 17.59938 -0.6873805 52 3202321211552 1 0
-13.312743 19.069181 -0.40594298 5 3202321234592 1 0
-10.024163 17.85372 -0.5958905 13 3202321236896 1 0
-3.9252782 6.2543983 -2.0671039 5 3202321236896 1 0
-5.67689 10.114031 -2.3196752 18 3202321239200 1 0
-20.525469 32.714058 0 5 3202321239200 1 0
0 0 0 75 3202321241504 1 0
-8.820764 14.062865 -2.582621 7 3202321241504 1 0
-9.434514 16.818983 -2.4546542 10 3202321243808 1 0
0 0 0 8 3202321243808 1 0
-10.457125 18.64772 -0.12425871 25 3202321246112 1 0
-9.556226 15.244271 -1.9380282 4 3202321246112 1 0
-7.3026733 14.662915 -1.5291158 22 3202321248416 1 0
-20.466686 32.65834 0.8968406 5 3202321248416 1 0
-9.387381 18.854948 0.24520777 14 3202321250720 1 0
0 0 0 1 3202321250720 1 0
0 0 0 38 3202321253024 1 0
-10.551479 18.839094 0.37690216 24 3202321255328 1 0
0 0 0 100 3202321253024 1 0
0 0 0 18 3202321255328 1 0
-12.047216 19.245924 1.3223139 22 3202321257632 1 0
-8.694309 17.480087 -1.1369667 70 3202321257632 1 0
0 0 0 38 3202321259936 1 0
-11.585725 18.514061 -1.0173565 27 3202321259936 1 0
-12.522786 22.379364 -1.3439873 11 3202321262240 1 0
-11.854753 18.949484 2.7444975 19 3202321262240 1 0
-10.903368 19.491302 1.8232151 12 3202321264544 1 0
0 0 0 7 3202321264544 1 0
-8.788826 17.693344 -0.68989325 47 3202321266848 1 0
-12.951455 20.714592 6.5460515 27 3202321266848 1 0
-20.394285 32.628174 -0.89535177 5 3202321269152 1 0
-11.3755 20.347805 4.2503247 9 3202321269152 1 0
-2.0159602 3.6160226 -1.9305202 4 3202321289888 1 0
0 0 0 50 3202321289888 1 0
-11.213346 20.120573 -0.6703623 29 3202321292192 1 0
-5.6503725 10.142341 -2.3220286 20 3202321294496 1 0
-20.351364 32.667233 0 5 3202321294496 1 0
-9.22505 18.654198 -0.24227422 28 3202321296800 1 0
-8.781887 14.101147 -2.584466 8 3202321296800 1 0
-9.370508 16.832024 -2.452129 15 3202321299104 1 0
-3.9054735 6.266784 -2.0671039 5 3202321292192 1 0
-13.251996 19.134745 0.1352781 4 3202321299104 1 0
-10.4664755 18.807442 -0.12509564 34 3202321301408 1 0
-9.483506 15.238113 -1.9333159 2 3202321301408 1 0
-7.229956 14.636743 -1.523911 22 3202321303712 1 0
-20.344915 32.701374 0.8961892 5 3202321303712 1 0
-9.316361 18.867838 0.24497496 14 3202321306016 1 0
-8.75167 15.74304 -1.4704188 65 3202321308320 1 0
0 0 0 1 3202321306016 1 0
0 0 0 111 3202321308320 1 0
-10.397231 18.709904 0.3736211 34 3202321310624 1 0
-8.662025 17.56292 -1.140455 28 3202321312928 1 0
-12.178472 19.601738 1.3439416 27 3202321312928 1 0
-10.939409 19.699726 0.9180306 9 3202321315232 1 0
-11.314856 16.364363 -1.2750576 2 3202321310624 1 0
-11.468241 18.464882 -1.0125172 27 3202321315232 1 0
-12.504709 22.526628 -1.3502676 7 3202321317536 1 0
-11.716896 18.871668 2.7274358 34 3202321317536 1 0
-10.91005 19.661003 1.8355825 21 3202321319840 1 0
-12.663092 18.338217 -0.9079352 15 3202321319840 1 0
-10.228921 20.771894 -0.80855155 31 3202321322144 1 0
-11.591095 20.90336 4.357946 18 3202321324448 1 0
-12.130357 19.550926 6.1650696 8 3202321322144 1 0
0 0 0 22 3202321324448 1 0
-1.9991859 3.6170416 -1.9271393 3 3202321345184 1 0
-12.609084 18.325768 -0.38828114 11 3202321345184 1 0
-10.8476925 19.633009 -0.65279156 6 3202321347488 1 0
-3.8845494 6.2843046 -2.0681822 5 3202321347488 1 0
-5.6171017 10.169767 -2.3235977 21 3202321349792 1 0
-19.590656 31.70347 0 15 3202321349792 1 0
-9.146464 18.666134 -0.24199484 21 3202321352096 1 0
-8.726298 14.126324 -2.583236 8 3202321352096 1 0
-9.314996 16.876408 -2.453644 7 3202321354400 1 0
-12.570676 18.292727 0.12900123 4 3202321354400 1 0
-10.386563 18.824286 -0.124956146 42 3202321356704 1 0
-9.413524 15.248738 -1.9303172 2 3202321356704 1 0
-7.1558905 14.6199045 -1.5194496 28 3202321359008 1 0
0 0 0 12 3202321359008 1 0
-9.225255 18.854681 0.24436961 21 3202321361312 1 0
-9.427894 15.281959 -1.2556165 1 3202321361312 1 0
-8.712149 15.805928 -1.4733479 50 3202321363616 1 0
-12.373923 18.028877 0.63638455 40 3202321363616 1 0
-10.287351 18.670147 0.3720853 38 3202321365920 1 0
-11.208448 16.335865 -1.269685 1 3202321365920 1 0
-7.211904 14.756079 -0.95650315 21 3202321368224 1 0
-11.9822645 19.441395 1.3299882 10 3202321368224 1 0
-10.274961 18.660501 0.8678792 19 3202321370528 1 0
-11.355856 18.43104 -1.0084225 30 3202321370528 1 0
-9.885291 17.958998 -1.0743525 19 3202321372832 1 0
-11.618068 18.862762 2.7201238 18 3202321372832 1 0
-10.853231 19.724283 1.8378607 21 3202321375136 1 0
-12.577199 18.353643 -0.9064697 24 3202321375136 1 0
-10.079449 20.653732 -0.8025488 28 3202321377440 1 0
-11.279679 20.51342 4.2682614 9 3202321379744 1 0
-11.716313 19.034668 5.989073 7 3202321377440 1 0
-1.9813201 3.6144612 -1.9220679 3 3202321400480 1 0
-11.213949 18.224451 -0.49792424 6 3202321379744 1 0
-12.520227 18.33334 -0.38751322 20 3202321400480 1 0
-9.928042 18.11736 -0.60124314 19 3202321402784 1 0
-3.8565934 6.287947 -2.0649474 5 3202321402784 1 0
-5.5779476 10.182352 -2.3220286 25 3202321405088 1 0
0 0 0 54 3202321405088 1 0
-9.198741 18.938803 -0.24511465 26 3202321407392 1 0
-8.677244 14.156508 -2.583236 8 3202321407392 1 0
-9.201264 16.807613 -2.438997 15 3202321409696 1 0
-12.486994 18.306393 0.128792 19 3202321409696 1 0
-10.296513 18.814436 -0.12465393 44 3202321412000 1 0
-9.344175 15.254034 -1.9268901 2 3202321412000 1 0
-10.9765625 17.92441 0.48908427 22 3202321414304 1 0
-7.0828514 14.597903 -1.5146165 27 3202321414304 1 0
-9.2877655 19.149012 0.24776882 37 3202321416608 1 0
-8.694181 15.902203 -1.4795315 47 3202321418912 1 0
-12.347987 18.124113 0.6382463 106 3202321418912 1 0
-10.1063385 18.491198 0.3678269 38 3202321421216 1 0
0 0 0 98 3202321416608 1 0
-10.662559 15.654924 -1.2139142 1 3202321421216 1 0
0 0 0 12 3202321423520 1 0
-11.874075 19.414104 1.3253372 6 3202321423520 1 0
-10.213173 18.698946 0.86804205 79 3202321425824 1 0
-11.155362 18.244673 -0.9961383 59 3202321425824 1 0
-12.609398 23.093695 -1.3789477 24 3202321428128 1 0
-12.2743635 20.081041 2.889766 33 3202321428128 1 0
-10.816745 19.817019 1.843068 9 3202321430432 1 0
-12.494563 18.36651 -0.90500426 9 3202321430432 1 0
-10.01288 20.694967 -0.802828 31 3202321432736 1 0
-10.989092 17.989487 5.648467 13 3202321432736 1 0
0 0 0 99 3202321435040 1 0
-19.340862 31.671434 -0.8635278 5 3202321435040 1 0
-1.9779835 3.6369352 -1.9305202 3 3202321455776 1 0
-12.457119 18.371447 -0.38744342 6 3202321455776 1 0
-3.8416378 6.310628 -2.0681822 3 3202321458080 1 0
-5.541981 10.197508 -2.3212442 26 3202321460384 1 0
-9.9268465 18.25922 -0.6048504 5 3202321458080 1 0
-10.931503 17.963268 0 28 3202321460384 1 0
-9.0292015 18.749779 -0.24227422 27 3202321462688 1 0
-8.635796 14.195712 -2.5850809 7 3202321462688 1 0
-9.0990505 16.754879 -2.4268754 7 3202321464992 1 0
-12.418423 18.338488 0.12872227 10 3202321464992 1 0
0 0 0 19 3202321467296 1 0
-10.246053 18.873829 -0.124816656 38 3202321467296 1 0
-7.007233 14.568088 -1.5090399 31 3202321469600 1 0
-10.832425 17.824968 0.48536214 21 3202321469600 1 0
-8.865226 18.438076 0.23817655 13 3202321471904 1 0
-9.351878 15.393996 -1.2595229 57 3202321471904 1 0
-8.677555 16.002045 -1.4860407 39 3202321474208 1 0
-12.319302 18.21607 0.63999176 168 3202321474208 1 0
-10.040633 18.52241 0.3677571 44 3202321476512 1 0
-7.0912037 14.765747 -0.95394504 1 3202321478816 1 0
-10.574996 15.641981 -1.2100767 1 3202321476512 1 0
-12.913105 21.278046 1.449522 33 3202321478816 1 0
-10.138594 18.716764 0.8672279 41 3202321481120 1 0
-11.042135 18.201351 -0.9916713 52 3202321481120 1 0
-12.51159 23.105955 -1.3770636 60 3202321483424 1 0
-11.827444 19.502535 2.8005576 20 3202321483424 1 0
-10.667508 19.707558 1.8293989 6 3202321485728 1 0
-12.459182 18.453255 -0.90712106 4 3202321485728 1 0
-12.162689 25.365604 -0.982351 27 3202321488032 1 0
-10.779522 17.786844 5.5728917 6 3202321488032 1 0
-10.038578 18.559187 3.8471034 7 3202321490336 1 0
-22.952314 37.88572 -1.0307432 15 3202321490336 1 0
-1.9611994 3.6377783 -1.9271393 3 3202321511072 1 0
-12.3919325 18.4203 -0.38751322 4 3202321511072 1 0
-9.924618 18.415009 -0.60880667 33 3202321513376 1 0
-3.8165834 6.321313 -2.0671039 5 3202321513376 1 0
-5.5048656 10.217591 -2.3212442 18 3202321515680 1 0
-11.6308975 19.269985 0 27 3202321515680 1 0
-8.956072 18.771524 -0.24213453 21 3202321517984 1 0
-8.584328 14.226894 -2.5850809 8 3202321517984 1 0
-9.0065775 16.728195 -2.418289 5 3202321520288 1 0
0 0 0 3 3202321520288 1 0
-9.1614685 15.192885 -1.9110397 75 3202321522592 1 0
-10.132686 18.825983 -0.12425871 42 3202321522592 1 0
-6.934503 14.549923 -1.5045786 27 3202321524896 1 0
-10.756192 17.843063 0.48480386 29 3202321524896 1 0
-8.642919 18.14096 0.2339392 14 3202321527200 1 0
-9.270189 15.382793 -1.2558955 61 3202321527200 1 0
-8.650921 16.08892 -1.491248 32 3202321529504 1 0
-12.276859 18.292873 0.64115536 209 3202321529504 1 0
0 0 0 4 3202321531808 1 0
-10.018659 18.638802 0.36936274 27 3202321531808 1 0
-7.095817 14.909603 -0.96161944 1 3202321534112 1 0
-11.80828 19.612843 1.3332441 27 3202321534112 1 0
-9.993492 18.60431 0.86038905 35 3202321536416 1 0
-12.410071 23.110777 -1.3747609 38 3202321538720 1 0
-10.9370575 18.171476 -0.98794883 45 3202321536416 1 0
-11.509577 19.128674 2.7410853 16 3202321538720 1 0
-10.570654 19.69183 1.8245169 24 3202321541024 1 0
0 0 0 28 3202321541024 1 0
-12.279004 25.837212 -0.9989632 12 3202321543328 1 0
0 0 0 96 3202321543328 1 0
0 0 0 29 3202321545632 1 0
-10.01361 18.666502 3.8621705 35 3202321545632 1 0
-1.9474156 3.6410651 -1.9254488 4 3202321566368 1 0
-25.116941 37.604366 -0.78933746 7 3202321566368 1 0
-9.793477 18.3175 -0.6045013 24 3202321568672 1 0
-3.7955081 6.3339896 -2.0671039 4 3202321568672 1 0
-5.479899 10.253245 -2.3251667 7 3202321570976 1 0
-10.569447 17.64453 0 7 3202321570976 1 0
-8.911765 18.841282 -0.24264674 29 3202321573280 1 0
-8.538511 14.259047 -2.5856957 8 3202321573280 1 0
-8.97812 16.810993 -2.4258652 3 3202321575584 1 0
-12.345586 18.507925 0.12930346 2 3202321575584 1 0
-10.049992 18.824926 -0.12402624 31 3202321577888 1 0
-9.089508 15.189718 -1.9067558 75 3202321577888 1 0
-6.8645287 14.530227 -1.5001173 27 3202321580192 1 0
-10.754936 17.979088 0.48750237 28 3202321580192 1 0
-8.544995 18.094444 0.23296136 14 3202321582496 1 0
-9.195031 15.376717 -1.2528262 61 3202321582496 1 0
-8.640668 16.202946 -1.4990591 35 3202321584800 1 0
-12.242814 18.378164 0.64266807 212 3202321584800 1 0
-9.916723 18.602642 0.36796653 31 3202321587104 1 0
0 0 0 4 3202321587104 1 0
-6.9606905 14.757107 -0.95022416 1 3202321589408 1 0
-12.530788 20.976868 1.4230107 7 3202321589408 1 0
-10.024591 18.818834 0.86869335 24 3202321591712 1 0
-10.828757 18.133913 -0.98385406 49 3202321591712 1 0
-12.336835 23.168058 -1.3755983 38 3202321594016 1 0
-11.365405 19.039192 2.7225611 21 3202321594016 1 0
-10.503439 19.73228 1.8248425 18 3202321596320 1 0
-12.53367 18.845953 -0.9221013 40 3202321596320 1 0
-10.6827965 17.90812 5.5873857 12 3202321598624 1 0
-9.989177 21.211262 -0.8187422 26 3202321598624 1 0
-9.940183 18.68788 3.8593004 22 3202321600928 1 0
-10.769129 18.05911 -0.48927036 52 3202321600928 1 0
-1.9323593 3.6449754 -1.9237583 3 3202321621664 1 0
-9.451184 17.83387 -0.5873961 28 3202321623968 1 0
-3.7703457 6.3445196 -2.0660255 4 3202321623968 1 0
0 0 0 12 3202321626272 1 0
-11.450858 19.275223 0 38 3202321626272 1 0
-18.128347 27.357811 -0.5728578 4 3202321621664 1 0
-9.223188 19.684927 -0.25307715 17 3202321628576 1 0
-8.482468 14.283264 -2.584466 8 3202321628576 1 0
0 0 0 28 3202321630880 1 0
-21.60055 32.638996 0.2274783 5 3202321630880 1 0
-10.075162 19.038042 -0.12518862 31 3202321633184 1 0
-9.01809 15.195242 -1.9033288 72 3202321633184 1 0
-6.8017325 14.533349 -1.4978867 25 3202321635488 1 0
0 0 0 3 3202321635488 1 0
-9.131253 15.396122 -1.2517102 48 3202321637792 1 0
-8.572761 18.324469 0.23552239 9 3202321637792 1 0
-12.213924 18.478909 0.6446462 202 3202321640096 1 0
-8.625023 16.315071 -1.5065446 32 3202321640096 1 0
-9.88333 18.701866 0.36922312 31 3202321642400 1 0
0 0 0 4 3202321642400 1 0
-6.889035 14.742223 -0.94766605 1 3202321644704 1 0
-9.908532 18.762766 0.8644598 30 3202321647008 1 0
-12.398355 20.925554 1.4164991 32 3202321644704 1 0
-10.73313 18.121052 -0.98106223 61 3202321647008 1 0
-12.296753 23.293297 -1.3804132 68 3202321649312 1 0
-11.301257 19.086567 2.723536 31 3202321649312 1 0
-10.702716 20.280912 1.8720338 9 3202321651616 1 0
-12.58077 19.064047 -0.93056846 47 3202321651616 1 0
-12.27993 26.318403 -1.0141793 12 3202321653920 1 0
-10.546116 17.82304 5.5490804 27 3202321653920 1 0
-10.003991 18.970245 3.9102411 20 3202321656224 1 0
-10.808673 18.272827 -0.49401605 34 3202321656224 1 0
-1.922998 3.658116 -1.9271393 3 3202321676960 1 0
-24.91533 37.886723 -0.7915015 23 3202321676960 1 0
-9.437364 17.958708 -0.5904215 31 3202321679264 1 0
-3.7501788 6.360933 -2.0671039 4 3202321679264 1 0
-5.4012156 10.281622 -2.3228133 2 3202321681568 1 0
-10.9065 18.505098 0 32 3202321681568 1 0
-8.989776 19.361282 -0.24851385 19 3202321683872 1 0
-8.4388895 14.322818 -2.5863106 9 3202321683872 1 0
-9.21823 17.559383 -2.5243542 26 3202321686176 1 0
-21.397404 32.5765 0.22652514 5 3202321686176 1 0
-10.011197 19.076273 -0.12521186 34 3202321688480 1 0
0 0 0 17 3202321688480 1 0
-6.721432 14.491674 -1.4911946 23 3202321690784 1 0
-10.903464 18.523344 0.50015754 16 3202321690784 1 0
-8.539962 18.419165 0.23636055 14 3202321693088 1 0
0 0 0 1 3202321693088 1 0
-8.620803 16.443447 -1.5156574 29 3202321695392 1 0
-12.178936 18.564184 0.64615893 148 3202321695392 1 0
-9.793223 18.686016 0.36824578 31 3202321697696 1 0
0 0 0 4 3202321697696 1 0
-6.7798705 14.638861 -0.93952656 1 3202321700000 1 0
-11.729749 19.952293 1.347895 30 3202321700000 1 0
-10.691508 18.192001 -0.98292345 73 3202321702304 1 0
-9.212154 17.59504 -1.0408576 52 3202321704608 1 0
-11.272433 19.186535 2.7323108 19 3202321704608 1 0
-10.726213 20.493753 1.8883067 22 3202321706912 1 0
-9.838919 18.78583 0.8639713 30 3202321702304 1 0
-12.583843 19.210304 -0.93561614 52 3202321706912 1 0
-10.44653 17.79204 5.5283747 10 3202321709216 1 0
-9.963494 19.049295 3.9195683 17 3202321711520 1 0
-12.246045 26.479603 -1.0187861 4 3202321709216 1 0
-10.852082 18.488607 -0.4988548 38 3202321711520 1 0
-24.767693 37.935646 -0.79080343 23 3202321732256 1 0
-9.394261 18.021883 -0.59146875 34 3202321734560 1 0
-3.727073 6.370036 -2.0660255 4 3202321734560 1 0
-1.9108566 3.6644728 -1.9271393 4 3202321732256 1 0
-5.3633156 10.292598 -2.3212442 1 3202321736864 1 0
-10.955878 18.731224 0 27 3202321736864 1 0
-8.935133 19.412983 -0.24879323 9 3202321739168 1 0
-8.387044 14.344083 -2.5850809 9 3202321739168 1 0
-9.1246195 17.523252 -2.5147579 26 3202321741472 1 0
-21.281755 32.637844 0.2264554 5 3202321741472 1 0
-9.901017 19.021027 -0.124630675 40 3202321743776 1 0
-8.884356 15.204767 -1.8969029 3 3202321743776 1 0
-6.6510787 14.4671335 -1.4863615 25 3202321746080 1 0
-8.502949 18.502329 0.23705901 11 3202321748384 1 0
0 0 0 1 3202321746080 1 0
0 0 0 1 3202321748384 1 0
-9.080252 17.46284 -1.6067857 33 3202321750688 1 0
-12.153317 18.662132 0.6481371 116 3202321750688 1 0
-9.761336 18.779352 0.36943254 34 3202321752992 1 0
0 0 0 4 3202321752992 1 0
-6.7235594 14.647236 -0.93859637 1 3202321755296 1 0
-11.70432 20.064363 1.3527788 6 3202321755296 1 0
-10.623626 18.21785 -0.9823651 35 3202321757600 1 0
-9.106199 17.53766 -1.0356239 52 3202321759904 1 0
-9.797171 18.861696 0.86592525 30 3202321757600 1 0
-11.3790245 19.519762 2.7742338 19 3202321759904 1 0
-10.726047 20.664679 1.9006741 9 3202321762208 1 0
-12.526965 19.266514 -0.93626744 32 3202321762208 1 0
-12.277056 26.786589 -1.0289768 12 3202321764512 1 0
-10.640436 18.264986 5.663996 6 3202321764512 1 0
-9.811219 18.915638 3.8851295 20 3202321766816 1 0
-10.800766 18.546404 -0.4994131 28 3202321766816 1 0
-1.8947237 3.66468 -1.9237583 4 3202321787552 1 0
-24.552483 37.894325 -0.78815067 23 3202321787552 1 0
-9.393713 18.175331 -0.59542507 28 3202321789856 1 0
-3.7106156 6.3930016 -2.0692606 4 3202321789856 1 0
-5.3273554 10.311256 -2.3212442 1 3202321792160 1 0
-10.579272 18.233086 0 40 3202321792160 1 0
-8.907145 19.531393 -0.24991077 29 3202321794464 1 0
-8.342872 14.383529 -2.5869255 9 3202321794464 1 0
0 0 0 15 3202321796768 1 0
-21.078604 32.57425 0.22550225 5 3202321796768 1 0
-9.819885 19.027037 -0.12444469 36 3202321799072 1 0
-8.83721 15.246009 -1.8981881 2 3202321799072 1 0
-6.582378 14.450394 -1.482272 28 3202321801376 1 0
-19.882555 34.31301 0.92280227 6 3202321801376 1 0
-8.284164 18.193365 0.23272854 22 3202321803680 1 0
-8.970231 15.48588 -1.2514311 1 3202321803680 1 0
0 0 0 6 3202321805984 1 0
-9.002798 17.462538 -1.6038564 50 3202321805984 1 0
-9.8881 19.18659 0.37676254 34 3202321808288 1 0
-9.901708 15.32623 -1.1693996 1 3202321808288 1 0
0 0 0 23 3202321810592 1 0
-11.090201 19.164993 1.2895235 6 3202321810592 1 0
-9.727612 18.888674 0.86559963 19 3202321812896 1 0
-10.503948 18.15798 -0.9771536 24 3202321812896 1 0
-9.004702 17.491207 -1.0310184 55 3202321815200 1 0
-11.0961685 19.188179 2.7215862 36 3202321815200 1 0
-10.681212 20.755167 1.905556 52 3202321817504 1 0
-12.045759 18.668692 -0.9051671 9 3202321817504 1 0
-6.538847 14.399218 -0.5522496 6 3202321819808 1 0
-10.657809 18.442518 5.7074776 29 3202321819808 1 0
-9.739732 18.939272 3.8829772 20 3202321822112 1 0
-10.577932 18.310444 -0.49206194 34 3202321822112 1 0
-1.8875235 3.6806204 -1.9288298 3 3202321843296 1 0
-24.342308 37.844357 -0.7854281 7 3202321843296 1 0
-9.347981 18.234846 -0.596356 15 3202321845600 1 0
-3.6893952 6.405271 -2.0692606 4 3202321845600 1 0
-5.29671 10.335847 -2.3228133 1 3202321847904 1 0
-10.482823 18.205671 0 33 3202321847904 1 0
-8.74018 19.334856 -0.24702379 19 3202321850208 1 0
-8.281326 14.387136 -2.582621 9 3202321850208 1 0
-7.556425 14.755963 -2.1101944 4 3202321852512 1 0
-20.944525 32.603584 0.22522327 5 3202321852512 1 0
-9.709346 18.966923 -0.12384026 36 3202321854816 1 0
-8.826263 15.344177 -1.9067558 1 3202321854816 1 0
-6.5131164 14.424954 -1.4774389 11 3202321857120 1 0
0 0 0 5 3202321857120 1 0
-8.185943 18.136887 0.23165755 19 3202321859424 1 0
0 0 0 57 3202321861728 1 0
-9.034167 15.7161875 -1.2676146 1 3202321859424 1 0
0 0 0 6 3202321861728 1 0
-9.753427 19.080393 0.37403998 38 3202321864032 1 0
0 0 0 4 3202321864032 1 0
-6.544928 14.517923 -0.92743367 14 3202321866336 1 0
-80.32406 139.87607 9.393638 28 3202321866336 1 0
-9.786732 19.159296 0.8765092 24 3202321868640 1 0
-10.399913 18.116476 -0.9730589 24 3202321868640 1 0
-8.921217 17.471167 -1.0280875 52 3202321870944 1 0
-11.342723 19.765493 2.79812 25 3202321870944 1 0
-10.599639 20.765617 1.9032778 13 3202321873248 1 0
-11.899712 18.577282 -0.89881676 13 3202321873248 1 0
-6.486139 14.409886 -0.5518308 4 3202321875552 1 0
-10.64849 18.568254 5.7354302 21 3202321875552 1 0
-9.700118 19.017036 3.8923044 20 3202321877856 1 0
-10.391855 18.126858 -0.48619962 84 3202321877856 1 0
-1.8713782 3.6807237 -1.9254488 3 3202321898592 1 0
-20.773611 32.545326 -0.67394215 6 3202321898592 1 0
-19.03747 37.45804 -1.2228497 8 3202321900896 1 0
-3.6650567 6.414793 -2.0681822 5 3202321900896 1 0
-5.2515655 10.336865 -2.3188908 1 3202321903200 1 0
-10.539957 18.454182 0 38 3202321903200 1 0
-8.693464 19.412891 -0.24762912 1 3202321905504 1 0
-8.226821 14.409271 -2.5813913 9 3202321905504 1 0
-20.745787 32.545555 0.22431663 5 3202321907808 1 0
-7.481091 14.736473 -2.1036286 31 3202321907808 1 0
-8.813477 15.447753 -1.915752 3 3202321910112 1 0
-9.629718 18.97608 -0.12367752 38 3202321910112 1 0
-6.4425807 14.404256 -1.4729776 6 3202321912416 1 0
-8.2947035 18.552814 0.23659338 21 3202321914720 1 0
-8.893469 15.599027 -1.2556165 1 3202321914720 1 0
-7.4172764 14.632908 -1.3392593 4 3202321917024 1 0
-19.841185 34.788826 0.9319214 6 3202321912416 1 0
-20.73895 32.578724 1.1239419 4 3202321917024 1 0
-9.667437 19.07928 0.3733419 27 3202321919328 1 0
-6.439424 14.420827 -0.91975933 6 3202321921632 1 0
-10.823711 19.004879 1.2737097 3 3202321921632 1 0
-9.849728 15.478108 -1.1757954 1 3202321919328 1 0
-10.297598 18.08752 -0.9695225 20 3202321923936 1 0
-9.768808 19.293959 0.8810684 44 3202321923936 1 0
-8.822573 17.431694 -1.0239006 55 3202321926240 1 0
-11.23462 19.74039 2.788858 23 3202321926240 1 0
-10.516124 20.785698 1.9016504 22 3202321928544 1 0
-6.414798 14.38928 -0.55015564 4 3202321930848 1 0
-11.792302 18.555735 -0.895723 6 3202321928544 1 0
-10.887325 19.143759 5.9010744 17 3202321930848 1 0
-9.649353 19.08695 3.8994792 17 3202321933152 1 0
-1.8578751 3.687558 -1.9254488 3 3202321953888 1 0
-10.684259 18.793375 -0.50304216 31 3202321933152 1 0
-20.622095 32.570564 -0.67289495 6 3202321953888 1 0
-8.954807 17.779842 -0.5793671 7 3202321956192 1 0
-3.6397154 6.4247785 -2.0671039 5 3202321956192 1 0
-5.219237 10.366402 -2.3212442 1 3202321958496 1 0
-10.504325 18.548073 0 42 3202321958496 1 0
-23.250597 52.427803 -0.667686 8 3202321960800 1 0
-8.1629 14.418334 -2.5777018 9 3202321960800 1 0
-7.406487 14.720825 -2.0975678 27 3202321963104 1 0
-20.604744 32.58299 0.2240609 5 3202321963104 1 0
-8.927048 17.749138 -0.1154711 21 3202321965408 1 0
-8.767715 15.496622 -1.9178939 2 3202321965408 1 0
-6.368419 14.376235 -1.4677727 7 3202321967712 1 0
0 0 0 22 3202321967712 1 0
-9.731411 21.97614 0.27980506 12 3202321970016 1 0
-8.906566 15.75219 -1.2653824 1 3202321970016 1 0
-7.3903584 14.709011 -1.3438157 2 3202321972320 1 0
-13.216444 20.925209 0.7202816 2 3202321972320 1 0
-8.91962 17.758812 0.34688404 8 3202321974624 1 0
-9.741682 15.428441 -1.1693996 1 3202321974624 1 0
-6.3627815 14.384973 -0.9160384 6 3202321976928 1 0
-9.686777 19.299505 0.87976575 24 3202321979232 1 0
0 0 0 9 3202321976928 1 0
-10.200734 18.064358 -0.96635836 6 3202321979232 1 0
-8.738383 17.41597 -1.0211792 57 3202321981536 1 0
-10.831904 19.18828 2.7054994 7 3202321981536 1 0
-10.431294 20.797182 1.8993722 9 3202321983840 1 0
-12.689228 20.12126 -0.96915895 7 3202321983840 1 0
-6.342339 14.360205 -0.5482013 4 3202321986144 1 0
-10.226788 18.12804 5.5770326 23 3202321986144 1 0
-9.664615 19.281923 3.932483 17 3202321988448 1 0
-10.690132 18.955486 -0.50639206 36 3202321988448 1 0
-1.8456365 3.6936984 -1.9254488 4 3202322009184 1 0
-20.50546 32.625225 -0.67261577 6 3202322009184 1 0
-8.8831625 17.784466 -0.57855254 10 3202322011488 1 0
-3.6202307 6.440197 -2.0681822 5 3202322011488 1 0
-5.186433 10.387238 -2.3220286 1 3202322013792 1 0
-10.4542465 18.60388 0 40 3202322013792 1 0
0 0 0 26 3202322016096 1 0
-7.3288565 14.68871 -2.0894866 27 3202322018400 1 0
-20.416948 32.526382 0.22320074 5 3202322018400 1 0
-9.436999 18.9208 -0.122887105 42 3202322020704 1 0
-8.106984 14.431717 -2.5752423 8 3202322016096 1 0
-8.776065 15.633434 -1.9311739 1 3202322020704 1 0
-6.3024735 14.357436 -1.4636832 7 3202322023008 1 0
-10.618682 18.92227 0.5049032 32 3202322023008 1 0
-9.768254 22.261501 0.28301802 17 3202322025312 1 0
-7.3780184 14.808801 -1.3506503 1 3202322027616 1 0
-8.857382 15.789049 -1.2659404 1 3202322025312 1 0
-13.158504 20.990013 0.7209798 7 3202322027616 1 0
-9.47107 19.016804 0.37082872 61 3202322029920 1 0
0 0 0 4 3202322029920 1 0
-6.2915554 14.355248 -0.9127826 4 3202322032224 1 0
-10.598453 18.911991 1.262547 18 3202322032224 1 0
-9.598028 19.285776 0.87764895 33 3202322034528 1 0
-10.102222 18.032663 -0.962822 6 3202322034528 1 0
-8.693294 17.47422 -1.022854 52 3202322036832 1 0
-10.683121 19.076084 2.684538 31 3202322036832 1 0
-9.538365 19.179878 1.7486852 5 3202322039136 1 0
-12.677778 20.255892 -0.9735553 8 3202322039136 1 0
-6.2723866 14.334188 -0.54638654 4 3202322041440 1 0
-10.245904 18.307867 5.6215496 15 3202322041440 1 0
-10.636858 19.01293 -0.5069504 21 3202322043744 1 0
-9.680821 19.480541 3.9662044 26 3202322043744 1 0
-1.83595 3.7066157 -1.9288298 3 3202322064480 1 0
0 0 0 65 3202322064480 1 0
-3.5977283 6.4527946 -2.0681822 5 3202322066784 1 0
-9.275208 18.73265 -0.6083413 30 3202322066784 1 0
-5.148403 10.401763 -2.3212442 1 3202322069088 1 0
-8.555582 19.653036 -0.24953826 34 3202322071392 1 0
-10.451559 18.752066 0 34 3202322069088 1 0
-8.037321 14.425401 -2.5690932 8 3202322071392 1 0
-7.266984 14.6928625 -2.086456 15 3202322073696 1 0
-10.899192 17.498936 0.11981841 1 3202322073696 1 0
-9.151072 18.509008 -0.12000439 40 3202322076000 1 0
-8.7369175 15.6917715 -1.9346011 1 3202322076000 1 0
-6.2348495 14.339172 -1.4595937 7 3202322078304 1 0
-10.451436 18.777525 0.50006443 22 3202322078304 1 0
-8.346447 19.203152 0.24376428 12 3202322080608 1 0
-8.809975 15.833818 -1.2670566 1 3202322080608 1 0
-7.3015656 14.784421 -1.3460939 1 3202322082912 1 0
-20.242287 32.541687 1.115331 4 3202322082912 1 0
-9.376305 18.992369 0.3697118 27 3202322085216 1 0
0 0 0 81 3202322085216 1 0
-6.227096 14.344156 -0.91068965 6 3202322087520 1 0
-10.507153 18.903498 1.2595237 18 3202322087520 1 0
-9.548332 19.355005 0.8792772 33 3202322089824 1 0
-9.99652 17.990976 -0.9587273 15 3202322089824 1 0
-10.599117 19.082022 2.6801505 21 3202322092128 1 0
0 0 0 38 3202322094432 1 0
-8.653444 17.54745 -1.0253661 44 3202322092128 1 0
-11.462054 18.456419 -0.8851391 6 3202322094432 1 0
-6.208005 14.322986 -0.54513013 4 3202322096736 1 0
-10.007548 18.02935 5.525269 12 3202322096736 1 0
-9.869999 17.787642 -0.47335836 36 3202322099040 1 0
-9.675364 19.641296 3.9920335 13 3202322099040 1 0
-1.8214025 3.7097476 -1.9271393 4 3202322119776 1 0
-11.276099 18.221973 -0.37403998 23 3202322119776 1 0
-9.211525 18.768501 -0.6084576 16 3202322122080 1 0
-3.577046 6.4686847 -2.0692606 5 3202322122080 1 0
-5.1103354 10.416149 -2.3204598 1 3202322124384 1 0
-10.273799 18.58539 0 30 3202322124384 1 0
-8.539189 19.803986 -0.25107488 21 3202322126688 1 0
-7.971625 14.425693 -2.564174 8 3202322126688 1 0
-7.1964383 14.678948 -2.0809004 3 3202322128992 1 0
-10.810705 17.49264 0.119516194 5 3202322128992 1 0
-9.274754 18.925161 -0.122491896 42 3202322131296 1 0
-8.70516 15.76395 -1.9397417 1 3202322131296 1 0
-6.1658545 14.316954 -1.4551324 7 3202322133600 1 0
-10.385827 18.813892 0.50006443 39 3202322133600 1 0
-8.290435 19.257885 0.24409023 15 3202322135904 1 0
-8.770074 15.892424 -1.2692888 1 3202322135904 1 0
-19.53007 31.64246 1.0821679 13 3202322138208 1 0
-9.331047 19.06809 0.3705495 31 3202322140512 1 0
-9.516299 15.42325 -1.1614689 57 3202322140512 1 0
-6.159637 14.325452 -0.9081315 6 3202322142816 1 0
-10.34664 18.768703 1.2481285 36 3202322142816 1 0
-7.193822 14.695235 -1.3356792 1 3202322138208 1 0
-9.433309 19.291277 0.87488085 16 3202322145120 1 0
-9.8970175 17.959272 -0.9551909 6 3202322145120 1 0
-8.562318 17.51654 -1.0218072 21 3202322147424 1 0
-9.272963 18.977352 1.724276 11 3202322149728 1 0
-10.622481 19.282343 2.703062 13 3202322147424 1 0
-6.140624 14.304161 -0.54359454 4 3202322152032 1 0
-11.340949 18.404448 -0.8807427 19 3202322149728 1 0
-10.704789 19.445133 5.947662 35 3202322152032 1 0
-10.390615 21.280348 4.317767 18 3202322154336 1 0
-10.806563 19.636766 -0.5215596 15 3202322154336 1 0
-1.8068557 3.7128232 -1.9254488 3 3202322175072 1 0
-11.1894045 18.223732 -0.37327206 17 3202322175072 1 0
-10.188408 20.943422 -0.6778094 6 3202322177376 1 0
-5.0825214 10.451561 -2.324382 1 3202322179680 1 0
-3.5507398 6.4743767 -2.0671039 4 3202322177376 1 0
-10.183863 18.575542 0 36 3202322179680 1 0
-8.416599 19.708609 -0.24949169 4 3202322181984 1 0
-7.907924 14.429169 -2.5598695 9 3202322181984 1 0
-7.091393 14.593343 -2.065243 3 3202322184288 1 0
-10.718215 17.479122 0.11916748 5 3202322184288 1 0
-9.227861 18.996998 -0.122747615 34 3202322186592 1 0
-8.716943 15.916326 -1.9547353 2 3202322186592 1 0
-6.100216 14.301756 -1.4514146 7 3202322188896 1 0
-10.2912855 18.797417 0.49866867 33 3202322188896 1 0
-8.246693 19.341896 0.24478869 19 3202322191200 1 0
-8.804584 16.087456 -1.282403 1 3202322191200 1 0
-7.2016544 14.842209 -1.3467448 1 3202322193504 1 0
-20.106487 32.83224 1.120451 4 3202322193504 1 0
-9.161453 18.888237 0.36643073 24 3202322195808 1 0
-9.435309 15.412116 -1.1581432 50 3202322195808 1 0
-6.092384 14.306452 -0.90557337 6 3202322198112 1 0
-9.334536 19.25935 0.87195 30 3202322200416 1 0
-10.183365 18.626015 1.2362682 54 3202322198112 1 0
-12.561111 22.983002 -1.220046 43 3202322200416 1 0
-8.433196 17.406124 -1.0136428 18 3202322202720 1 0
-9.224041 19.045486 1.7275305 11 3202322205024 1 0
-11.128616 18.201822 -0.8691819 42 3202322205024 1 0
-10.48087 19.183426 2.6840503 26 3202322202720 1 0
-6.078143 14.296078 -0.5424778 4 3202322207328 1 0
-9.359315 17.142462 5.233321 5 3202322207328 1 0
-10.093419 20.856012 4.2244954 39 3202322209632 1 0
-9.653621 17.687626 -0.46889186 29 3202322209632 1 0
-10.94678 17.968946 -0.36726844 18 3202322230368 1 0
-1.7938845 3.7191076 -1.9254488 2 3202322230368 1 0
-12.204459 25.3114 -0.8177931 40 3202322232672 1 0
-3.5281653 6.486706 -2.0671039 5 3202322232672 1 0
-5.0359416 10.447966 -2.3196752 1 3202322234976 1 0
-10.775669 25.477013 -0.32203892 15 3202322237280 1 0
-10.249161 18.849792 0 40 3202322234976 1 0
-7.8313985 14.407896 -2.5512607 8 3202322237280 1 0
-7.023616 14.582053 -2.0601923 4 3202322239584 1 0
-10.657645 17.516119 0.11916748 5 3202322239584 1 0
-8.726634 18.124172 -0.116912454 20 3202322241888 1 0
0 0 0 59 3202322241888 1 0
-6.0322824 14.278674 -1.4469533 7 3202322244192 1 0
-10.245512 18.867922 0.4995992 28 3202322244192 1 0
-8.139656 19.274347 0.24357803 31 3202322246496 1 0
-8.735869 16.093098 -1.2804499 1 3202322246496 1 0
-7.0659924 14.690795 -1.3307973 1 3202322248800 1 0
-20.033125 32.96598 1.122662 9 3202322248800 1 0
-9.029115 18.778934 0.36370814 34 3202322251104 1 0
-9.3638115 15.413639 -1.1558406 52 3202322251104 1 0
-6.02017 14.272002 -0.90208507 6 3202322253408 1 0
-10.11774 18.657202 1.2360356 12 3202322253408 1 0
-9.291296 19.337906 0.8740667 19 3202322255712 1 0
-12.530258 23.113527 -1.2246991 61 3202322255712 1 0
-8.349696 17.384314 -1.010712 26 3202322258016 1 0
-9.188642 19.137798 1.7330632 19 3202322260320 1 0
-10.684138 19.714643 2.7532723 22 3202322258016 1 0
-11.019053 18.160921 -0.8654368 44 3202322260320 1 0
-6.0017314 14.250278 -0.53996503 6 3202322262624 1 0
-9.685727 17.884146 5.4496937 12 3202322262624 1 0
-10.0160265 20.875834 4.2216253 36 3202322264928 1 0
-9.818414 18.135128 -0.47987205 7 3202322264928 1 0
-1.7831059 3.7283063 -1.9271393 2 3202322285664 1 0
-10.762968 17.799807 -0.36307988 78 3202322285664 1 0
0 0 0 9 3202322287968 1 0
-3.5065408 6.498421 -2.0671039 5 3202322287968 1 0
-5.0043454 10.471831 -2.3212442 1 3202322290272 1 0
-10.25441 19.01071 0 46 3202322290272 1 0
-10.663734 25.45036 -0.32124734 36 3202322292576 1 0
-7.737927 14.350632 -2.5365028 9 3202322292576 1 0
-10.577804 17.51774 0.118935004 3 3202322294880 1 0
-6.9606934 14.577024 -2.0561519 4 3202322294880 1 0
-9.368164 19.626436 -0.1263975 78 3202322297184 1 0
-8.604049 15.968601 -1.9538785 63 3202322297184 1 0
-5.968277 14.262382 -1.4432355 7 3202322299488 1 0
-10.11866 18.786499 0.49652848 26 3202322299488 1 0
-8.1941185 19.58987 0.24721004 20 3202322301792 1 0
-8.765938 16.280964 -1.293006 1 3202322301792 1 0
-7.0120935 14.707766 -1.3301464 1 3202322304096 1 0
-20.037539 33.229717 1.1292945 4 3202322304096 1 0
-8.9591675 18.799116 0.36349872 40 3202322306400 1 0
-5.9599557 14.266964 -0.90045714 8 3202322308704 1 0
-9.300321 15.428731 -1.1545615 20 3202322306400 1 0
-10.229002 19.01918 1.2576632 9 3202322308704 1 0
-9.272132 19.471123 0.8786259 33 3202322311008 1 0
-9.606052 17.867447 -0.94495404 19 3202322311008 1 0
-8.271793 17.377287 -1.0086186 10 3202322313312 1 0
-11.801203 21.95851 3.0608704 20 3202322313312 1 0
-9.078679 19.07989 1.7249268 27 3202322315616 1 0
-10.909981 18.124104 -0.86185455 40 3202322315616 1 0
-5.9361506 14.234419 -0.53856903 6 3202322317920 1 0
-9.867675 18.374249 5.588421 20 3202322317920 1 0
-10.445713 21.970161 4.4354334 16 3202322320224 1 0
-9.756149 18.173239 -0.47996512 28 3202322320224 1 0
-1.7694288 3.7348168 -1.9271393 3 3202322340960 1 0
-10.658577 17.773966 -0.3617535 36 3202322340960 1 0
-10.069503 21.262165 -0.6846748 3 3202322343264 1 0
-3.4845636 6.5146008 -2.0681822 5 3202322343264 1 0
-4.96944 10.497121 -2.3228133 1 3202322345568 1 0
-10.100065 18.889284 0 38 3202322345568 1 0
-10.5586815 25.459486 -0.3208748 28 3202322347872 1 0
-6.8957663 14.577129 -2.0526164 4 3202322350176 1 0
-11.013434 18.389965 0.12458418 20 3202322350176 1 0
-9.213095 19.483118 -0.12525837 31 3202322352480 1 0
-7.6483274 14.309014 -2.5242047 9 3202322347872 1 0
-8.570403 16.045322 -1.9594476 50 3202322352480 1 0
-5.896773 14.236069 -1.4384024 7 3202322354784 1 0
-10.005352 18.73836 0.4942952 31 3202322354784 1 0
-8.010035 19.345892 0.24376428 22 3202322357088 1 0
-8.740857 16.375902 -1.2980285 2 3202322357088 1 0
-20.022215 33.47678 1.135229 4 3202322359392 1 0
-8.870947 18.787846 0.362661 36 3202322361696 1 0
0 0 0 4 3202322361696 1 0
-5.89493 14.255071 -0.8983641 6 3202322364000 1 0
-6.880672 14.56714 -1.3151753 1 3202322359392 1 0
-10.141822 19.020569 1.2553377 9 3202322364000 1 0
-9.304588 19.721115 0.88839567 31 3202322366304 1 0
-12.3535795 23.176748 -1.2233963 61 3202322366304 1 0
-6.9469495 14.72964 -0.85349476 13 3202322368608 1 0
-10.9104395 20.476423 2.8488178 24 3202322368608 1 0
-9.007093 19.104973 1.724276 16 3202322370912 1 0
-10.822659 18.125196 -0.86006343 36 3202322370912 1 0
-5.877763 14.237006 -0.53787106 6 3202322373216 1 0
-9.497069 17.836348 5.4144945 18 3202322373216 1 0
-10.434601 22.149565 4.4641323 16 3202322375520 1 0
-9.772255 18.359608 -0.48396638 28 3202322375520 1 0
-1.7594626 3.7475336 -1.9305202 4 3202322396256 1 0
-10.8214035 18.189144 -0.36943254 31 3202322396256 1 0
-12.75563 27.178885 -0.87376326 10 3202322398560 1 0
-3.461802 6.5267243 -2.0681822 5 3202322398560 1 0
-4.9344335 10.517954 -2.3235977 1 3202322400864 1 0
-10.08466 19.019842 0 40 3202322400864 1 0
-9.093228 22.144054 -0.27868754 40 3202322403168 1 0
-7.581674 14.304194 -2.5186706 8 3202322403168 1 0
-6.8583145 14.629854 -2.0566568 4 3202322405472 1 0
0 0 0 3 3202322405472 1 0
-9.134847 19.493427 -0.12511888 25 3202322407776 1 0
-8.555295 16.152458 -1.9688722 46 3202322407776 1 0
-5.8304195 14.216032 -1.4343128 7 3202322410080 1 0
-9.924912 18.744898 0.49355078 31 3202322410080 1 0
-7.947007 19.384836 0.24390398 17 3202322412384 1 0
