# .PCD v.7 - Point Cloud Data file format
VERSION .7
FIELDS x y z rgb timestamp_ns device_id active
SIZE 4 4 4 4 8 1 1
TYPE F F F F F U U
COUNT 1 1 1 1 1 1 1
WIDTH 994
HEIGHT 1
VIEWPOINT 0 0 0 1 0 0 0
POINTS 994               
DATA ascii
6.371187 -8.422692 -1.643039 5 3201769940096 1 0
0 0 0 15 3201769942400 1 0
28.300877 -33.85147 0.25644487 16 3201769942400 1 0
17.89645 -26.246693 -0.18463287 12 3201769944704 1 0
7.1325703 -9.434941 -1.2740265 66 3201769944704 1 0
9.313173 -15.209633 -1.6648141 42 3201769947008 1 0
29.410177 -38.91545 1.1350552 32 3201769947008 1 0
29.05474 -47.4657 0.6478961 29 3201769949312 1 0
11.379854 -15.062341 -1.3200715 1 3201769949312 1 0
28.297876 -33.887928 1.2848707 37 3201769951616 1 0
11.2158785 -16.464487 -1.6263131 37 3201769951616 1 0
29.404722 -43.178516 0.9118533 31 3201769953920 1 0
11.619069 -13.91845 -1.1619806 1 3201769953920 1 1
13.939285 -22.794447 -1.5560328 56 3201769956224 1 0
32.066708 -42.481922 3.09974 41 3201769956224 1 0
41.645573 -61.191494 3.0155954 29 3201769958528 1 0
11.249323 -14.907594 -0.8699459 30 3201769958528 1 1
17.189411 -25.264984 -1.6014802 10 3201769960832 1 0
0 0 0 1 3201769960832 1 0
0 0 0 8 3201769963136 1 0
11.620028 -13.936071 -0.7392442 1 3201769963136 1 1
16.02885 -26.245735 -1.0739273 31 3201769965440 1 0
9.81552 -13.019331 4.3688655 3 3201769965440 1 0
18.599789 -27.363623 6.0325336 28 3201769967744 1 0
19.358595 -25.685059 -0.7484217 49 3201769967744 1 0
0 0 0 4 3201769988480 1 0
12.134723 -14.600782 -0.3313863 3 3201769988480 1 1
3.598167 -4.788536 -1.6767588 2 3201769990784 1 0
17.790356 -26.254854 -0.9229845 44 3201769990784 1 0
4.72069 -6.968936 -1.6834708 3 3201769993088 1 0
16.195677 -26.631973 -0.36287585 37 3201769995392 1 0
0 0 0 85 3201769993088 1 0
6.3464947 -8.451201 -1.6442688 6 3201769995392 1 0
6.448581 -9.525708 -1.4642063 3 3201769997696 1 0
28.315392 -34.110092 0.25765374 24 3201769997696 1 0
7.1043673 -9.466143 -1.2748833 16 3201770000000 1 0
9.262094 -15.245453 -1.6651859 40 3201770002304 1 0
25.673594 -37.936375 -0.26623213 38 3201770000000 1 0
29.391754 -39.174614 1.1396147 24 3201770002304 1 0
29.061207 -47.850574 0.65176094 29 3201770004608 1 0
0 0 0 15 3201770004608 1 0
11.171737 -16.523354 -1.6282659 37 3201770006912 1 0
0 0 0 65 3201770009216 1 0
28.291702 -34.121925 1.2899907 37 3201770006912 1 0
11.588245 -13.980436 -1.1637714 1 3201770009216 1 1
13.8596325 -22.842964 -1.5560328 63 3201770011520 1 0
32.14811 -42.90037 3.1220655 63 3201770011520 1 0
41.333286 -61.19077 3.008431 58 3201770013824 1 0
11.233151 -14.994738 -0.87273777 4 3201770013824 1 1
17.101114 -25.324833 -1.6014802 15 3201770016128 1 0
0 0 0 1 3201770016128 1 0
0 0 0 8 3201770018432 1 0
11.571311 -13.976547 -0.7392442 1 3201770018432 1 1
15.947495 -26.31862 -1.0746253 40 3201770020736 1 0
9.70982 -12.973089 4.3419485 4 3201770020736 1 0
18.466745 -27.372923 6.0203366 23 3201770023040 1 0
19.287985 -25.778091 -0.7491662 49 3201770023040 1 0
0 0 0 4 3201770043776 1 0
12.180413 -14.760269 -0.33403906 3 3201770043776 1 1
17.67648 -26.283487 -0.9218208 44 3201770046080 1 0
3.5814648 -4.8010406 -1.6767588 2 3201770046080 1 0
4.698625 -6.988559 -1.6842552 3 3201770048384 1 0
29.585083 -39.67096 0 109 3201770048384 1 0
29.321747 -48.59523 -0.6607479 33 3201770050688 1 0
6.3218656 -8.479503 -1.6454986 6 3201770050688 1 0
6.4089293 -9.538093 -1.4626911 3 3201770052992 1 0
21.335495 -25.883558 0.19495483 43 3201770052992 1 0
25.488867 -37.945145 -0.2656742 54 3201770055296 1 0
0 0 0 4 3201770055296 1 0
9.209487 -15.277289 -1.6651859 28 3201770057600 1 0
29.39271 -39.458492 1.1449187 24 3201770057600 1 0
29.065727 -48.231167 0.65557927 29 3201770059904 1 0
11.365757 -15.262459 -1.3306745 9 3201770059904 1 0
28.286236 -34.35465 1.2951106 38 3201770062208 1 0
11.126063 -16.578154 -1.6298932 35 3201770062208 1 0
29.321545 -43.702995 0.9186249 32 3201770064512 1 0
13.767058 -22.866255 -1.5544049 52 3201770066816 1 0
11.4997015 -13.970735 -1.1596781 1 3201770064512 1 1
32.056114 -43.083687 3.1274142 42 3201770066816 1 0
41.037537 -61.201923 3.0020804 58 3201770069120 1 0
17.021498 -25.392841 -1.6021082 15 3201770071424 1 0
11.322642 -15.222117 -0.8837191 4 3201770069120 1 1
0 0 0 1 3201770071424 1 0
0 0 0 8 3201770073728 1 0
11.516164 -14.006503 -0.7387557 1 3201770073728 1 1
15.870575 -26.393068 -1.0754629 22 3201770076032 1 0
9.654278 -12.990415 4.336772 4 3201770076032 1 0
18.352179 -27.402517 6.0131617 40 3201770078336 1 0
19.226938 -25.878477 -0.7501897 49 3201770078336 1 0
0 0 0 4 3201770099072 1 0
12.166893 -14.8438835 -0.3350164 3 3201770099072 1 1
17.566637 -26.308964 -0.9206572 44 3201770101376 1 0
3.5654542 -4.8129425 -1.6767588 2 3201770101376 1 0
4.6708655 -6.9977126 -1.6826863 2 3201770103680 1 0
29.58076 -39.943287 0 114 3201770103680 1 0
18.927217 -31.60786 -0.42890406 54 3201770105984 1 0
6.3767085 -9.559664 -1.4626911 9 3201770108288 1 0
28.299463 -34.56903 0.25965306 8 3201770108288 1 0
6.2933407 -8.500695 -1.6454986 6 3201770105984 1 0
29.50989 -44.254486 -0.3091473 29 3201770110592 1 0
7.015769 -9.482566 -1.2705994 1 3201770110592 1 0
9.157439 -15.308544 -1.6651859 21 3201770112896 1 0
29.384277 -39.728695 1.1498505 24 3201770112896 1 0
18.899694 -31.605684 0.42871782 58 3201770115200 1 0
0 0 0 1 3201770115200 1 0
11.071303 -16.619564 -1.6302186 24 3201770117504 1 0
28.284565 -34.593925 1.3004632 38 3201770117504 1 0
29.31925 -44.026836 0.9233021 33 3201770119808 1 0
11.383267 -13.926842 -1.1527706 1 3201770119808 1 1
13.689871 -22.917202 -1.5546374 35 3201770122112 1 0
32.04914 -43.38711 3.1413677 42 3201770122112 1 0
40.720474 -61.187824 2.9944274 29 3201770124416 1 0
11.357482 -15.380313 -0.8906057 4 3201770124416 1 1
0 0 0 1 3201770126720 1 0
16.926119 -25.442125 -1.6014802 15 3201770126720 1 0
0 0 0 8 3201770129024 1 0
11.469524 -14.049879 -0.73891854 1 3201770129024 1 1
15.845162 -26.56206 -1.0800697 36 3201770131328 1 0
9.601613 -13.014987 4.3336663 4 3201770131328 1 0
19.159092 -25.978453 -0.75112027 49 3201770133632 1 0
18.229078 -27.427881 6.004552 28 3201770133632 1 0
0 0 0 4 3201770154368 1 0
12.223459 -15.024883 -0.338088 5 3201770154368 1 1
17.450794 -26.34279 -0.91960996 44 3201770156672 1 0
3.5456135 -4.8227973 -1.6756804 2 3201770156672 1 0
4.645492 -7.0145826 -1.6826863 3 3201770158976 1 0
29.56146 -40.220978 0 114 3201770158976 1 0
18.788805 -31.634521 -0.4283453 58 3201770161280 1 0
6.272061 -8.536035 -1.6479583 7 3201770161280 1 0
6.338084 -9.575801 -1.461681 47 3201770163584 1 0
20.065243 -24.690275 0.18491185 18 3201770163584 1 0
29.434 -44.48257 -0.31000748 29 3201770165888 1 0
6.96788 -9.488222 -1.2680291 1 3201770165888 1 0
9.109374 -15.351089 -1.6663013 12 3201770168192 1 0
29.366743 -39.99992 1.1546892 25 3201770168192 1 0
18.759995 -31.623714 0.4280659 73 3201770170496 1 0
13.3256035 -18.15555 -1.5748222 4 3201770170496 1 0
11.037409 -16.69469 -1.6337986 93 3201770172800 1 0
29.597525 -36.458733 1.3666732 21 3201770172800 1 0
29.29646 -44.325127 0.92742085 33 3201770175104 1 0
11.334889 -13.966245 -1.1527706 1 3201770175104 1 1
13.608757 -22.96082 -1.5544049 17 3201770177408 1 0
32.029278 -43.67443 3.154158 43 3201770177408 1 0
40.389496 -61.143528 2.985472 29 3201770179712 1 0
18.548271 -25.298964 -1.4612634 9 3201770179712 1 0
16.846035 -25.509584 -1.6021082 15 3201770182016 1 0
0 0 0 1 3201770182016 1 0
0 0 0 8 3201770184320 1 0
11.341406 -13.989238 -0.733708 1 3201770184320 1 1
15.706957 -26.532585 -1.0767193 31 3201770186624 1 0
9.544132 -13.028472 4.3274546 4 3201770186624 1 0
18.113585 -27.452444 5.9966598 28 3201770188928 1 0
19.08881 -26.064842 -0.7517716 54 3201770188928 1 0
0 0 0 4 3201770209664 1 0
12.296878 -15.212504 -0.3414389 3 3201770209664 1 1
17.345398 -26.364462 -0.91844636 44 3201770211968 1 0
3.5303395 -4.8339896 -1.6756804 2 3201770211968 1 0
4.625281 -7.032621 -1.6834708 3 3201770214272 1 0
29.539335 -40.46031 0 101 3201770214272 1 0
18.66491 -31.656715 -0.42783308 65 3201770216576 1 0
6.239993 -8.54972 -1.6467284 6 3201770216576 1 0
6.2918763 -9.573004 -1.4581455 47 3201770218880 1 0
0 0 0 3 3201770218880 1 0
29.486923 -44.87888 -0.31209975 29 3201770221184 1 0
6.925282 -9.494757 -1.2658871 2 3201770221184 1 0
29.374691 -40.28645 1.1601794 25 3201770223488 1 0
9.067174 -15.394544 -1.6677884 8 3201770223488 1 0
18.631363 -31.643984 0.42750713 73 3201770225792 1 0
13.275124 -18.212248 -1.5759382 4 3201770225792 1 0
0 0 0 100 3201770228096 1 0
29.589397 -36.696743 1.3719096 28 3201770228096 1 0
29.293152 -44.643364 0.9320283 33 3201770230400 1 0
13.549758 -23.03739 -1.5564978 28 3201770232704 1 0
11.370877 -14.106561 -1.161213 1 3201770230400 1 1
36.256992 -49.789165 3.586945 28 3201770232704 1 0
40.097034 -61.14941 2.9791217 29 3201770235008 1 0
0 0 0 12 3201770235008 1 0
0 0 0 25 3201770237312 1 0
22.751646 -31.26329 4.747542 14 3201770237312 1 0
0 0 0 8 3201770239616 1 0
11.290917 -14.024889 -0.7335452 3 3201770239616 1 1
15.558718 -26.490055 -1.0728105 49 3201770241920 1 0
9.490076 -13.048794 4.323313 4 3201770241920 1 0
17.992378 -27.475609 5.98805 34 3201770244224 1 0
0 0 0 4 3201770264960 1 0
19.014742 -26.153543 -0.752423 81 3201770244224 1 0
28.611645 -35.66212 -0.79806364 7 3201770264960 1 0
17.218248 -26.380857 -0.91681725 44 3201770267264 1 0
3.5194147 -4.856228 -1.6789154 2 3201770267264 1 0
4.597433 -7.0461745 -1.6826863 3 3201770269568 1 0
29.520508 -40.746037 0 47 3201770269568 1 0
18.531279 -31.693432 -0.427414 50 3201770271872 1 0
6.2418556 -9.572552 -1.45461 40 3201770274176 1 0
19.935293 -24.877382 0.18528381 9 3201770274176 1 0
29.470219 -45.2101 -0.31365734 29 3201770276480 1 0
0 0 0 87 3201770276480 1 0
9.01538 -15.434157 -1.6685319 3 3201770278784 1 0
6.2111206 -8.575599 -1.6473434 6 3201770271872 1 0
29.359879 -40.57399 1.1653903 17 3201770278784 1 0
18.494686 -31.673122 0.42699492 66 3201770281088 1 0
13.211551 -18.263342 -1.5762173 4 3201770281088 1 0
29.571768 -36.946827 1.3772622 35 3201770283392 1 0
10.923741 -16.774044 -1.634124 28 3201770283392 1 0
29.26318 -44.949623 0.9362169 34 3201770285696 1 0
11.230242 -14.035195 -1.1520032 1 3201770285696 1 1
13.507152 -23.154903 -1.561149 42 3201770288000 1 0
36.304783 -50.233032 3.609503 28 3201770288000 1 0
39.80562 -61.18222 2.9737482 29 3201770290304 1 0
18.42773 -25.5053 -1.4657304 24 3201770290304 1 0
16.68496 -25.653358 -1.603783 15 3201770292608 1 0
22.639645 -31.344494 4.747542 7 3201770292608 1 0
0 0 0 8 3201770294912 1 0
0 0 0 17 3201770294912 1 0
9.556587 -13.239167 4.3750772 4 3201770297216 1 0
15.452151 -26.524603 -1.071973 35 3201770297216 1 0
17.870974 -27.50312 5.980158 33 3201770299520 1 0
18.921616 -26.220997 -0.752423 49 3201770299520 1 0
0 0 0 4 3201770320256 1 0
0 0 0 29 3201770320256 1 0
3.5001924 -4.8653564 -1.677837 1 3201770322560 1 0
17.108667 -26.413952 -0.9158864 49 3201770322560 1 0
4.577073 -7.068764 -1.6842552 3 3201770324864 1 0
29.574278 -41.121613 0 111 3201770324864 1 0
18.396454 -31.716408 -0.42685524 62 3201770327168 1 0
6.185763 -8.603646 -1.6485732 6 3201770327168 1 0
6.201936 -9.584288 -1.4530947 35 3201770329472 1 0
29.613117 -37.219902 0.27643785 28 3201770329472 1 0
29.459959 -45.54107 -0.3152382 40 3201770331776 1 0
6.8482265 -9.530901 -1.2641735 38 3201770331776 1 0
8.975428 -15.489655 -1.6711344 3 3201770334080 1 0
29.353382 -40.8646 1.1707873 25 3201770334080 1 0
18.359955 -31.695955 0.42643616 66 3201770336384 1 0
13.154702 -18.31907 -1.5770544 4 3201770336384 1 0
10.865122 -16.812073 -1.634124 37 3201770338688 1 0
29.571972 -37.2126 1.3833131 36 3201770338688 1 0
11.191113 -14.086813 -1.1530265 1 3201770340992 1 1
29.234146 -45.249695 0.94033563 34 3201770340992 1 0
13.448244 -23.239931 -1.5637071 56 3201770343296 1 0
36.261898 -50.544395 3.6227586 28 3201770343296 1 0
36.433224 -56.4287 2.7365062 29 3201770345600 1 0
18.359547 -25.598692 -1.4674056 14 3201770345600 1 0
16.556318 -25.651031 -1.6000148 15 3201770347904 1 0
0 0 0 1 3201770347904 1 0
0 0 0 8 3201770350208 1 0
11.2586775 -14.188799 -0.73794156 4 3201770350208 1 1
15.433476 -26.706442 -1.0771381 40 3201770352512 1 0
17.747137 -27.52234 5.970831 33 3201770354816 1 0
9.566576 -13.350963 4.400959 4 3201770352512 1 0
18.785727 -26.225119 -0.750655 45 3201770354816 1 0
0 0 0 4 3201770375552 1 0
28.694426 -36.28134 -0.8074181 47 3201770375552 1 0
16.996904 -26.443241 -0.9148391 49 3201770377856 1 0
3.4899035 -4.8869486 -1.681072 1 3201770377856 1 0
4.554491 -7.087998 -1.6850398 3 3201770380160 1 0
29.51655 -41.34505 0 112 3201770380160 1 0
18.261694 -31.738829 -0.42629647 58 3201770382464 1 0
6.1533966 -8.621968 -1.6479583 6 3201770382464 1 0
6.1620107 -9.595861 -1.4515795 36 3201770384768 1 0
29.654097 -37.539616 0.27804196 29 3201770384768 1 0
6.7941318 -9.525607 -1.260318 39 3201770387072 1 0
29.445587 -45.869152 -0.3167958 30 3201770387072 1 0
8.929243 -15.534702 -1.6726215 2 3201770389376 1 0
29.303425 -41.097057 1.1745094 17 3201770389376 1 0
18.23127 -31.72864 0.42601708 71 3201770391680 1 0
13.097625 -18.374626 -1.5778915 4 3201770391680 1 0
10.802066 -16.843185 -1.6334732 37 3201770393984 1 0
29.209848 -45.56021 0.9446639 46 3201770396288 1 0
29.573154 -37.481964 1.3894802 36 3201770393984 1 0
11.11468 -14.091315 -1.1502124 1 3201770396288 1 1
0 0 0 36 3201770398592 1 0
36.201065 -50.833298 3.6343865 28 3201770398592 1 0
36.186436 -56.47813 2.7327611 29 3201770400896 1 0
18.177383 -25.532423 -1.4599606 39 3201770400896 1 0
16.470987 -25.715395 -1.6004336 25 3201770403200 1 0
0 0 0 1 3201770403200 1 0
0 0 0 8 3201770405504 1 0
11.288227 -14.328475 -0.74315214 24 3201770405504 1 1
15.318291 -26.722004 -1.0756025 40 3201770407808 1 0
9.508718 -13.368532 4.3957825 4 3201770407808 1 0
17.62975 -27.550976 5.963656 33 3201770410112 1 0
18.643087 -26.218834 -0.7486079 49 3201770410112 1 0
0 0 0 4 3201770431296 1 0
28.59372 -36.401455 -0.8079766 39 3201770431296 1 0
16.885271 -26.462505 -0.91355914 48 3201770433600 1 0
3.4669585 -4.889094 -1.677837 2 3201770433600 1 0
4.530858 -7.103128 -1.6850398 3 3201770435904 1 0
29.53367 -41.66177 0 115 3201770435904 1 0
18.147717 -31.785713 -0.4261102 27 3201770438208 1 0
6.124583 -8.64246 -1.6479583 7 3201770438208 1 0
6.114946 -9.592999 -1.448044 11 3201770440512 1 0
29.60242 -37.733017 0.2787394 29 3201770440512 1 0
29.399124 -46.136272 -0.31795818 30 3201770442816 1 0
6.755264 -9.538594 -1.2590328 38 3201770442816 1 0
29.32693 -41.42374 1.1810231 26 3201770445120 1 0
18.110468 -31.765522 0.42569113 47 3201770447424 1 0
8.918435 -15.637266 -1.6804287 2 3201770445120 1 0
13.033378 -18.415365 -1.5776124 4 3201770447424 1 0
10.745171 -16.87954 -1.6334732 26 3201770449728 1 0
29.56488 -37.732605 1.3950657 29 3201770449728 1 0
29.188742 -45.86792 0.9489921 34 3201770452032 1 0
11.177733 -14.270233 -1.1617248 1 3201770452032 1 1
13.30781 -23.366596 -1.5660326 7 3201770454336 1 0
44.185013 -69.480286 3.3546057 29 3201770456640 1 0
18.09518 -25.600534 -1.4603328 24 3201770456640 1 0
16.364086 -25.740965 -1.5985495 35 3201770458944 1 0
36.15308 -51.131756 3.6469445 28 3201770454336 1 0
23.327879 -33.014297 4.963495 8 3201770458944 1 0
0 0 0 8 3201770461248 1 0
11.226978 -14.351152 -0.74233794 11 3201770461248 1 1
15.254535 -26.822853 -1.0775568 40 3201770463552 1 0
17.52051 -27.587946 5.9586334 33 3201770465856 1 0
9.5855465 -13.574541 4.452723 4 3201770463552 1 0
18.520887 -26.2368 -0.7473051 45 3201770465856 1 0
0 0 0 4 3201770486592 1 0
28.57814 -36.657413 -0.81132746 32 3201770486592 1 0
3.4490514 -4.901743 -1.677837 2 3201770488896 1 0
4.5007024 -7.1129923 -1.6834708 3 3201770491200 1 0
29.510256 -41.952522 0 115 3201770491200 1 0
16.416285 -25.936247 -0.8933121 46 3201770488896 1 0
18.217014 -32.178806 -0.43048725 15 3201770493504 1 0
6.0976014 -8.671184 -1.649188 6 3201770493504 1 0
0 0 0 15 3201770495808 1 0
29.661621 -38.092884 0.2805992 30 3201770495808 1 0
29.430277 -46.55709 -0.32012022 30 3201770498112 1 0
0 0 0 17 3201770498112 1 0
8.867627 -15.679862 -1.6815441 2 3201770500416 1 0
18.156954 -32.11628 0.4295094 14 3201770502720 1 0
29.305452 -41.712917 1.186234 26 3201770500416 1 0
12.9690275 -18.465616 -1.5778915 4 3201770502720 1 0
10.6842165 -16.918188 -1.6334732 15 3201770505024 1 0
29.521862 -37.958935 1.3994874 22 3201770505024 1 0
29.170757 -46.206043 0.9538089 35 3201770507328 1 0
11.138543 -14.326135 -1.1630039 1 3201770507328 1 1
13.257164 -23.473362 -1.5699861 7 3201770509632 1 0
36.086136 -51.428013 3.658805 28 3201770509632 1 0
18.060646 -25.747023 -1.4649858 9 3201770511936 1 0
37.79377 -59.90336 2.8856578 29 3201770511936 1 0
16.288929 -25.826378 -1.6002243 30 3201770514240 1 0
23.036367 -32.850506 4.9264464 7 3201770514240 1 0
0 0 0 8 3201770516544 1 0
0 0 0 1 3201770516544 1 0
15.007643 -26.60893 -1.0668079 35 3201770518848 1 0
9.619159 -13.725682 4.4910283 3 3201770518848 1 0
17.390827 -27.600138 5.9478717 33 3201770521152 1 0
18.386168 -26.243544 -0.74563015 45 3201770521152 1 0
0 0 0 4 3201770541888 1 0
28.574852 -36.918243 -0.81488776 48 3201770541888 1 0
16.312891 -25.973076 -0.89261395 51 3201770544192 1 0
3.4363313 -4.9200683 -1.6799936 1 3201770544192 1 0
29.47355 -42.2127 0 109 3201770546496 1 0
4.482103 -7.1386247 -1.6858243 4 3201770546496 1 0
18.267118 -32.531662 -0.4343521 7 3201770548800 1 0
6.0672965 -8.692415 -1.649188 7 3201770548800 1 0
6.03377 -9.616168 -1.4450135 3 3201770551104 1 0
29.61165 -38.303787 0.28138962 30 3201770551104 1 0
29.30159 -46.713753 -0.32049218 30 3201770553408 1 0
0 0 0 4 3201770553408 1 0
8.818686 -15.721141 -1.6826594 2 3201770555712 1 0
29.294626 -42.008484 1.1917242 26 3201770555712 1 0
18.19537 -32.44809 0.43309486 9 3201770558016 1 0
12.909056 -18.51732 -1.5784495 4 3201770558016 1 0
10.637797 -16.975649 -1.6354259 7 3201770560320 1 0
29.555346 -38.276955 1.4074 15 3201770560320 1 0
29.160036 -46.548225 0.9587654 36 3201770562624 1 0
11.027489 -14.285931 -1.1566081 1 3201770562624 1 1
13.181001 -23.529947 -1.5706838 7 3201770564928 1 0
36.088978 -51.815807 3.6774094 28 3201770564928 1 0
40.977684 -65.45507 3.1461842 29 3201770567232 1 0
17.986645 -25.832863 -1.4662888 9 3201770567232 1 0
16.190203 -25.869535 -1.5993868 20 3201770569536 1 0
23.016817 -33.067577 4.9469204 24 3201770569536 1 0
0 0 0 8 3201770571840 1 0
11.26934 -14.616817 -0.7519449 1 3201770571840 1 1
15.05714 -26.915836 -1.0769985 49 3201770574144 1 0
9.573395 -13.762347 4.4920635 1 3201770574144 1 0
17.277689 -27.633982 5.9421315 33 3201770576448 1 0
18.248787 -26.241901 -0.7437691 40 3201770576448 1 0
0 0 0 4 3201770597184 1 0
28.540848 -37.14144 -0.8176103 24 3201770597184 1 0
16.194826 -25.98563 -0.89110124 51 3201770599488 1 0
3.4169774 -4.928843 -1.6789154 2 3201770599488 1 0
4.4572616 -7.154162 -1.6858243 3 3201770601792 1 0
0 0 0 7 3201770601792 1 0
21.153257 -37.97955 -0.50610775 15 3201770604096 1 0
6.0371075 -8.713409 -1.649188 7 3201770604096 1 0
5.9899607 -9.620154 -1.4424882 3 3201770606400 1 0
29.654236 -38.634518 0.28306344 30 3201770606400 1 0
29.408497 -47.24596 -0.32344463 30 3201770608704 1 0
8.772187 -15.765367 -1.6841465 2 3201770611008 1 0
6.617804 -9.557175 -1.2521787 2 3201770608704 1 0
29.28166 -42.299915 1.1971211 27 3201770611008 1 0
12.854367 -18.57474 -1.5795656 4 3201770613312 1 0
28.979334 -52.098568 0.6940414 21 3201770613312 1 0
10.606836 -17.056074 -1.6396569 3 3201770615616 1 0
29.540558 -38.530483 1.4129854 30 3201770615616 1 0
29.127123 -46.85162 0.962954 36 3201770617920 1 0
11.160617 -14.561236 -1.1757954 1 3201770617920 1 1
13.152871 -23.669106 -1.5769628 7 3201770620224 1 0
35.995693 -52.060383 3.686014 28 3201770620224 1 0
40.680378 -65.47563 3.1404853 29 3201770622528 1 0
17.891617 -25.884197 -1.4657304 14 3201770622528 1 0
16.093636 -25.910913 -1.5985495 40 3201770624832 1 0
23.00345 -33.289433 4.9683695 16 3201770624832 1 0
0 0 0 8 3201770627136 1 0
0 0 0 22 3201770627136 1 0
0 0 0 9 3201770629440 1 0
14.911525 -26.868837 -1.0730897 45 3201770629440 1 0
17.157171 -27.64878 5.9328046 28 3201770631744 1 0
0 0 0 4 3201770652480 1 0
29.732613 -38.959057 -0.8554472 17 3201770652480 1 0
16.068222 -25.97482 -0.8888904 51 3201770654784 1 0
18.112232 -26.234354 -0.74181503 39 3201770631744 1 0
3.4027262 -4.9433694 -1.6799936 2 3201770654784 1 0
4.4333043 -7.1690326 -1.6858243 3 3201770657088 1 0
0 0 0 7 3201770657088 1 0
17.212734 -31.15029 -0.41432944 22 3201770659392 1 0
6.0145187 -8.743412 -1.6510328 7 3201770659392 1 0
5.951207 -9.630185 -1.4409729 5 3201770661696 1 0
29.652214 -38.90296 0.28429556 30 3201770661696 1 0
29.407988 -47.603973 -0.32521144 30 3201770664000 1 0
6.585378 -9.579546 -1.2521787 2 3201770664000 1 0
8.718481 -15.79513 -1.6841465 2 3201770666304 1 0
28.946018 -52.459965 0.6975337 31 3201770668608 1 0
29.268888 -42.59048 1.2025182 27 3201770666304 1 0
12.793064 -18.621855 -1.5798446 4 3201770668608 1 0
10.558698 -17.109344 -1.6412841 5 3201770670912 1 0
29.514688 -38.771633 1.4181054 22 3201770670912 1 0
29.14604 -47.24447 0.9689576 36 3201770673216 1 0
11.211888 -14.733037 -1.1865402 1 3201770673216 1 1
13.076643 -23.724985 -1.5776604 7 3201770675520 1 0
0 0 0 3 3201770675520 1 0
17.812836 -25.962708 -1.466661 14 3201770677824 1 0
40.353954 -65.45674 3.1328323 58 3201770677824 1 0
16.026144 -26.004341 -1.6008523 30 3201770680128 1 0
0 0 0 8 3201770682432 1 0
11.301209 -14.869249 -0.7609005 19 3201770682432 1 1
14.786021 -26.86512 -1.0708562 39 3201770684736 1 0
0 0 0 9 3201770684736 1 0
17.040777 -27.679089 5.9263473 33 3201770687040 1 0
17.976454 -26.235525 -0.74004704 39 3201770687040 1 0
22.90732 -33.398994 4.972757 8 3201770680128 1 0
0 0 0 4 3201770707776 1 0
15.937553 -25.975487 -0.8869122 56 3201770710080 1 0
19.812538 -26.158892 -0.572788 38 3201770707776 1 0
3.3846211 -4.955783 -1.6799936 2 3201770710080 1 0
4.4050527 -7.1818256 -1.6850398 3 3201770712384 1 0
17.917292 -26.242805 0 43 3201770712384 1 0
17.106815 -31.226828 -0.4145157 15 3201770714688 1 0
5.9870796 -8.771796 -1.6522627 6 3201770714688 1 0
0 0 0 50 3201770716992 1 0
29.679483 -39.23382 0.2859229 31 3201770716992 1 0
29.379248 -47.945705 -0.32681552 20 3201770719296 1 0
8.666957 -15.837082 -1.6852618 2 3201770721600 1 0
29.254135 -42.90104 1.2082875 27 3201770721600 1 0
18.482306 -33.78428 0.4483214 5 3201770723904 1 0
6.5528135 -9.606666 -1.2526071 2 3201770719296 1 0
12.790855 -18.763586 -1.5879364 4 3201770723904 1 0
10.50316 -17.157518 -1.6422606 3 3201770726208 1 0
29.492752 -39.034157 1.4238071 22 3201770726208 1 0
29.128178 -47.598106 0.9740537 37 3201770728512 1 0
11.190058 -14.814711 -1.1898661 1 3201770728512 1 1
12.995157 -23.778818 -1.5781256 7 3201770730816 1 0
0 0 0 3 3201770730816 1 0
40.073147 -65.525986 3.12925 58 3201770733120 1 0
17.730883 -26.042917 -1.4675916 14 3201770733120 1 0
15.895496 -26.00017 -1.597084 48 3201770735424 1 0
22.760868 -33.441357 4.966907 8 3201770735424 1 0
0 0 0 8 3201770737728 1 0
11.300999 -14.979699 -0.76448274 4 3201770737728 1 1
14.703602 -26.942202 -1.0718334 39 3201770740032 1 0
0 0 0 9 3201770740032 1 0
16.927881 -27.716003 5.9213247 33 3201770742336 1 0
17.85606 -26.259604 -0.7389304 48 3201770742336 1 0
0 0 0 4 3201770763072 1 0
29.640545 -39.420155 -0.8608923 17 3201770763072 1 0
15.844706 -26.027546 -0.8867958 46 3201770765376 1 0
3.3651402 -4.964379 -1.6789154 2 3201770765376 1 0
4.3840346 -7.2038593 -1.6866087 2 3201770767680 1 0
29.464712 -43.481045 0 40 3201770767680 1 0
16.747574 -30.825947 -0.40841576 54 3201770769984 1 0
5.95199 -8.786098 -1.6510328 7 3201770769984 1 0
5.8741775 -9.6587925 -1.4389527 50 3201770772288 1 0
0 0 0 82 3201770772288 1 0
16.189245 -26.628376 -0.18112248 37 3201770774592 1 0
0 0 0 44 3201770774592 1 0
8.621121 -15.884741 -1.6871207 2 3201770776896 1 0
31.22764 -57.55807 0.7623513 15 3201770779200 1 0
12.720808 -18.801512 -1.5873783 4 3201770779200 1 0
29.238686 -43.2016 1.2138706 27 3201770776896 1 0
10.447345 -17.200891 -1.6429114 3 3201770781504 1 0
29.138285 -47.990074 0.9799875 37 3201770783808 1 0
11.265202 -15.022944 -1.203425 1 3201770783808 1 1
12.921588 -23.841587 -1.5792884 7 3201770786112 1 0
29.478676 -39.29999 1.4297416 22 3201770781504 1 0
0 0 0 3 3201770786112 1 0
39.74258 -65.49805 3.1212714 58 3201770788416 1 0
17.660002 -26.134447 -1.4692668 9 3201770788416 1 0
22.641775 -33.51731 4.9664197 8 3201770790720 1 0
15.717632 -25.912052 -1.5882916 29 3201770790720 1 0
0 0 0 8 3201770793024 1 0
11.332497 -15.131019 -0.7701818 1 3201770793024 1 1
14.483884 -26.761328 -1.0626199 43 3201770795328 1 0
0 0 0 9 3201770795328 1 0
16.80248 -27.727808 5.91128 33 3201770797632 1 0
17.741919 -26.288626 -0.73799986 43 3201770797632 1 0
0 0 0 4 3201770818368 1 0
29.41903 -39.411205 -0.858449 8 3201770818368 1 0
15.780629 -26.127188 -0.8883085 41 3201770820672 1 0
3.352091 -4.982487 -1.681072 2 3201770820672 1 0
4.3568344 -7.215761 -1.6858243 3 3201770822976 1 0
25.586992 -38.043987 0 31 3201770822976 1 0
16.641768 -30.887741 -0.40846232 65 3201770825280 1 0
5.92349 -8.8101 -1.6516477 8 3201770825280 1 0
5.821976 -9.648662 -1.434407 53 3201770827584 1 0
0 0 0 19 3201770829888 1 0
29.60808 -39.712643 0.28789896 102 3201770827584 1 0
6.476715 -9.638974 -1.2508935 23 3201770829888 1 0
29.232643 -43.51917 1.2199191 28 3201770832192 1 0
8.55807 -15.900709 -1.6856337 2 3201770832192 1 0
18.346437 -34.099167 0.4507893 5 3201770834496 1 0
12.6684475 -18.865677 -1.5890524 4 3201770834496 1 0
10.393412 -17.2475 -1.6438878 3 3201770836800 1 0
29.470266 -39.57582 1.4360251 23 3201770836800 1 0
29.12537 -48.348427 0.98522323 25 3201770839104 1 0
11.293737 -15.171043 -1.2121233 1 3201770839104 1 1
12.843958 -23.897099 -1.579986 7 3201770841408 1 0
0 0 0 3 3201770841408 1 0
39.42301 -65.48571 3.114107 29 3201770843712 1 0
17.575346 -26.205889 -1.4698251 14 3201770843712 1 0
15.587952 -25.901731 -1.5843141 24 3201770846016 1 0
22.518005 -33.58625 4.964957 8 3201770846016 1 0
18.97781 -31.544874 3.005278 8 3201770848320 1 0
0 0 0 17 3201770848320 1 0
14.484905 -26.987837 -1.0695997 39 3201770850624 1 0
16.683287 -27.749193 5.903388 33 3201770852928 1 0
17.634468 -26.32714 -0.7373485 39 3201770852928 1 0
0 0 0 4 3201770873664 1 0
0 0 0 9 3201770850624 1 0
19.306547 -26.053244 -0.56601644 4 3201770873664 1 0
15.648418 -26.113407 -0.8859813 35 3201770875968 1 0
3.336854 -4.997337 -1.6821502 2 3201770875968 1 0
4.335757 -7.2375917 -1.6873932 3 3201770878272 1 0
25.463476 -38.146008 0 15 3201770878272 1 0
14.406447 -26.962471 -0.3558912 27 3201770880576 1 0
5.8972816 -8.83717 -1.6528776 8 3201770880576 1 0
5.7824273 -9.658544 -1.4328918 54 3201770882880 1 0
29.5918 -39.978863 0.28908458 103 3201770882880 1 0
18.914661 -31.603575 -0.2140644 85 3201770885184 1 0
6.438967 -9.654672 -1.2500367 13 3201770885184 1 0
29.219995 -43.825962 1.2256883 28 3201770887488 1 0
8.512587 -15.947682 -1.6874925 2 3201770887488 1 0
18.3326 -34.356155 0.45335034 5 3201770889792 1 0
12.603479 -18.909142 -1.5890524 4 3201770889792 1 0
10.338241 -17.289917 -1.6445388 3 3201770892096 1 0
29.453098 -39.837498 1.4418433 15 3201770892096 1 0
18.886425 -31.596012 0.6425278 100 3201770894400 1 0
11.367458 -15.379775 -1.2256823 1 3201770894400 1 1
12.765962 -23.947906 -1.5804511 7 3201770896704 1 0
0 0 0 3 3201770896704 1 0
0 0 0 15 3201770899008 1 0
17.501364 -26.288961 -1.471128 10 3201770899008 1 0
15.503804 -25.961493 -1.5847328 34 3201770901312 1 0
22.410168 -33.672607 4.9664197 8 3201770901312 1 0
0 0 0 59 3201770903616 1 0
0 0 0 1 3201770903616 1 0
14.269381 -26.803877 -1.0603863 43 3201770905920 1 0
0 0 0 9 3201770905920 1 0
17.512127 -26.336672 -0.7359527 35 3201770908224 1 0
16.569193 -27.771656 5.896213 33 3201770908224 1 0
0 0 0 4 3201770928960 1 0
19.205822 -26.097795 -0.5655976 4 3201770928960 1 0
15.516393 -26.089779 -0.88342136 46 3201770931264 1 0
3.320191 -5.0084233 -1.6821502 2 3201770931264 1 0
4.3135257 -7.255427 -1.6881776 4 3201770933568 1 0
29.434608 -44.416084 0 62 3201770933568 1 0
16.464176 -31.064272 -0.40930048 32 3201770935872 1 0
5.8697405 -8.860229 -1.6534925 8 3201770935872 1 0
5.7437234 -9.667766 -1.4313766 39 3201770938176 1 0
18.778858 -31.619345 -0.21373893 95 3201770940480 1 0
6.4084077 -9.679753 -1.2504652 13 3201770940480 1 0
8.463852 -15.987121 -1.6886078 2 3201770942784 1 0
29.594126 -40.265423 0.29043296 98 3201770938176 1 0
29.209711 -44.135242 1.2315507 28 3201770942784 1 0
18.239388 -34.464573 0.45395568 5 3201770945088 1 0
12.536574 -18.94878 -1.5887735 4 3201770945088 1 0
10.289003 -17.342443 -1.646166 3 3201770947392 1 0
29.453407 -40.125305 1.4485922 23 3201770947392 1 0
18.748838 -31.612768 0.6415505 100 3201770949696 1 0
14.299426 -19.486797 -1.5490516 4 3201770949696 1 0
12.6792555 -23.984894 -1.579986 7 3201770952000 1 0
0 0 0 3 3201770952000 1 0
18.734653 -31.61085 1.497051 65 3201770954304 1 0
17.418686 -26.362974 -1.4718724 10 3201770954304 1 0
15.435484 -26.053255 -1.5870355 48 3201770956608 1 0
22.233414 -33.661182 4.9532576 8 3201770956608 1 0
18.719027 -31.60649 2.998769 32 3201770958912 1 0
20.416763 -27.85897 -1.4071692 16 3201770958912 1 0
14.240264 -26.977669 -1.0652722 43 3201770961216 1 0
0 0 0 9 3201770961216 1 0
16.452898 -27.799564 5.889756 33 3201770963520 1 0
17.390305 -26.35501 -0.734743 35 3201770963520 1 0
0 0 0 4 3201770984256 1 0
0 0 0 65 3201770984256 1 0
15.386325 -26.087814 -0.8814432 45 3201770986560 1 0
3.2976153 -5.014098 -1.6799936 2 3201770986560 1 0
4.289002 -7.274504 -1.6889621 5 3201770988864 1 0
29.379942 -44.687016 0 41 3201770988864 1 0
16.311825 -31.049692 -0.40832263 72 3201770991168 1 0
5.841762 -8.888161 -1.6547223 8 3201770991168 1 0
0 0 0 30 3201770993472 1 0
29.607805 -40.592514 0.2920138 40 3201770993472 1 0
18.641665 -31.64937 -0.21348321 90 3201770995776 1 0
6.371056 -9.69962 -1.2500367 5 3201770995776 1 0
8.405898 -16.017668 -1.6886078 2 3201770998080 1 0
18.183455 -34.66132 0.45567855 5 3201771000384 1 0
29.187962 -44.45133 1.2374129 19 3201770998080 1 0
12.4658165 -18.990631 -1.5884944 4 3201771000384 1 0
10.240535 -17.403496 -1.6484442 3 3201771002688 1 0
29.43326 -40.40256 1.4547595 24 3201771002688 1 0
18.61667 -31.649029 0.6409222 100 3201771004992 1 0
14.2221365 -19.528463 -1.5482842 4 3201771004992 1 0
12.609691 -24.06212 -1.582079 7 3201771007296 1 0
0 0 0 3 3201771007296 1 0
17.350346 -26.465353 -1.474106 10 3201771009600 1 0
18.600948 -31.643358 1.4954226 79 3201771009600 1 0
15.28348 -26.008442 -1.5809646 38 3201771011904 1 0
22.106304 -33.730556 4.951795 8 3201771011904 1 0
18.58182 -31.631876 2.9948635 40 3201771014208 1 0
20.307756 -27.918766 -1.406518 11 3201771014208 1 0
13.977227 -26.70947 -1.0527084 42 3201771016512 1 0
0 0 0 9 3201771016512 1 0
16.341984 -27.837536 5.8854513 38 3201771018816 1 0
17.27895 -26.38992 -0.7339986 39 3201771018816 1 0
0 0 0 4 3201771039552 1 0
0 0 0 7 3201771039552 1 0
15.279015 -26.113756 -0.8805123 45 3201771041856 1 0
3.2800927 -5.0255785 -1.6799936 2 3201771041856 1 0
4.2655635 -7.292817 -1.6897466 4 3201771044160 1 0
29.400824 -45.06065 0 31 3201771044160 1 0
16.221819 -31.141916 -0.40878826 36 3201771046464 1 0
5.808542 -8.905188 -1.6541073 8 3201771046464 1 0
5.6706734 -9.701603 -1.4303664 3 3201771048768 1 0
0 0 0 8 3201771048768 1 0
18.51291 -31.683167 -0.21327399 95 3201771051072 1 0
6.3415027 -9.728464 -1.2508935 3 3201771051072 1 0
8.357288 -16.061045 -1.690095 2 3201771053376 1 0
29.176712 -44.774067 1.2435545 29 3201771053376 1 0
18.05128 -34.70329 0.4553992 5 3201771055680 1 0
12.410341 -19.050747 -1.5898895 4 3201771055680 1 0
10.185753 -17.449465 -1.6494206 3 3201771057984 1 0
29.423258 -40.68649 1.4612757 24 3201771057984 1 0
18.483908 -31.675823 0.64015424 100 3201771060288 1 0
14.165576 -19.594164 -1.5495633 4 3201771060288 1 0
12.571651 -24.194576 -1.5878929 7 3201771062592 1 0
0 0 0 3 3201771062592 1 0
18.47226 -31.677023 1.4939572 72 3201771064896 1 0
17.264395 -26.535805 -1.4746643 15 3201771064896 1 0
15.186565 -26.051281 -1.5803366 38 3201771067200 1 0
21.97977 -33.794205 4.9498453 8 3201771067200 1 0
18.445196 -31.651768 2.9906325 48 3201771069504 1 0
20.228895 -28.015406 -1.4078206 16 3201771069504 1 0
13.8065815 -26.609068 -1.0468453 57 3201771071808 1 0
0 0 0 9 3201771071808 1 0
16.22095 -27.853603 5.8768415 33 3201771074112 1 0
17.164938 -26.416542 -0.73306805 48 3201771074112 1 0
0 0 0 4 3201771095296 1 0
28.941648 -40.217285 -0.86487144 8 3201771095296 1 0
15.165879 -26.128782 -0.8792323 50 3201771097600 1 0
3.2604728 -5.0337405 -1.6789154 2 3201771097600 1 0
4.2401867 -7.3076005 -1.6897466 4 3201771099904 1 0
29.396198 -45.397606 0 31 3201771099904 1 0
17.457268 -33.799313 -0.44287336 40 3201771102208 1 0
5.7797637 -8.928601 -1.6547223 8 3201771102208 1 0
5.625114 -9.700579 -1.427336 3 3201771104512 1 0
29.560678 -41.125412 0.2943618 86 3201771104512 1 0
18.383297 -31.71232 -0.21304151 90 3201771106816 1 0
6.30786 -9.750311 -1.2508935 4 3201771106816 1 0
8.3384 -16.160543 -1.6975305 2 3201771109120 1 0
0 0 0 44 3201771111424 1 0
29.148159 -45.06913 1.2489514 29 3201771109120 1 0
12.342571 -19.089972 -1.5896106 4 3201771111424 1 0
29.407017 -40.959385 1.4674429 24 3201771113728 1 0
10.131792 -17.494675 -1.650397 3 3201771113728 1 0
18.351257 -31.697414 0.63931656 100 3201771116032 1 0
12.499857 -24.258703 -1.5892882 7 3201771118336 1 0
0 0 0 3 3201771118336 1 0
18.33809 -31.694868 1.4918404 72 3201771120640 1 0
14.103035 -19.649055 -1.5500749 4 3201771116032 1 0
17.1196 -26.510616 -1.4700112 15 3201771120640 1 0
15.091815 -26.092442 -1.5797085 38 3201771122944 1 0
21.860321 -33.86214 4.94887 8 3201771122944 1 0
18.31764 -31.679714 2.987378 39 3201771125248 1 0
20.145277 -28.100183 -1.4086348 16 3201771125248 1 0
13.7510805 -26.72324 -1.0494977 59 3201771127552 1 0
0 0 0 9 3201771127552 1 0
16.10501 -27.870817 5.8689494 38 3201771129856 1 0
17.053835 -26.44083 -0.73213756 48 3201771129856 1 0
0 0 0 4 3201771150592 1 0
26.501427 -37.085133 -0.7956203 7 3201771150592 1 0
15.062804 -26.151432 -0.8783014 50 3201771152896 1 0
3.2457721 -5.047812 -1.6799936 2 3201771152896 1 0
4.2176747 -7.3251433 -1.690531 4 3201771155200 1 0
29.386919 -45.717766 0 31 3201771155200 1 0
17.329023 -33.829296 -0.44250086 52 3201771157504 1 0
5.75187 -8.951295 -1.6553372 9 3201771157504 1 0
5.580476 -9.698868 -1.4243056 3 3201771159808 1 0
29.563482 -41.42353 0.2957799 58 3201771159808 1 0
18.253786 -31.736298 -0.21278578 85 3201771162112 1 0
6.2769303 -9.774978 -1.2513219 4 3201771162112 1 0
8.283351 -16.18883 -1.6975305 2 3201771164416 1 0
20.395555 -39.875717 0.5214274 40 3201771166720 1 0
29.113415 -45.353157 1.2540693 29 3201771164416 1 0
12.288026 -19.148838 -1.5910057 4 3201771166720 1 0
10.083599 -17.550089 -1.6523497 3 3201771169024 1 0
29.403173 -41.25218 1.4743083 24 3201771169024 1 0
18.219976 -31.722334 0.6385487 100 3201771171328 1 0
14.10008 -19.788578 -1.5572382 6 3201771171328 1 0
12.415809 -24.301826 -1.5892882 7 3201771173632 1 0
0 0 0 3 3201771173632 1 0
18.203932 -31.716827 1.4898865 65 3201771175936 1 0
17.094177 -26.674255 -1.4757811 15 3201771175936 1 0
14.992691 -26.131104 -1.5788711 33 3201771178240 1 0
21.737703 -33.931557 4.9478955 8 3201771178240 1 0
18.188633 -31.712603 2.984449 47 3201771180544 1 0
20.039705 -28.160856 -1.4081463 16 3201771180544 1 0
13.822244 -27.095524 -1.062201 43 3201771182848 1 0
0 0 0 9 3201771182848 1 0
15.984881 -27.890009 5.861057 33 3201771185152 1 0
16.934412 -26.46052 -0.7310209 43 3201771185152 1 0
0 0 0 4 3201771205888 1 0
29.668798 -41.84078 -0.89530843 27 3201771205888 1 0
15.004719 -26.272322 -0.8805123 45 3201771208192 1 0
3.2314289 -5.0661464 -1.6821502 2 3201771208192 1 0
4.1909056 -7.340492 -1.690531 4 3201771210496 1 0
29.366062 -46.054085 0 32 3201771210496 1 0
17.191172 -33.863674 -0.44212833 48 3201771212800 1 0
5.7213435 -8.975524 -1.6559521 8 3201771212800 1 0
5.5392737 -9.7087555 -1.4227903 12 3201771215104 1 0
29.53519 -41.703754 0.29701203 34 3201771215104 1 0
18.190025 -31.892666 -0.21339022 30 3201771217408 1 0
6.243554 -9.801045 -1.2517503 7 3201771217408 1 0
8.224668 -16.218721 -1.6975305 2 3201771219712 1 0
29.092894 -45.684288 1.2603039 20 3201771219712 1 0
20.253109 -39.952736 0.52147394 6 3201771222016 1 0
12.227308 -19.206589 -1.5921217 4 3201771222016 1 0
10.026151 -17.596739 -1.6533262 3 3201771224320 1 0
29.385794 -41.54403 1.4809409 24 3201771224320 1 0
18.153172 -31.87112 0.6402241 30 3201771226624 1 0
14.028755 -19.839207 -1.5572382 6 3201771226624 1 0
12.335641 -24.360523 -1.5902185 7 3201771228928 1 0
50.281567 -79.058136 5.4564633 28 3201771228928 1 0
18.127668 -31.847883 1.4929802 21 3201771231232 1 0
0 0 0 61 3201771231232 1 0
14.855639 -26.108198 -1.5742656 19 3201771233536 1 0
21.61403 -34.005764 4.9474077 8 3201771233536 1 0
18.112734 -31.843187 2.9906325 16 3201771235840 1 0
19.941332 -28.235495 -1.4083091 16 3201771235840 1 0
13.720193 -27.133904 -1.0617822 39 3201771238144 1 0
0 0 0 9 3201771238144 1 0
16.818771 -26.486814 -0.7300904 35 3201771240448 1 0
15.871988 -27.922728 5.8560348 33 3201771240448 1 0
0 0 0 4 3201771261184 1 0
0 0 0 94 3201771261184 1 0
14.853796 -26.220173 -0.87702143 40 3201771263488 1 0
3.209605 -5.0708857 -1.6799936 2 3201771263488 1 0
4.163324 -7.3516626 -1.6897466 5 3201771265792 1 0
29.352701 -46.389545 0 32 3201771265792 1 0
17.060274 -33.898468 -0.44180238 48 3201771268096 1 0
5.689978 -8.9954405 -1.6559521 8 3201771268096 1 0
5.5092587 -9.734939 -1.4238005 60 3201771270400 1 0
29.520557 -41.99312 0.29833716 20 3201771270400 1 0
18.289331 -32.32848 -0.21587773 20 3201771272704 1 0
6.222054 -9.84295 -1.2543206 11 3201771272704 1 0
8.171582 -16.254448 -1.698274 2 3201771275008 1 0
29.059286 -45.985012 1.265794 30 3201771275008 1 0
0 0 0 11 3201771277312 1 0
12.155928 -19.242407 -1.5915637 4 3201771277312 1 0
9.978396 -17.655924 -1.6556042 3 3201771279616 1 0
29.37845 -41.84269 1.4879227 24 3201771279616 1 0
18.262144 -32.324287 0.64804274 25 3201771281920 1 0
13.961711 -19.891323 -1.557494 6 3201771281920 1 0
12.270239 -24.44269 -1.5927767 7 3201771284224 1 0
0 0 0 3 3201771284224 1 0
18.226635 -32.28336 1.5104029 22 3201771286528 1 0
16.391184 -25.980127 -1.4309251 9 3201771286528 1 0
21.484608 -34.064213 4.9449706 8 3201771288832 1 0
18.213045 -32.281216 3.025782 16 3201771291136 1 0
14.733001 -26.104237 -1.570916 28 3201771288832 1 0
19.805943 -28.25257 -1.4057038 11 3201771291136 1 0
13.611063 -27.15304 -1.0606655 39 3201771293440 1 0
0 0 0 9 3201771293440 1 0
15.758962 -27.950539 5.8502946 22 3201771295744 1 0
16.713423 -26.52506 -0.72953206 26 3201771295744 1 0
29.58212 -42.34195 -0.9015913 27 3201771316480 1 0
14.732801 -26.219578 -0.87527597 45 3201771318784 1 0
3.1918848 -5.0820584 -1.6799936 2 3201771318784 1 0
0 0 0 4 3201771316480 1 0
4.141478 -7.37299 -1.6913155 4 3201771321088 1 0
29.316084 -46.69159 0 32 3201771321088 1 0
5.654341 -9.008553 -1.6547223 8 3201771323392 1 0
5.4635906 -9.73335 -1.42077 59 3201771325696 1 0
0 0 0 5 3201771325696 1 0
29.223911 -52.07995 -0.34708747 21 3201771328000 1 0
6.172865 -9.841025 -1.2513219 15 3201771328000 1 0
16.922201 -33.918446 -0.44129017 32 3201771323392 1 0
8.120123 -16.293568 -1.6993893 2 3201771330304 1 0
29.043053 -46.316547 1.2721215 30 3201771330304 1 0
0 0 0 21 3201771332608 1 0
12.090805 -19.288101 -1.5918428 4 3201771332608 1 0
29.364807 -42.135242 1.4946716 24 3201771334912 1 0
9.916705 -17.690649 -1.6556042 3 3201771334912 1 0
18.23718 -32.544838 0.6511842 6 3201771337216 1 0
13.910447 -19.966139 -1.5595406 6 3201771337216 1 0
12.181285 -24.478222 -1.5923115 7 3201771339520 1 0
0 0 0 3 3201771339520 1 0
28.729057 -51.30292 2.3955421 26 3201771341824 1 0
16.321598 -26.071053 -1.4327863 14 3201771341824 1 0
21.357145 -34.12554 4.9430203 7 3201771344128 1 0
14.745204 -26.340239 -1.5820113 47 3201771344128 1 0
18.183968 -32.494194 3.0397768 8 3201771346432 1 0
18.227962 -26.195696 -1.3001906 14 3201771346432 1 0
13.236909 -26.638336 -1.0387486 41 3201771348736 1 0
0 0 0 9 3201771348736 1 0
15.642093 -27.971033 5.84312 21 3201771351040 1 0
0 0 0 4 3201771371776 1 0
16.247612 -25.986475 -0.71315485 72 3201771351040 1 0
29.573164 -42.645428 -0.9058497 27 3201771371776 1 0
14.615884 -26.225441 -0.87376326 50 3201771374080 1 0
3.184312 -5.109514 -1.6853851 2 3201771374080 1 0
4.117625 -7.390828 -1.6920999 4 3201771376384 1 0
29.336939 -47.089005 0 32 3201771376384 1 0
16.794834 -33.95938 -0.44105735 48 3201771378688 1 0
5.622861 -9.0282345 -1.6547223 9 3201771378688 1 0
5.4218607 -9.738494 -1.4187498 50 3201771380992 1 0
18.14682 -26.20082 0.18523732 13 3201771380992 1 0
6.136374 -9.859137 -1.2508935 10 3201771383296 1 0
8.063198 -16.321814 -1.6993893 2 3201771385600 1 0
29.17227 -52.41581 -0.3486451 31 3201771383296 1 0
29.022743 -46.645134 1.2783561 30 3201771385600 1 0
12.025511 -19.333578 -1.5921217 4 3201771387904 1 0
0 0 0 44 3201771387904 1 0
9.860704 -17.73561 -1.6565807 3 3201771390208 1 0
29.3563 -42.43807 1.5017698 24 3201771390208 1 0
36.15367 -65.048805 1.2990175 24 3201771392512 1 0
13.829316 -19.99816 -1.5582615 6 3201771392512 1 0
12.109899 -24.549244 -1.594172 7 3201771394816 1 0
0 0 0 3 3201771394816 1 0
28.51099 -51.333015 2.3922853 79 3201771397120 1 0
0 0 0 42 3201771397120 1 0
14.596938 -26.290272 -1.5759404 23 3201771399424 1 0
21.2358 -34.19651 4.942533 7 3201771399424 1 0
0 0 0 8 3201771401728 1 0
18.10007 -26.206547 -1.2975852 24 3201771401728 1 0
13.124413 -26.644932 -1.0372131 49 3201771404032 1 0
0 0 0 9 3201771404032 1 0
16.123074 -25.98866 -0.711666 61 3201771406336 1 0
15.527183 -27.994492 5.836663 26 3201771406336 1 0
0 0 0 4 3201771427072 1 0
18.020462 -26.18076 -0.5547771 13 3201771427072 1 0
14.5167055 -26.262197 -0.8732978 45 3201771429376 1 0
3.1664944 -5.1205754 -1.6853851 2 3201771429376 1 0
4.0919094 -7.405097 -1.6920999 6 3201771431680 1 0
29.324514 -47.43567 0 33 3201771431680 1 0
16.661089 -33.98511 -0.44063827 48 3201771433984 1 0
5.593588 -9.051047 -1.6553372 8 3201771433984 1 0
5.3823633 -9.746783 -1.4172345 54 3201771436288 1 0
18.017492 -26.207447 0.18484211 49 3201771436288 1 0
18.54251 -33.58912 -0.22299151 10 3201771438592 1 0
6.0981016 -9.8735075 -1.2500367 11 3201771438592 1 0
29.021452 -47.003494 1.285428 31 3201771440896 1 0
8.013895 -16.363817 -1.7008765 2 3201771440896 1 0
0 0 0 43 3201771443200 1 0
0 0 0 17 3201771443200 1 0
9.809396 -17.786806 -1.658208 3 3201771445504 1 0
29.343996 -42.73305 1.508635 24 3201771445504 1 0
31.389118 -56.934666 1.1348252 18 3201771447808 1 0
13.776551 -20.068447 -1.5600523 6 3201771447808 1 0
12.071533 -24.68376 -1.6002184 7 3201771450112 1 0
40.79461 -66.153206 4.526239 28 3201771450112 1 0
28.312601 -51.38795 2.3903315 79 3201771452416 1 0
16.09306 -26.104843 -1.4285055 57 3201771452416 1 0
14.51894 -26.360792 -1.5771964 42 3201771454720 1 0
20.952656 -33.998196 4.903535 7 3201771454720 1 0
0 0 0 8 3201771457024 1 0
17.963503 -26.198645 -1.2941658 39 3201771457024 1 0
13.012991 -26.64615 -1.0355378 49 3201771459328 1 0
0 0 0 9 3201771459328 1 0
15.411561 -28.008913 5.8287706 21 3201771461632 1 0
16.00994 -26.00217 -0.71054935 57 3201771461632 1 0
0 0 0 4 3201771482368 1 0
29.38375 -42.994324 -0.90899116 18 3201771482368 1 0
14.394738 -26.247194 -0.8712033 48 3201771484672 1 0
3.1454291 -5.124505 -1.6832286 2 3201771484672 1 0
4.0672226 -7.4186845 -1.6920999 5 3201771486976 1 0
29.329533 -47.799004 0 33 3201771486976 1 0
16.531818 -34.008163 -0.4402192 56 3201771489280 1 0
5.5674777 -9.0764065 -1.656567 8 3201771489280 1 0
5.3459153 -9.757774 -1.4162244 31 3201771491584 1 0
17.895897 -26.218018 0.1844934 27 3201771491584 1 0
0 0 0 76 3201771493888 1 0
6.0691237 -9.900677 -1.2508935 6 3201771493888 1 0
7.958872 -16.39065 -1.7008765 2 3201771496192 1 0
29.017984 -47.353046 1.2923139 31 3201771496192 1 0
25.042255 -51.591583 0.6676394 10 3201771498496 1 0
9.751236 -17.823303 -1.6585335 3 3201771500800 1 0
29.334766 -43.03004 1.5156168 24 3201771500800 1 0
11.914477 -19.449009 -1.594912 27 3201771498496 1 0
13.724346 -20.138008 -1.5618432 4 3201771503104 1 0
11.993041 -24.735306 -1.600916 7 3201771505408 1 0
39.790596 -65.01723 4.439263 28 3201771505408 1 0
28.097666 -51.410156 2.386912 79 3201771507712 1 0
30.921984 -56.53871 1.1248425 35 3201771503104 1 0
15.985544 -26.12867 -1.4268304 61 3201771507712 1 0
14.427225 -26.406548 -1.576987 61 3201771510016 1 0
20.698036 -33.842384 4.870874 7 3201771510016 1 0
0 0 0 8 3201771512320 1 0
17.853804 -26.230024 -1.2927004 43 3201771512320 1 0
0 0 0 9 3201771514624 1 0
12.892227 -26.629305 -1.0331647 45 3201771514624 1 0
15.296682 -28.026995 5.8215957 21 3201771516928 1 0
15.899933 -26.022732 -0.7096188 57 3201771516928 1 0
0 0 0 4 3201771537664 1 0
29.516376 -43.513664 -0.91778713 18 3201771537664 1 0
14.322326 -26.332302 -0.8723669 43 3201771539968 1 0
3.129563 -5.1387205 -1.6843069 2 3201771539968 1 0
4.0432835 -7.436224 -1.6928844 4 3201771542272 1 0
16.168728 -26.557198 0 8 3201771542272 1 0
16.403332 -34.043682 -0.43993983 44 3201771544576 1 0
5.5400696 -9.102417 -1.6577969 9 3201771544576 1 0
0 0 0 22 3201771546880 1 0
17.787085 -26.253315 0.18430741 22 3201771546880 1 0
18.261898 -33.619656 -0.22236381 52 3201771549184 1 0
6.0348873 -9.921582 -1.2508935 4 3201771549184 1 0
7.90578 -16.425163 -1.70162 2 3201771551488 1 0
29.022877 -47.729553 1.2998512 31 3201771551488 1 0
24.83343 -51.61254 0.6668013 30 3201771553792 1 0
11.851653 -19.496696 -1.5954701 27 3201771553792 1 0
9.695704 -17.867182 -1.6595098 3 3201771556096 1 0
29.330307 -43.342403 1.523064 25 3201771556096 1 0
30.375343 -55.99394 1.1119277 51 3201771558400 1 0
13.657525 -20.188206 -1.562099 6 3201771558400 1 0
11.913616 -24.78695 -1.6016138 7 3201771560704 1 0
39.568142 -65.15285 4.439263 28 3201771560704 1 0
27.899303 -51.463528 2.3849583 78 3201771563008 1 0
15.871452 -26.142054 -1.4245969 57 3201771563008 1 0
14.320141 -26.423887 -1.5751029 33 3201771565312 1 0
20.80109 -34.272392 4.9225464 7 3201771565312 1 0
0 0 0 8 3201771567616 1 0
17.740007 -26.254078 -1.2909093 38 3201771567616 1 0
12.826127 -26.723297 -1.035119 41 3201771569920 1 0
0 0 0 9 3201771569920 1 0
15.194325 -28.06472 5.818726 26 3201771572224 1 0
15.782817 -26.028479 -0.7083161 66 3201771572224 1 0
0 0 0 4 3201771592960 1 0
14.337072 -26.56987 -0.8786505 45 3201771595264 1 0
29.56852 -43.903217 -0.9239304 18 3201771592960 1 0
4.0202475 -7.45316 -1.693669 4 3201771597568 1 0
3.1124303 -5.1491156 -1.6843069 2 3201771595264 1 0
29.344131 -48.56284 0 33 3201771597568 1 0
15.325115 -32.081127 -0.41391036 26 3201771599872 1 0
5.5053697 -9.114212 -1.656567 11 3201771599872 1 0
5.271557 -9.780118 -1.4142041 3 3201771602176 1 0
17.669376 -26.270039 0.18400519 36 3201771602176 1 0
18.126991 -33.642616 -0.2221081 42 3201771604480 1 0
6.0073957 -9.952191 -1.2521787 3 3201771604480 1 0
29.031746 -48.112236 1.3075746 32 3201771606784 1 0
15.305515 -32.09048 0.41391036 13 3201771609088 1 0
7.8566933 -16.466352 -1.7031071 2 3201771606784 1 0
11.791128 -19.54734 -1.5963072 29 3201771609088 1 0
9.647545 -17.92493 -1.661788 3 3201771611392 1 0
29.31513 -43.641968 1.5300457 25 3201771611392 1 0
13.598982 -20.251732 -1.5633781 6 3201771613696 1 0
30.08172 -55.911644 1.1082278 51 3201771613696 1 0
11.827744 -24.828041 -1.6016138 7 3201771616000 1 0
39.31146 -65.23812 4.435775 28 3201771616000 1 0
15.796978 -26.224447 -1.4260858 28 3201771618304 1 0
14.142722 -26.315378 -1.5656824 41 3201771620608 1 0
20.759157 -34.474037 4.9410706 7 3201771620608 1 0
27.691853 -51.507393 2.3825157 52 3201771618304 1 0
0 0 0 8 3201771622912 1 0
17.627838 -26.286224 -1.2894439 33 3201771622912 1 0
12.953489 -27.233969 -1.0531272 42 3201771625216 1 0
15.083874 -28.097443 5.814421 26 3201771627520 1 0
0 0 0 9 3201771625216 1 0
15.729891 -26.149204 -0.7100841 53 3201771627520 1 0
0 0 0 4 3201771648256 1 0
25.61011 -38.328236 -0.80462575 7 3201771648256 1 0
14.087035 -26.336557 -0.86922514 58 3201771650560 1 0
3.9967108 -7.4747047 -1.6952379 4 3201771652864 1 0
3.095555 -5.1637697 -1.6853851 1 3201771650560 1 0
18.933134 -31.593237 0 82 3201771652864 1 0
15.037041 -31.775215 -0.40925393 38 3201771655168 1 0
5.476189 -9.140991 -1.6577969 13 3201771655168 1 0
5.222871 -9.774723 -1.4106686 3 3201771657472 1 0
