# .PCD v.7 - Point Cloud Data file format
VERSION .7
FIELDS x y z rgb timestamp_ns device_id active
SIZE 4 4 4 4 8 1 1
TYPE F F F F F U U
COUNT 1 1 1 1 1 1 1
WIDTH 953
HEIGHT 1
VIEWPOINT 0 0 0 1 0 0 0
POINTS 953               
DATA ascii
-5.314624 14.064744 -0.7879702 6 3205723681312 1 0
-8.713423 20.039501 2.6830754 21 3205723681312 1 0
-8.297061 21.967196 1.916947 10 3205723683616 1 0
-10.1827345 20.610744 -0.9365931 27 3205723683616 1 0
-7.4810004 17.218819 5.030407 12 3205723685920 1 0
-4.468358 13.848075 -0.5081367 5 3205723685920 1 0
-11.702599 31.010944 6.043296 11 3205723688224 1 0
-15.416709 35.498352 -0.9005627 5 3205723688224 1 0
-1.4502518 3.8583324 -1.9220679 3 3205723708960 1 0
-9.169562 18.635012 -0.36252138 30 3205723708960 1 0
-5.398504 14.368833 -0.44671425 5 3205723711264 1 0
-2.930075 6.7737064 -2.0660255 4 3205723711264 1 0
-4.0789876 10.861563 -2.3204598 2 3205723713568 1 0
-8.380537 19.381744 0 14 3205723713568 1 0
-9.817134 30.622692 -0.37437722 6 3205723715872 1 0
-5.334613 14.217616 -1.932914 15 3205723718176 1 0
-6.305433 14.588456 -2.4725523 7 3205723715872 1 0
-8.957111 18.230019 0.11805159 13 3205723718176 1 0
-11.193414 29.845478 -0.18526056 34 3205723720480 1 0
-6.2015553 14.35959 -1.6848508 29 3205723720480 1 0
-4.4232526 13.818237 -1.354381 9 3205723722784 1 0
-8.454167 19.583298 0.49634236 13 3205723722784 1 0
-6.181681 14.325019 -1.0909913 9 3205723725088 1 0
-5.26062 14.045252 -1.2243726 10 3205723727392 1 0
-9.347921 19.053417 0.6176502 31 3205723727392 1 0
-9.522645 29.763641 0.36380714 16 3205723725088 1 0
-11.269888 30.102636 0.56105995 24 3205723729696 1 0
-7.231251 14.744532 -1.0524852 1 3205723729696 1 0
-4.4147553 13.819376 -0.8448762 4 3205723732000 1 0
-9.894384 22.95612 1.4558011 22 3205723732000 1 0
-11.599363 31.010157 1.3488765 17 3205723734304 1 0
-6.173813 14.329696 -0.7268162 4 3205723734304 1 0
-5.252906 14.049536 -0.7860861 6 3205723736608 1 0
-8.871125 20.598522 2.7537596 27 3205723736608 1 0
0 0 0 100 3205723738912 1 0
-10.087876 20.5995 -0.9344763 35 3205723738912 1 0
-4.3957067 13.787415 -0.5053447 5 3205723741216 1 0
-7.457504 17.330006 5.0552535 10 3205723741216 1 0
0 0 0 13 3205723743520 1 0
-12.682293 29.48336 -0.7468399 4 3205723743520 1 0
-1.4393022 3.870167 -1.9254488 3 3205723764256 1 0
-5.3051267 14.271409 -0.443107 5 3205723766560 1 0
-9.532244 19.543995 -0.37955493 33 3205723764256 1 0
-2.9048953 6.780352 -2.0649474 5 3205723766560 1 0
-4.041049 10.875735 -2.3204598 2 3205723768864 1 0
-8.408888 19.635178 0 40 3205723768864 1 0
-8.2210455 25.955307 -0.3169634 10 3205723771168 1 0
-6.2544713 14.610377 -2.4725523 6 3205723771168 1 0
-5.308428 14.29939 -1.9415002 13 3205723773472 1 0
-8.947714 18.372654 0.11877227 17 3205723773472 1 0
-8.190592 22.072956 -0.1368357 30 3205723775776 1 0
-6.1326246 14.337272 -1.6797101 28 3205723775776 1 0
-4.3641825 13.7994175 -1.351035 9 3205723778080 1 0
-9.231565 21.590872 0.54640466 100 3205723778080 1 0
-9.311401 29.45728 0.35966292 12 3205723780384 1 0
-6.11439 14.306149 -1.087922 10 3205723780384 1 0
-5.1963224 14.022408 -1.2207925 10 3205723782688 1 0
-9.244637 19.010422 0.6152066 27 3205723782688 1 0
-10.459044 28.2366 0.5255967 76 3205723784992 1 0
-7.155306 14.719422 -1.0489037 1 3205723784992 1 0
-4.3568745 13.804237 -0.8430158 6 3205723787296 1 0
-9.85025 23.074987 1.4611499 27 3205723787296 1 0
-10.696218 28.902712 1.2555754 10 3205723789600 1 0
-6.1002326 14.296033 -0.7240243 4 3205723789600 1 0
-5.189974 14.030322 -0.78399265 6 3205723791904 1 0
-8.719729 20.44312 2.7288983 18 3205723791904 1 0
0 0 0 17 3205723794208 1 0
-10.036852 20.677734 -0.9364303 25 3205723794208 1 0
-4.337945 13.772171 -0.50422794 5 3205723796512 1 0
-7.440896 17.459007 5.0852766 5 3205723796512 1 0
-11.510364 31.15833 6.05621 52 3205723798816 1 0
-22.574091 52.98827 -1.3402361 11 3205723798816 1 0
-9.58407 19.825602 -0.3843718 31 3205723819552 1 0
-5.229057 14.218541 -0.44089612 7 3205723821856 1 0
-2.8827145 6.793997 -2.0660255 6 3205723821856 1 0
-3.9976475 10.875049 -2.317322 2 3205723824160 1 0
-1.4270358 3.8785696 -1.9271393 3 3205723819552 1 0
-9.319579 21.973322 0 23 3205723824160 1 0
-6.1957197 14.613926 -2.4694777 6 3205723826464 1 0
-5.2530093 14.302934 -1.93948 13 3205723828768 1 0
-8.1077 25.911318 -0.3160787 25 3205723826464 1 0
-8.815714 18.263288 0.11786561 14 3205723828768 1 0
-8.123142 22.127697 -0.13699843 21 3205723831072 1 0
-6.0701303 14.329295 -1.676283 22 3205723831072 1 0
-4.3064857 13.784155 -1.3480607 11 3205723833376 1 0
-9.121839 21.541952 0.5443575 33 3205723833376 1 0
-9.449343 30.260822 0.3690689 12 3205723835680 1 0
-5.1363654 14.010516 -1.2181889 10 3205723837984 1 0
-9.275437 19.244274 0.6217229 25 3205723837984 1 0
-6.0441947 14.279634 -1.0842947 10 3205723835680 1 0
-10.4361 28.479473 0.52943623 12 3205723840288 1 0
-7.0934863 14.722733 -1.0473686 1 3205723840288 1 0
-4.302719 13.800301 -0.841853 10 3205723842592 1 0
-10.007548 23.671972 1.4967309 12 3205723842592 1 0
-11.415567 31.180452 1.3527844 11 3205723844896 1 0
-6.036295 14.284115 -0.72234917 4 3205723844896 1 0
-5.125867 14.00709 -0.7816898 6 3205723847200 1 0
-8.58652 20.32714 2.7093992 15 3205723847200 1 0
-8.552755 23.38204 2.0324845 7 3205723849504 1 0
-12.201495 25.362274 -1.1466427 27 3205723849504 1 0
-4.2934074 13.79868 -0.5046467 16 3205723851808 1 0
-9.16028 21.70303 6.312079 8 3205723851808 1 0
-11.442052 31.3092 6.0777345 29 3205723854112 1 0
-10.778675 25.547789 -0.6452265 10 3205723854112 1 0
-1.4147283 3.886934 -1.9288298 4 3205723875296 1 0
-8.968734 18.719193 -0.36231196 34 3205723875296 1 0
-5.145219 14.142773 -0.4379871 5 3205723877600 1 0
-2.8589814 6.804018 -2.0660255 6 3205723877600 1 0
-3.9543004 10.874192 -2.314184 2 3205723879904 1 0
-8.253016 19.649149 0 42 3205723879904 1 0
-8.021928 25.954746 -0.31626496 25 3205723882208 1 0
-6.14314 14.63182 -2.4688628 6 3205723882208 1 0
-5.1895013 14.283888 -1.9344292 15 3205723884512 1 0
-8.755362 18.301167 0.117912106 8 3205723884512 1 0
-11.076871 30.502453 -0.18860823 65 3205723886816 1 0
-6.000075 14.302721 -1.6707139 23 3205723886816 1 0
-4.2583437 13.799104 -1.3480607 5 3205723889120 1 0
-9.038856 21.555223 0.5438922 33 3205723889120 1 0
0 0 0 13 3205723891424 1 0
-5.9804296 14.267525 -1.0817834 10 3205723891424 1 0
-5.071118 13.983385 -1.2142833 8 3205723893728 1 0
-9.175461 19.207987 0.619512 21 3205723893728 1 0
-11.150307 30.76044 0.5711126 15 3205723896032 1 0
-6.9749675 14.606917 -1.0373913 1 3205723896032 1 0
-4.2650986 13.849583 -0.84394604 9 3205723898336 1 0
-10.725199 25.618479 1.6174276 13 3205723898336 1 0
0 0 0 16 3205723900640 1 0
-5.9725146 14.271925 -0.72067404 4 3205723900640 1 0
-5.064705 13.991093 -0.7798057 6 3205723902944 1 0
-8.592119 20.540121 2.733773 16 3205723902944 1 0
-8.496858 23.48298 2.0386682 30 3205723905248 1 0
-12.174813 25.534584 -1.1525046 7 3205723905248 1 0
-4.2581325 13.855617 -0.5061823 15 3205723907552 1 0
-7.852245 18.786743 5.4559054 6 3205723907552 1 0
-11.387544 31.50068 6.107151 23 3205723909856 1 0
-10.633933 25.452425 -0.6418766 52 3205723909856 1 0
-1.3986957 3.8850267 -1.9254488 3 3205723930592 1 0
-8.944509 18.837091 -0.3639874 32 3205723930592 1 0
-5.0823846 14.122989 -0.43682346 5 3205723932896 1 0
-3.9204595 10.898945 -2.3165374 2 3205723935200 1 0
-8.172375 19.648172 0 32 3205723935200 1 0
-10.258148 33.602703 -0.4090211 10 3205723937504 1 0
-6.0968995 14.66399 -2.4707077 6 3205723937504 1 0
-2.8323035 6.806823 -2.063869 6 3205723932896 1 0
-5.1306314 14.275627 -1.9308937 13 3205723939808 1 0
-8.652543 18.248236 0.11737741 16 3205723939808 1 0
-11.001192 30.62335 -0.18911967 43 3205723942112 1 0
-5.935375 14.286634 -1.6664301 27 3205723942112 1 0
-4.228172 13.870845 -1.3536375 4 3205723944416 1 0
-8.86481 21.3462 0.5378438 24 3205723944416 1 0
-7.917485 25.986797 0.31626496 12 3205723946720 1 0
-5.917549 14.254844 -1.0792722 9 3205723946720 1 0
-5.0109735 13.966936 -1.2113543 8 3205723949024 1 0
-9.039324 19.091206 0.61474115 21 3205723949024 1 0
-10.159238 28.328854 0.52531743 12 3205723951328 1 0
-6.9197717 14.619899 -1.0366238 1 3205723951328 1 0
-4.2421436 13.944307 -0.8488297 4 3205723953632 1 0
-10.3036175 28.756458 1.244503 29 3205723955936 1 0
-10.657457 25.70294 1.6204507 9 3205723953632 1 0
-5.908504 14.2553005 -0.7188128 4 3205723955936 1 0
-5.0049367 13.974403 -0.7779217 6 3205723958240 1 0
-8.441622 20.37485 2.7079368 34 3205723958240 1 0
-8.35659 23.342796 2.0240226 18 3205723960544 1 0
-9.989101 21.134892 -0.9523875 7 3205723960544 1 0
-4.242511 13.973246 -0.5099515 9 3205723962848 1 0
-7.7471533 18.71329 5.4269176 24 3205723962848 1 0
-8.146622 22.776114 4.4103217 9 3205723965152 1 0
-10.529454 25.4439 -0.64075994 49 3205723965152 1 0
-1.3882382 3.8964736 -1.9288298 3 3205723985888 1 0
-8.8155575 18.725529 -0.36126482 18 3205723985888 1 0
-5.0233483 14.105902 -0.4357762 5 3205723988192 1 0
-2.8096662 6.8161983 -2.063869 6 3205723988192 1 0
-3.8828218 10.908247 -2.315753 2 3205723990496 1 0
-8.099269 19.656792 0 22 3205723990496 1 0
-10.128602 33.579315 -0.40832263 10 3205723992800 1 0
-6.0449076 14.67695 -2.4694777 6 3205723992800 1 0
-5.0682225 14.251586 -1.9253379 15 3205723995104 1 0
-8.856903 18.84179 0.121004045 17 3205723995104 1 0
-10.760477 30.271862 -0.18672517 17 3205723997408 1 0
-5.8677707 14.258642 -1.660861 29 3205723997408 1 0
-4.2068114 13.968869 -1.3618165 4 3205723999712 1 0
-8.812819 21.42394 0.5390535 22 3205723999712 1 0
-7.8264837 26.001818 0.31612524 9 3205724002016 1 0
-5.852827 14.234093 -1.0762029 9 3205724002016 1 0
-9.086975 19.360483 0.6224211 24 3205724004320 1 0
-4.95048 13.946195 -1.2080997 8 3205724004320 1 0
-10.714663 30.198633 0.5593147 85 3205724006624 1 0
-6.8719893 14.646829 -1.0368797 1 3205724006624 1 0
-4.2132525 14.019792 -0.8525506 4 3205724008928 1 0
0 0 0 3 3205724008928 1 0
-10.229934 28.85909 1.2474339 19 3205724011232 1 0
-5.8403316 14.227232 -0.7163932 4 3205724011232 1 0
-4.946675 13.961235 -0.7762469 6 3205724013536 1 0
-8.485267 20.678936 2.7444975 19 3205724013536 1 0
-8.248979 23.292242 2.017188 10 3205724015840 1 0
-12.314391 26.286419 -1.1826279 12 3205724015840 1 0
-4.215396 14.056588 -0.5124642 6 3205724018144 1 0
-7.671422 18.71106 5.4186354 14 3205724018144 1 0
-7.7154713 21.80596 4.217321 17 3205724020448 1 0
-10.463472 25.531618 -0.64206266 38 3205724020448 1 0
-1.3710142 3.8910382 -1.9237583 3 3205724041184 1 0
0 0 0 7 3205724041184 1 0
-4.9661098 14.100723 -0.43507802 5 3205724043488 1 0
-2.7844005 6.8223977 -2.0627906 6 3205724043488 1 0
-8.926587 21.881212 0 36 3205724045792 1 0
-3.847326 10.929133 -2.317322 2 3205724045792 1 0
-4.8760834 16.37215 -0.19887626 33 3205724048096 1 0
-5.990654 14.690641 -2.468248 7 3205724048096 1 0
-5.0079126 14.239244 -1.9212973 16 3205724050400 1 0
-9.258923 19.876953 0.12744364 23 3205724050400 1 0
-5.801456 14.238524 -1.6561488 31 3205724052704 1 0
-4.179593 14.056001 -1.3688803 6 3205724055008 1 0
-10.637498 30.260183 -0.18642294 29 3205724052704 1 0
-8.799825 21.606417 0.5428686 35 3205724055008 1 0
-4.865418 16.371151 0.1988297 17 3205724057312 1 0
-4.8925247 13.937058 -1.2058215 8 3205724059616 1 0
-5.786555 14.213783 -1.0731336 7 3205724057312 1 0
-8.904679 19.14556 0.61450845 16 3205724059616 1 0
0 0 0 91 3205724061920 1 0
-6.8073573 14.641769 -1.034833 1 3205724061920 1 0
-4.188143 14.114807 -0.8574343 4 3205724064224 1 0
-12.673322 31.169004 1.9595176 6 3205724064224 1 0
-10.100046 28.811647 1.2438517 39 3205724066528 1 0
-5.7725806 14.203113 -0.71415967 4 3205724066528 1 0
-4.8899856 13.955798 -0.77499086 6 3205724068832 1 0
-8.42648 20.741533 2.748885 5 3205724068832 1 0
-8.325757 23.772413 2.056243 3 3205724071136 1 0
-12.303336 26.50325 -1.1904438 8 3205724071136 1 0
-4.190137 14.151711 -0.51539576 4 3205724073440 1 0
-7.5086966 18.497864 5.3492723 20 3205724073440 1 0
-8.029201 22.947054 4.4325633 48 3205724075744 1 0
-10.378797 25.579103 -0.64234185 42 3205724075744 1 0
-1.3598093 3.902647 -1.9271393 3 3205724096480 1 0
-12.725688 27.528292 -0.5293664 4 3205724096480 1 0
-4.9102836 14.099093 -0.43449622 5 3205724098784 1 0
-2.7634552 6.8392186 -2.0649474 6 3205724098784 1 0
-3.798837 10.912862 -2.3110461 2 3205724101088 1 0
-6.896768 17.07582 0 28 3205724101088 1 0
0 0 0 56 3205724103392 1 0
-5.9393373 14.711464 -2.468248 7 3205724103392 1 0
-4.860422 13.9755535 -1.8834168 4 3205724105696 1 0
-9.196188 19.92368 0.12753664 42 3205724105696 1 0
-5.736841 14.221807 -1.6518649 31 3205724108000 1 0
-10.534431 30.304688 -0.18646944 51 3205724108000 1 0
-4.1529393 14.146934 -1.3763157 6 3205724110304 1 0
-6.8834734 17.071499 0.42832094 19 3205724110304 1 0
-9.11877 31.079697 0.37707797 16 3205724112608 1 0
-5.7175126 14.185782 -1.0695063 7 3205724112608 1 0
-4.8320794 13.920155 -1.2028924 10 3205724114912 1 0
-8.867917 19.241888 0.61660296 10 3205724114912 1 0
-9.979184 28.761332 0.53139085 26 3205724117216 1 0
0 0 0 30 3205724117216 1 0
-4.1601763 14.202152 -0.8618528 12 3205724119520 1 0
0 0 0 15 3205724119520 1 0
-10.122458 29.201694 1.2591577 30 3205724121824 1 0
-5.705069 14.178694 -0.71192616 4 3205724121824 1 0
-4.82424 13.923715 -0.77226937 6 3205724124128 1 0
-9.762909 24.273756 3.2124758 22 3205724124128 1 0
-8.910702 25.73015 2.2228775 8 3205724126432 1 0
0 0 0 12 3205724126432 1 0
-4.1609006 14.235318 -0.5179085 6 3205724128736 1 0
-7.46137 18.566982 5.3616953 20 3205724128736 1 0
-7.8937244 22.815031 4.401712 16 3205724131040 1 0
-6.8596306 17.076784 -0.42822787 30 3205724131040 1 0
-1.3461782 3.9073699 -1.9271393 3 3205724151776 1 0
-15.798973 34.492043 -0.6622141 6 3205724151776 1 0
-4.84802 14.078342 -0.4333326 5 3205724154080 1 0
-2.7381344 6.845247 -2.063869 5 3205724154080 1 0
-8.781036 21.961569 0 31 3205724156384 1 0
-3.7671037 10.9446 -2.3149686 2 3205724156384 1 0
-15.009673 51.71416 -0.6268956 7 3205724158688 1 0
-5.8791475 14.710085 -2.4645584 8 3205724158688 1 0
-4.8167696 14.007443 -1.8854371 4 3205724160992 1 0
-10.450687 30.40558 -0.18686464 38 3205724163296 1 0
-5.6709394 14.2011175 -1.6471527 22 3205724163296 1 0
-4.124593 14.234024 -1.3833795 10 3205724165600 1 0
-9.128249 19.959295 0.12755989 29 3205724160992 1 0
-8.890413 22.272703 0.5580362 30 3205724165600 1 0
-9.744574 33.64696 0.40781042 9 3205724167904 1 0
-5.6516943 14.164886 -1.066437 9 3205724167904 1 0
-4.7679286 13.891687 -1.1989869 10 3205724170208 1 0
-8.853843 19.38911 0.6203265 16 3205724170208 1 0
-9.893003 28.837603 0.5321588 74 3205724172512 1 0
-6.6187787 14.500105 -1.0215298 18 3205724172512 1 0
-4.137196 14.308654 -0.8674342 15 3205724174816 1 0
0 0 0 6 3205724174816 1 0
-9.99714 29.168797 1.2562267 35 3205724177120 1 0
-5.645191 14.172537 -0.7106233 4 3205724177120 1 0
-4.7600737 13.895123 -0.7697573 6 3205724179424 1 0
-7.973066 20.025255 2.6465147 10 3205724179424 1 0
-10.554003 30.822794 2.659642 12 3205724181728 1 0
-12.323541 27.039457 -1.2106345 8 3205724181728 1 0
-4.133347 14.326573 -0.5207005 6 3205724184032 1 0
-7.460781 18.754467 5.4082828 14 3205724184032 1 0
-7.4510374 21.781305 4.1972313 23 3205724186336 1 0
0 0 0 1 3205724186336 1 0
-1.3348684 3.9189084 -1.9305202 4 3205724207072 1 0
-15.693352 34.579758 -0.6628424 6 3205724207072 1 0
-2.7142231 6.854763 -2.063869 6 3205724209376 1 0
-4.785962 14.05733 -0.43216896 5 3205724209376 1 0
-3.725086 10.946544 -2.3126152 2 3205724211680 1 0
-14.946922 52.177666 -0.631878 7 3205724213984 1 0
-8.748485 22.103664 0 34 3205724211680 1 0
-5.824856 14.723166 -2.4633286 8 3205724213984 1 0
-8.388254 18.511839 0.11812133 11 3205724216288 1 0
-4.8099933 14.148147 -1.9021045 12 3205724216288 1 0
-5.6081758 14.187539 -1.6432971 25 3205724218592 1 0
-4.0956883 14.32109 -1.3904432 9 3205724220896 1 0
-8.828778 22.344511 0.5590598 40 3205724220896 1 0
-10.451305 30.756216 -0.18879421 56 3205724218592 1 0
-9.618271 33.650005 0.40743792 13 3205724223200 1 0
-5.5919547 14.158549 -1.0644838 9 3205724223200 1 0
-4.707879 13.874269 -1.1960578 10 3205724225504 1 0
-8.710295 19.252329 0.6149739 12 3205724225504 1 0
-9.817972 28.94771 0.533555 21 3205724227808 1 0
-6.5154862 14.406732 -1.0133432 7 3205724227808 1 0
-4.105852 14.388287 -0.87138766 13 3205724230112 1 0
-11.028969 27.960499 1.7504497 15 3205724230112 1 0
-9.946565 29.354927 1.2627399 15 3205724232416 1 0
-5.5810294 14.154984 -0.70876205 4 3205724232416 1 0
-4.706416 13.896521 -0.7689199 6 3205724234720 1 0
-8.165146 20.717825 2.7342606 30 3205724234720 1 0
-10.429729 30.810356 2.655411 18 3205724237024 1 0
-6.496956 14.388046 -0.643175 6 3205724237024 1 0
-7.374036 18.72647 5.3927536 6 3205724239328 1 0
-4.1063023 14.421654 -0.52363205 6 3205724239328 1 0
-7.3598332 21.76245 4.1886215 20 3205724241632 1 0
-10.891019 27.669703 -0.6919388 12 3205724241632 1 0
-15.647994 34.80212 -0.66605365 6 3205724262368 1 0
-1.318867 3.9166725 -1.9271393 3 3205724262368 1 0
-4.7241096 14.0360565 -0.43100536 5 3205724264672 1 0
-2.687468 6.857023 -2.0617123 6 3205724264672 1 0
-3.6818502 10.944609 -2.3094773 2 3205724266976 1 0
-10.85405 27.70576 0 20 3205724266976 1 0
-14.917023 52.768368 -0.638397 7 3205724269280 1 0
-5.767662 14.728688 -2.460869 8 3205724269280 1 0
-4.7567854 14.153567 -1.9005893 13 3205724271584 1 0
-8.317032 18.526411 0.11802834 26 3205724271584 1 0
-10.312039 30.697718 -0.188213 56 3205724273888 1 0
-5.542678 14.166289 -1.6385849 24 3205724273888 1 0
-4.067308 14.411958 -1.3978788 7 3205724276192 1 0
-8.768206 22.419884 0.56017643 10 3205724276192 1 0
-8.715718 30.900166 0.3737719 24 3205724278496 1 0
-4.651813 13.867939 -1.194105 10 3205724280800 1 0
-8.629955 19.253428 0.614043 22 3205724280800 1 0
-9.735936 29.038685 0.5346021 30 3205724283104 1 0
-6.4390426 14.371101 -1.0092499 6 3205724283104 1 0
-4.0761676 14.475563 -0.8758062 13 3205724285408 1 0
-5.526517 14.137102 -1.0614145 9 3205724278496 1 0
-9.719637 29.018074 1.2467825 14 3205724287712 1 0
-5.5170593 14.137157 -0.70690084 4 3205724287712 1 0
-4.645198 13.874986 -0.76682645 6 3205724290016 1 0
-10.978417 28.143671 3.7092154 9 3205724290016 1 0
-10.77503 32.200058 2.771925 6 3205724292320 1 0
-6.42874 14.370507 -0.6413839 4 3205724292320 1 0
-10.92404 27.980227 1.7492869 15 3205724285408 1 0
-4.0818872 14.528265 -0.5269824 14 3205724294624 1 0
-7.353522 18.867294 5.4258823 18 3205724294624 1 0
-7.298795 21.832792 4.1972313 8 3205724296928 1 0
-10.758077 27.614397 -0.6896125 48 3205724296928 1 0
-1.3040423 3.9178128 -1.9254488 3 3205724317664 1 0
-15.596393 35.013622 -0.66905546 6 3205724317664 1 0
-4.654891 13.991759 -0.42914355 8 3205724319968 1 0
-2.6649091 6.869953 -2.0627906 5 3205724319968 1 0
-3.6498122 10.976005 -2.3133996 2 3205724322272 1 0
-8.404526 21.675642 0 22 3205724322272 1 0
-14.848792 53.236202 -0.64342594 8 3205724324576 1 0
-5.714786 14.745047 -2.4602542 8 3205724324576 1 0
-4.699846 14.147491 -1.8975588 15 3205724326880 1 0
-8.249062 18.548021 0.11798185 21 3205724326880 1 0
-9.800208 29.514967 -0.18075052 49 3205724329184 1 0
-5.475961 14.1410475 -1.6334442 33 3205724329184 1 0
-4.0404797 14.510476 -1.4060578 4 3205724331488 1 0
-10.785859 27.86529 0.6952887 38 3205724331488 1 0
-7.7660036 27.905563 0.3372189 7 3205724333792 1 0
-4.594594 13.857603 -1.1918268 10 3205724336096 1 0
-5.4627376 14.119093 -1.0586243 9 3205724333792 1 0
-8.587036 19.33825 0.6157884 27 3205724336096 1 0
-9.520026 28.727024 0.52824944 29 3205724338400 1 0
-6.3677855 14.346059 -1.0059242 6 3205724338400 1 0
-4.050199 14.578196 -0.881155 10 3205724340704 1 0
-10.847893 28.07406 1.7527752 15 3205724340704 1 0
-9.732595 29.397093 1.2616 46 3205724343008 1 0
-5.4504023 14.111602 -0.7046673 4 3205724343008 1 0
-4.5892076 13.868361 -0.76557034 5 3205724345312 1 0
-9.61179 24.896595 3.2768228 11 3205724345312 1 0
-8.680783 26.245703 2.256725 13 3205724347616 1 0
-6.360726 14.352667 -0.63959277 4 3205724347616 1 0
-7.3696575 19.105532 5.4869637 12 3205724349920 1 0
0 0 0 21 3205724352224 1 0
-4.0514383 14.615619 -0.5296348 12 3205724349920 1 0
-10.642917 27.603277 -0.68840283 60 3205724352224 1 0
-1.2914915 3.9257846 -1.9271393 3 3205724372960 1 0
-12.814874 29.04148 -0.554079 4 3205724372960 1 0
-4.591035 13.962344 -0.42774722 7 3205724375264 1 0
-2.6395319 6.8756175 -2.0617123 6 3205724375264 1 0
-3.6114767 10.988678 -2.3133996 2 3205724377568 1 0
-8.292987 21.611485 0 45 3205724377568 1 0
-10.596573 38.509995 -0.46499142 12 3205724379872 1 0
-5.6547885 14.742763 -2.4565647 8 3205724379872 1 0
-4.6380553 14.126111 -1.8925081 15 3205724382176 1 0
-8.542278 19.389318 0.12314282 30 3205724382176 1 0
-9.990218 30.442116 -0.18621372 34 3205724384480 1 0
-5.413758 14.126653 -1.6295887 30 3205724384480 1 0
-10.707122 27.951315 0.6964984 34 3205724386784 1 0
-4.010903 14.6013 -1.4134934 6 3205724386784 1 0
-6.929436 25.240305 0.304717 18 3205724389088 1 0
-5.396297 14.093358 -1.0552759 10 3205724389088 1 0
-4.535021 13.83946 -1.1888977 8 3205724391392 1 0
-8.562947 19.46692 0.6189302 19 3205724391392 1 0
-9.468241 28.908308 0.530972 56 3205724393696 1 0
-6.2999954 14.328004 -1.00311 6 3205724393696 1 0
-4.022508 14.676971 -0.88627124 13 3205724396000 1 0
-11.758206 30.748749 1.9171923 18 3205724396000 1 0
-9.662236 29.529648 1.2658336 15 3205724398304 1 0
-5.386844 14.093218 -0.7028061 4 3205724398304 1 0
-4.5271115 13.842534 -0.7632676 5 3205724400608 1 0
-7.9080706 20.698349 2.7206113 26 3205724400608 1 0
-8.587877 26.272055 2.2563996 8 3205724402912 1 0
-6.292915 14.334527 -0.63780165 4 3205724402912 1 0
-4.0172663 14.691368 -0.53186834 4 3205724405216 1 0
-7.3580384 19.275528 5.5283747 4 3205724405216 1 0
-6.668562 20.420593 3.9166985 22 3205724407520 1 0
-10.556478 27.666412 -0.6890542 44 3205724407520 1 0
0 0 0 58 3205724428256 1 0
-4.526206 13.928851 -0.4262345 8 3205724430560 1 0
-2.6155152 6.8847895 -2.0617123 6 3205724430560 1 0
-1.2766593 3.926821 -1.9254488 4 3205724428256 1 0
-3.5355365 10.8855715 -2.289081 2 3205724432864 1 0
-10.580366 27.862776 0 16 3205724432864 1 0
-10.465227 38.558327 -0.46513113 25 3205724435168 1 0
-5.596279 14.743936 -2.45349 8 3205724435168 1 0
-4.577696 14.108246 -1.8879625 20 3205724437472 1 0
-8.447347 19.356695 0.122747615 28 3205724437472 1 0
-9.940656 30.651827 -0.18728311 59 3205724439776 1 0
-5.3545423 14.119434 -1.62659 27 3205724439776 1 0
-3.9796999 14.68825 -1.4205571 3 3205724442080 1 0
-10.629333 28.04087 0.6978012 27 3205724442080 1 0
-7.1737356 26.492039 0.31952444 22 3205724444384 1 0
-5.334345 14.0785265 -1.0527647 10 3205724444384 1 0
-4.473174 13.813485 -1.1853176 8 3205724446688 1 0
-8.922964 20.479042 0.65011525 10 3205724446688 1 0
0 0 0 24 3205724448992 1 0
-6.2324095 14.309649 -1.0002959 6 3205724448992 1 0
-3.9910505 14.764166 -0.8906898 13 3205724451296 1 0
-11.318688 29.91193 1.8625417 17 3205724451296 1 0
-9.511144 29.414885 1.2594832 15 3205724453600 1 0
-5.324895 14.0783 -0.701131 4 3205724453600 1 0
-4.465252 13.816442 -0.7609648 5 3205724455904 1 0
-7.849812 20.762964 2.725486 21 3205724455904 1 0
-8.427492 26.089424 2.238174 8 3205724458208 1 0
-3.9961462 14.817231 -0.5359167 4 3205724460512 1 0
-6.2237144 14.312424 -0.63584775 4 3205724458208 1 0
0 0 0 96 3205724460512 1 0
-6.504185 20.155384 3.8614528 25 3205724462816 1 0
-10.473965 27.740505 -0.68998474 44 3205724462816 1 0
-1.2640531 3.934705 -1.9271393 4 3205724483552 1 0
-4.456777 13.8798485 -0.42425635 8 3205724485856 1 0
0 0 0 14 3205724483552 1 0
-2.5901117 6.8902717 -2.0606341 6 3205724485856 1 0
-3.531078 11.0024185 -2.3110461 2 3205724488160 1 0
-8.407819 22.376545 0 7 3205724488160 1 0
-14.68246 54.853127 -0.6610738 16 3205724490464 1 0
-5.54339 14.759681 -2.4528751 7 3205724490464 1 0
-4.5175176 14.090133 -1.8834168 20 3205724492768 1 0
-9.4462385 21.853382 0.13837004 25 3205724492768 1 0
-9.829939 30.674911 -0.18721336 21 3205724495072 1 0
-5.288457 14.093357 -1.6214494 20 3205724495072 1 0
-3.956163 14.80594 -1.4305952 3 3205724497376 1 0
-10.720977 28.583271 0.71036327 28 3205724497376 1 0
-6.7478986 25.268745 0.30448416 23 3205724499680 1 0
-5.2711616 14.059698 -1.0499744 7 3205724499680 1 0
-8.63913 20.018147 0.63452274 27 3205724501984 1 0
-9.368528 29.293686 0.536836 21 3205724504288 1 0
-6.1650286 14.290999 -0.99748176 6 3205724504288 1 0
-3.9641757 14.870611 -0.89627117 8 3205724506592 1 0
-4.415209 13.798638 -1.182714 10 3205724501984 1 0
-11.085389 29.607204 1.8411465 45 3205724506592 1 0
-5.2603145 14.055637 -0.6990836 4 3205724508896 1 0
0 0 0 96 3205724508896 1 0
-4.4097056 13.809113 -0.75970876 5 3205724511200 1 0
-7.7605953 20.745617 2.7196362 21 3205724511200 1 0
-8.364253 26.206036 2.2456594 13 3205724513504 1 0
-6.1547446 14.290013 -0.6338938 4 3205724513504 1 0
-3.9649494 14.908356 -0.5387086 6 3205724515808 1 0
-7.271988 19.456717 5.5656447 6 3205724515808 1 0
-6.3273973 19.844292 3.7975976 28 3205724518112 1 0
-10.386865 27.803118 -0.6906361 24 3205724518112 1 0
-22.635366 52.78682 -1.002536 10 3205724538296 1 0
-4.3901644 13.838155 -0.42251092 9 3205724540600 1 0
-2.5660443 6.899271 -2.0606341 6 3205724540600 1 0
-1.2481172 3.9321828 -1.9237583 4 3205724538296 1 0
-3.4926507 11.014677 -2.3110461 2 3205724542904 1 0
-8.205606 22.072071 0 57 3205724542904 1 0
-14.663396 55.557617 -0.6689432 25 3205724545208 1 0
-5.2453976 14.115759 -2.3428063 3 3205724545208 1 0
-4.4395485 14.01503 -1.8712951 12 3205724547512 1 0
-8.403313 19.62847 0.124095984 13 3205724547512 1 0
-9.431831 29.790016 -0.18161067 8 3205724549816 1 0
-5.2253876 14.074449 -1.6171654 14 3205724549816 1 0
-3.9247499 14.896684 -1.4380306 3 3205724552120 1 0
-10.642007 28.676756 0.71175903 45 3205724552120 1 0
-6.6565976 25.280542 0.30434448 25 3205724554424 1 0
-5.208174 14.040601 -1.0471842 10 3205724554424 1 0
-4.3598056 13.791158 -1.1807612 5 3205724556728 1 0
-9.442935 22.092337 0.69922006 21 3205724556728 1 0
-9.442143 29.882988 0.54702824 23 3205724559032 1 0
-6.0931487 14.261042 -0.9939002 6 3205724559032 1 0
-3.9305153 14.953875 -0.90045714 6 3205724561336 1 0
-10.864066 29.32743 1.8213793 38 3205724561336 1 0
-9.544966 30.239021 1.2918862 16 3205724563640 1 0
-5.2001195 14.043938 -0.6975946 4 3205724563640 1 0
-4.355467 13.805374 -0.75866205 7 3205724565944 1 0
-7.6316323 20.619923 2.6996498 15 3205724565944 1 0
-8.311091 26.356743 2.2560742 21 3205724568248 1 0
-6.089144 14.274649 -0.6322655 4 3205724568248 1 0
-3.9402623 15.026509 -0.5424778 6 3205724570552 1 0
-7.1490855 19.333403 5.5231986 17 3205724570552 1 0
-6.221437 19.749905 3.7753558 26 3205724572856 1 0
0 0 0 1 3205724572856 1 0
-1.2354685 3.9399748 -1.9254488 4 3205724593592 1 0
0 0 0 43 3205724593592 1 0
-4.327685 13.807548 -0.42111456 8 3205724595896 1 0
-2.5393858 6.9009194 -2.0584774 6 3205724595896 1 0
-3.4193237 10.9144125 -2.287512 2 3205724598200 1 0
0 0 0 15 3205724598200 1 0
0 0 0 11 3205724600504 1 0
-5.1857977 14.104079 -2.337887 6 3205724600504 1 0
-4.313188 13.780255 -1.8379602 20 3205724602808 1 0
-8.339012 19.664564 0.124142475 20 3205724602808 1 0
-5.163537 14.054895 -1.6128815 18 3205724605112 1 0
0 0 0 100 3205724605112 1 0
-3.883042 14.944647 -1.4413766 5 3205724607416 1 0
-10.468528 28.50635 0.70664114 32 3205724607416 1 0
-6.547765 25.213915 0.3032735 31 3205724609720 1 0
-5.1468124 14.020711 -1.0443939 10 3205724609720 1 0
-4.306112 13.782959 -1.1788085 3 3205724612024 1 0
-9.129801 21.560757 0.6814167 12 3205724612024 1 0
-9.475211 30.342112 0.5548469 33 3205724614328 1 0
-6.0343084 14.2557 -0.99210936 7 3205724614328 1 0
-3.9065263 15.067441 -0.9065036 4 3205724616632 1 0
-10.737033 29.284878 1.8164955 16 3205724616632 1 0
-9.338256 29.931082 1.2773944 10 3205724618936 1 0
-5.1368155 14.01616 -0.69536114 4 3205724618936 1 0
-4.3072844 13.812115 -0.7582433 9 3205724621240 1 0
-7.641057 20.857607 2.7274358 15 3205724621240 1 0
0 0 0 17 3205724623544 1 0
-6.02331 14.250498 -0.63031155 4 3205724623544 1 0
-3.9078696 15.105172 -0.54485095 6 3205724625848 1 0
-7.078857 19.338655 5.518022 6 3205724625848 1 0
-6.1673026 19.803972 3.7818131 26 3205724628152 1 0
-18.700167 51.107517 -1.2663523 10 3205724628152 1 0
-1.2263061 3.954224 -1.9305202 3 3205724648888 1 0
-10.699361 25.415514 -0.48133737 28 3205724648888 1 0
-4.2971063 13.863148 -0.42239454 4 3205724651192 1 0
-2.517593 6.9088993 -2.0584774 6 3205724651192 1 0
-3.4195225 11.037599 -2.3110461 2 3205724653496 1 0
-11.128237 30.552456 0 63 3205724653496 1 0
0 0 0 28 3205724655800 1 0
-5.138142 14.113098 -2.3366573 12 3205724655800 1 0
-4.2913623 13.866008 -1.8475567 18 3205724658104 1 0
-8.276048 19.691145 0.124142475 7 3205724658104 1 0
-8.029558 25.958021 -0.15792131 30 3205724660408 1 0
-5.107458 14.041521 -1.6094544 16 3205724660408 1 0
-3.8505933 15.018834 -1.447325 3 3205724662712 1 0
-10.366866 28.513695 0.7059898 44 3205724662712 1 0
-5.440414 21.232597 0.25517255 4 3205724665016 1 0
-4.285891 13.876908 -1.1856431 12 3205724667320 1 0
-5.087682 13.999827 -1.0416037 10 3205724665016 1 0
-9.31013 22.18766 0.7002673 21 3205724667320 1 0
-9.530401 30.873568 0.56399196 48 3205724669624 1 0
-5.9690967 14.231197 -0.98903936 7 3205724669624 1 0
-6.570122 25.68818 -1.5441724 7 3205724671928 1 0
-10.667959 29.395084 1.8211467 11 3205724671928 1 0
-9.355982 30.339851 1.2935145 10 3205724674232 1 0
-5.0768867 13.9954815 -0.69349986 4 3205724674232 1 0
-4.27087 13.856861 -0.7599181 7 3205724676536 1 0
-7.502829 20.692478 2.7025745 23 3205724676536 1 0
-8.1372795 26.415094 2.2563996 35 3205724678840 1 0
-5.9634633 14.240989 -0.6290089 4 3205724678840 1 0
-6.5998383 25.867044 -0.93223536 14 3205724681144 1 0
-7.0943995 19.583822 5.581174 25 3205724681144 1 0
-6.1273518 19.911085 3.798315 23 3205724683448 1 0
0 0 0 29 3205724683448 1 0
-1.2093105 3.948082 -1.9254488 4 3205724704184 1 0
-10.6044235 25.437943 -0.48105812 31 3205724704184 1 0
-4.2720976 13.954526 -0.4247218 4 3205724706488 1 0
-2.4934611 6.9176455 -2.0584774 6 3205724706488 1 0
-3.3499868 10.9482 -2.2898655 2 3205724708792 1 0
-5.3835354 21.26772 -0.25540537 1 3205724711096 1 0
-11.006607 30.549719 0 22 3205724708792 1 0
-5.0848293 14.119791 -2.3348124 13 3205724711096 1 0
-4.2487345 13.899877 -1.850082 13 3205724713400 1 0
-9.081781 21.821157 0.1373704 35 3205724713400 1 0
-7.9494166 26.020319 -0.15813054 10 3205724715704 1 0
-5.042256 14.014358 -1.6043137 20 3205724715704 1 0
-4.0859566 16.171278 -1.5569991 16 3205724718008 1 0
-11.02375 30.653212 0.75800616 13 3205724718008 1 0
-6.3807635 25.26907 0.30341318 25 3205724720312 1 0
-5.027984 13.987462 -1.0393715 10 3205724720312 1 0
-4.252547 13.941357 -1.189874 11 3205724722616 1 0
-9.185065 22.105564 0.6966601 42 3205724722616 1 0
-7.933203 26.021416 0.47484508 14 3205724724920 1 0
-5.905604 14.218768 -0.9867369 6 3205724724920 1 0
-7.119671 28.247206 -1.6964966 4 3205724727224 1 0
-9.910943 27.609314 1.708357 9 3205724727224 1 0
-9.172004 30.116163 1.282605 15 3205724729528 1 0
-5.021255 13.994313 -0.69256926 4 3205724729528 1 0
-4.249229 13.959577 -0.764733 5 3205724731832 1 0
-7.5015883 20.916609 2.728411 23 3205724731832 1 0
-8.071713 26.531061 2.263885 13 3205724734136 1 0
-5.8938155 14.213724 -0.62689215 4 3205724734136 1 0
-8.274811 32.910988 -1.1850473 5 3205724736440 1 0
-7.0181766 19.586643 5.574962 12 3205724736440 1 0
-6.0189066 19.80434 3.7739208 14 3205724738744 1 0
-11.912625 33.261524 -0.82211936 71 3205724738744 1 0
-10.533875 25.519165 -0.48189583 31 3205724759480 1 0
-1.1965715 3.955749 -1.9271393 3 3205724759480 1 0
-4.2534456 14.068861 -0.42774722 17 3205724761784 1 0
-2.4692988 6.926307 -2.0584774 6 3205724761784 1 0
-3.3106153 10.956072 -2.289081 2 3205724764088 1 0
-10.817998 30.35811 0 13 3205724764088 1 0
0 0 0 14 3205724766392 1 0
-5.0222497 14.100222 -2.3286633 12 3205724766392 1 0
-4.223122 13.990596 -1.8601835 15 3205724768696 1 0
-9.045181 21.94888 0.13797483 32 3205724768696 1 0
-4.9274735 16.332598 -0.099151246 21 3205724771000 1 0
0 0 0 91 3205724773304 1 0
-4.981306 13.998152 -1.6004583 21 3205724771000 1 0
-10.784011 30.318506 0.74879396 39 3205724773304 1 0
-6.832347 27.46089 0.32944265 6 3205724775608 1 0
-4.9644246 13.963571 -1.0363022 9 3205724775608 1 0
-4.2245536 14.024828 -1.1957324 12 3205724777912 1 0
-9.1108885 22.144886 0.69689286 29 3205724777912 1 0
-4.914999 16.32559 0.29759842 28 3205724780216 1 0
-5.836198 14.191302 -0.98341113 5 3205724780216 1 0
0 0 0 10 3205724782520 1 0
-10.406371 29.310795 1.8113793 16 3205724782520 1 0
-9.036896 30.048487 1.2783715 10 3205724784824 1 0
-4.9590125 13.974099 -0.690708 4 3205724784824 1 0
-4.221173 14.043182 -0.76850116 6 3205724787128 1 0
-7.401985 20.86783 2.7186613 15 3205724787128 1 0
-5.8274665 14.193542 -0.625101 4 3205724789432 1 0
-7.6254363 30.782238 -1.1074308 4 3205724791736 1 0
-7.914817 26.345259 2.2456594 8 3205724789432 1 0
-6.9368577 19.574604 5.5646095 14 3205724791736 1 0
-6.1047044 20.341589 3.872215 22 3205724794040 1 0
0 0 0 3 3205724794040 1 0
-1.1817185 3.9564283 -1.9254488 4 3205724814776 1 0
-10.453812 25.577991 -0.4823147 28 3205724814776 1 0
-4.2180347 14.129598 -0.42914355 15 3205724817080 1 0
-2.447668 6.9421496 -2.0606341 5 3205724817080 1 0
-3.2689872 10.956285 -2.2867277 2 3205724819384 1 0
-10.680054 30.305145 0 49 3205724819384 1 0
0 0 0 56 3205724821688 1 0
-4.9493628 14.050564 -2.317595 5 3205724821688 1 0
-4.195794 14.077503 -1.8697798 28 3205724823992 1 0
-6.954184 17.043543 0.10698571 8 3205724823992 1 0
-4.875 16.365032 -0.09924424 15 3205724826296 1 0
-4.920531 13.981691 -1.5966028 22 3205724826296 1 0
-5.4035306 22.032433 -2.1176376 5 3205724828600 1 0
-10.123441 28.779129 0.709898 68 3205724828600 1 0
0 0 0 93 3205724830904 1 0
-4.9037404 13.946936 -1.033791 9 3205724830904 1 0
-4.1983023 14.115914 -1.2022414 12 3205724833208 1 0
-6.9399376 17.036955 0.5353822 18 3205724833208 1 0
-7.7490683 26.068499 0.47470546 17 3205724835512 1 0
-5.7700663 14.17092 -0.980597 6 3205724835512 1 0
-6.31025 25.794361 -1.546498 10 3205724837816 1 0
-10.253724 29.203766 1.8025422 16 3205724837816 1 0
-7.953544 26.784895 1.1383384 34 3205724840120 1 0
-4.899618 13.961163 -0.689219 4 3205724840120 1 0
-4.192584 14.1267605 -0.77226937 6 3205724842424 1 0
-7.3514385 20.95723 2.7269485 15 3205724842424 1 0
-7.7808585 26.231308 2.2336175 8 3205724844728 1 0
-5.7658463 14.184176 -0.6237984 4 3205724844728 1 0
-7.5899634 31.103823 -1.1180403 4 3205724847032 1 0
-6.8608203 19.576822 5.558398 14 3205724847032 1 0
-6.052667 20.426916 3.884412 20 3205724849336 1 0
-5.399167 15.413289 -0.38002667 4 3205724849336 1 0
-1.1679008 3.960529 -1.9254488 4 3205724870072 1 0
-6.9081426 17.07251 -0.32147333 22 3205724870072 1 0
-4.200337 14.251621 -0.4324017 10 3205724872376 1 0
-2.419616 6.93974 -2.0573993 6 3205724872376 1 0
-10.559725 30.300692 0 58 3205724874680 1 0
-3.2340477 10.978917 -2.289081 2 3205724874680 1 0
-5.071149 20.953617 -0.25098175 14 3205724876984 1 0
-4.883385 14.019232 -2.3096013 2 3205724876984 1 0
-4.169031 14.168196 -1.8798813 24 3205724879288 1 0
-6.896147 17.071423 0.10700896 4 3205724879288 1 0
-9.881719 33.600456 -0.20355646 14 3205724881592 1 0
-4.8599315 13.964978 -1.5927473 32 3205724881592 1 0
-10.037373 28.855837 0.7109216 32 3205724883896 1 0
0 0 0 20 3205724883896 1 0
-4.962284 20.556095 0.24618563 20 3205724886200 1 0
-4.845854 13.937585 -1.0318377 9 3205724886200 1 0
0 0 0 10 3205724888504 1 0
-4.171467 14.206988 -1.2087506 11 3205724888504 1 0
-9.030839 30.77337 0.55980337 42 3205724890808 1 0
-5.7041483 14.15025 -0.97778285 6 3205724890808 1 0
-3.808803 15.808074 -0.9469684 7 3205724893112 1 0
0 0 0 51 3205724893112 1 0
-7.652003 26.102966 1.108215 12 3205724895416 1 0
-4.836445 13.936657 -0.68717164 4 3205724895416 1 0
-4.167956 14.225644 -0.77687496 6 3205724897720 1 0
-9.104956 26.249084 3.4113667 16 3205724897720 1 0
-8.941844 30.535852 2.5974793 17 3205724900024 1 0
-5.6983933 14.159724 -0.6218444 4 3205724900024 1 0
0 0 0 100 3205724902328 1 0
-6.796238 19.611603 5.5615034 19 3205724902328 1 0
-5.960336 20.37616 3.87078 20 3205724904632 1 0
-5.3204637 15.360247 -0.37825865 4 3205724904632 1 0
0 0 0 7 3205724925368 1 0
-1.1550821 3.9680624 -1.9271393 3 3205724925368 1 0
-4.166201 14.319943 -0.43403077 10 3205724927672 1 0
-2.397888 6.9554267 -2.0595558 6 3205724927672 1 0
-3.1946092 10.986373 -2.2882965 2 3205724929976 1 0
-10.464316 30.367622 0 49 3205724929976 1 0
-4.9896307 20.936174 -0.25056267 19 3205724932280 1 0
-4.825409 14.010034 -2.305297 2 3205724932280 1 0
-4.164929 14.338892 -1.9005893 16 3205724934584 1 0
-8.798504 22.001541 0.13771911 37 3205724934584 1 0
-9.775522 33.67316 -0.20378894 9 3205724936888 1 0
-4.798215 13.944251 -1.5884634 39 3205724936888 1 0
-3.9030883 16.408855 -1.5744725 10 3205724939192 1 0
-9.841642 28.614649 0.70412874 12 3205724939192 1 0
-4.8978996 20.604422 0.24655814 22 3205724941496 1 0
-4.7842007 13.91668 -1.0290475 9 3205724941496 1 0
-4.1451554 14.301875 -1.2155852 11 3205724943800 1 0
-11.127395 27.872187 0.8734142 10 3205724943800 1 0
-8.734192 30.151657 0.5479357 64 3205724946104 1 0
-5.642884 14.140415 -0.9757362 6 3205724946104 1 0
-6.7190537 28.320545 -1.6951013 16 3205724948408 1 0
-10.035334 29.233093 1.7999841 16 3205724948408 1 0
-7.557507 26.118 1.1077266 32 3205724950712 1 0
-4.1460176 14.336038 -0.78210855 14 3205724953016 1 0
-4.7760963 13.91944 -0.6854965 4 3205724950712 1 0
-8.814924 25.702366 3.3362951 16 3205724953016 1 0
-10.102748 34.95218 2.9701288 15 3205724955320 1 0
-5.6341405 14.142401 -0.62021613 4 3205724955320 1 0
-6.139106 25.943277 -0.93097895 14 3205724957624 1 0
-6.7289915 19.638863 5.562539 10 3205724957624 1 0
-5.8728 20.34013 3.860018 25 3205724959928 1 0
-5.2447877 15.314411 -0.37667677 5 3205724959928 1 0
-1.1382207 3.9616175 -1.9220679 3 3205724980664 1 0
-10.963779 27.649042 -0.51917416 12 3205724980664 1 0
-4.1425695 14.4266615 -0.43682346 5 3205724982968 1 0
-2.3710585 6.95648 -2.0573993 6 3205724982968 1 0
-3.1485064 10.971112 -2.2828052 2 3205724985272 1 0
-10.470028 30.733524 0 67 3205724985272 1 0
-4.9224577 20.98083 -0.25088862 45 3205724987576 1 0
-4.7838135 14.049346 -2.3089862 1 3205724987576 1 0
-8.607654 21.745996 0.13592903 32 3205724989880 1 0
-4.1363015 14.42975 -1.9106908 19 3205724989880 1 0
-7.1813827 25.067162 -0.15155146 21 3205724992184 1 0
-4.7387576 13.930966 -1.5850363 42 3205724992184 1 0
-3.7025259 15.81373 -1.5161036 33 3205724994488 1 0
-9.755896 28.694685 0.7052454 16 3205724994488 1 0
-4.836743 20.672268 0.24716347 26 3205724996792 1 0
-4.723329 13.899534 -1.0265362 9 3205724996792 1 0
-4.116299 14.393157 -1.2220944 10 3205724999096 1 0
-10.985802 27.803663 0.8700397 35 3205724999096 1 0
-5.576434 14.119552 -0.9729221 6 3205725001400 1 0
-3.6808553 15.764553 -0.94278234 17 3205725003704 1 0
-8.63241 30.201754 0.5482848 23 3205725001400 1 0
-9.95933 29.35186 1.8051003 10 3205725003704 1 0
0 0 0 29 3205725006008 1 0
-4.714815 13.902349 -0.6838214 4 3205725006008 1 0
-8.75477 25.827742 3.3484821 24 3205725008312 1 0
-4.112234 14.41224 -0.785458 16 3205725008312 1 0
-5.5687428 14.125327 -0.61858785 4 3205725010616 1 0
-10.396104 36.45656 3.094779 17 3205725010616 1 0
-4.9063168 21.071146 -0.7555043 5 3205725012920 1 0
-7.10452 20.980356 5.9352384 10 3205725012920 1 0
-5.821102 20.43683 3.8743675 15 3205725015224 1 0
-5.1473193 15.208193 -0.37360603 8 3205725015224 1 0
-1.1246814 3.9692504 -1.9237583 3 3205725035960 1 0
-10.837538 27.625746 -0.51798743 48 3205725035960 1 0
-4.113844 14.526322 -0.43938342 17 3205725038264 1 0
-2.3444176 6.961439 -2.056321 5 3205725038264 1 0
-3.1117983 10.993811 -2.2851586 2 3205725040568 1 0
-9.891151 29.383892 0 30 3205725040568 1 0
-4.787076 20.741299 -0.24781539 24 3205725042872 1 0
-5.0127163 14.898211 -2.4454963 10 3205725042872 1 0
-4.2278166 14.952408 -1.9778655 12 3205725045176 1 0
-10.845614 27.691341 0.17284632 12 3205725045176 1 0
-7.0978103 25.115892 -0.15169095 15 3205725047480 1 0
-4.678543 13.917743 -1.5816092 38 3205725047480 1 0
-3.912348 16.983427 -1.6268929 10 3205725049784 1 0
0 0 0 101 3205725049784 1 0
-4.7531786 20.646496 0.24665128 26 3205725052088 1 0
-4.663607 13.886016 -1.024304 7 3205725052088 1 0
-4.085764 14.4805765 -1.228278 11 3205725054392 1 0
-10.88415 27.835028 0.86980695 35 3205725054392 1 0
-8.57772 30.41684 0.5516357 9 3205725056696 1 0
-5.511965 14.101994 -0.9703638 6 3205725056696 1 0
-6.5987725 28.71769 -1.7160313 4 3205725059000 1 0
-10.354977 30.87462 1.8964949 18 3205725059000 1 0
-7.5394044 26.763254 1.1328022 12 3205725061304 1 0
-4.655895 13.888483 -0.6823324 4 3205725061304 1 0
-4.0846353 14.507252 -0.7898542 16 3205725063608 1 0
-8.597708 25.658627 3.3226457 36 3205725063608 1 0
-9.951806 35.3642 2.9990945 16 3205725065912 1 0
-5.502173 14.09992 -0.6166339 4 3205725065912 1 0
-4.8119144 20.994486 -0.75215393 37 3205725068216 1 0
-6.542456 19.54295 5.522163 21 3205725068216 1 0
-5.7878942 20.589365 3.8994792 12 3205725070520 1 0
-5.0428386 15.070363 -0.36979088 8 3205725070520 1 0
-1.1124893 3.9764495 -1.9254488 3 3205725091256 1 0
-10.728489 27.616798 -0.5171497 40 3205725091256 1 0
-4.0773883 14.582271 -0.4406634 5 3205725093560 1 0
-2.321269 6.969192 -2.056321 6 3205725093560 1 0
-3.0783312 11.015447 -2.287512 2 3205725095864 1 0
-9.783121 29.386312 0 56 3205725095864 1 0
-4.7293406 20.807865 -0.24842072 24 3205725098168 1 0
-4.9529757 14.884858 -2.440577 7 3205725098168 1 0
-4.42955 15.86843 -2.0970626 78 3205725100472 1 0
-8.424446 21.723269 0.1354176 23 3205725100472 1 0
-6.984548 25.03552 -0.15106326 40 3205725102776 1 0
-4.6180573 13.891836 -1.5768969 46 3205725102776 1 0
-3.55132 15.656487 -1.4986302 11 3205725105080 1 0
0 0 0 63 3205725105080 1 0
-4.6809816 20.65068 0.24651158 31 3205725107384 1 0
-4.608022 13.875132 -1.0223509 9 3205725107384 1 0
-4.061481 14.582613 -1.2357637 10 3205725109688 1 0
-10.816147 27.938711 0.8719015 35 3205725109688 1 0
-7.772333 27.922018 0.50591034 11 3205725111992 1 0
-5.446959 14.075878 -0.9672938 6 3205725111992 1 0
0 0 0 98 3205725114296 1 0
-10.315648 31.106628 1.9085878 24 3205725114296 1 0
-9.39383 33.785263 1.4286627 13 3205725116600 1 0
-4.5986443 13.873873 -0.6808434 4 3205725116600 1 0
-4.057698 14.6018915 -0.7942505 14 3205725118904 1 0
-8.51158 25.69151 3.3231332 12 3205725118904 1 0
-8.13589 29.294048 2.481942 5 3205725121208 1 0
-5.4439697 14.092507 -0.6154941 4 3205725121208 1 0
-4.703179 20.847029 -0.74629086 28 3205725123512 1 0
-6.4246325 19.41114 5.4786816 12 3205725123512 1 0
-5.6352854 20.3133 3.8435159 16 3205725125816 1 0
-4.958535 14.988837 -0.3673715 8 3205725125816 1 0
-1.0976377 3.976814 -1.9237583 4 3205725146552 1 0
-4.0572953 14.708191 -0.4440379 12 3205725148856 1 0
-2.294519 6.969935 -2.0541642 6 3205725148856 1 0
-10.649245 27.698875 -0.51798743 36 3205725146552 1 0
-9.762999 29.671057 0 39 3205725151160 1 0
-3.036734 11.014781 -2.2851586 2 3205725151160 1 0
-4.7169056 21.093576 -0.25163364 24 3205725153464 1 0
-4.8972836 14.890792 -2.4387324 6 3205725153464 1 0
-4.3625436 15.841714 -2.091507 79 3205725155768 1 0
-8.367199 21.801088 0.1357198 28 3205725155768 1 0
-6.8896856 25.032753 -0.15090053 34 3205725158072 1 0
-4.5596066 13.8776455 -1.5734699 46 3205725158072 1 0
0 0 0 102 3205725160376 1 0
-9.914029 30.189203 0.7393956 21 3205725160376 1 0
-4.6184454 20.709837 0.24702379 22 3205725162680 1 0
-4.549606 13.860802 -1.0201187 9 3205725162680 1 0
-4.031678 14.673587 -1.2422727 10 3205725164984 1 0
-10.725709 27.994965 0.8724833 14 3205725164984 1 0
-7.5540895 27.509321 0.49795207 34 3205725167288 1 0
-5.3849435 14.061256 -0.96499133 7 3205725167288 1 0
-3.4924304 15.692838 -0.9362708 3 3205725169592 1 0
-8.203411 25.029314 1.53394 4 3205725169592 1 0
-9.264211 33.77545 1.4268715 13 3205725171896 1 0
-4.5365047 13.848072 -0.67879605 4 3205725171896 1 0
-4.0299363 14.700719 -0.798856 12 3205725174200 1 0
-8.560215 26.143648 3.3777306 8 3205725174200 1 0
-7.2055755 26.300068 2.226132 8 3205725176504 1 0
-5.3776183 14.066627 -0.6135401 4 3205725176504 1 0
0 0 0 10 3205725178808 1 0
-6.358037 19.43712 5.479717 4 3205725178808 1 0
-5.509293 20.131681 3.8054898 30 3205725181112 1 0
-1.085397 3.9839299 -1.9254488 3 3205725202296 1 0
-4.88133 14.930036 -0.36551046 10 3205725181112 1 0
-10.563025 27.748987 -0.5182667 32 3205725202296 1 0
-4.0263567 14.787148 -0.44601607 11 3205725204600 1 0
-2.999161 11.021006 -2.2843742 2 3205725206904 1 0
-2.2725856 6.9811683 -2.0552425 6 3205725204600 1 0
-9.652176 29.665232 0 43 3205725206904 1 0
-4.6228533 20.999727 -0.25032985 16 3205725209208 1 0
-4.850322 14.914468 -2.4399621 7 3205725209208 1 0
-4.2985377 15.813974 -2.085951 61 3205725211512 1 0
-8.292016 21.821238 0.13567331 33 3205725211512 1 0
-6.816074 25.090204 -0.15110976 9 3205725213816 1 0
-4.503731 13.862431 -1.5700427 43 3205725213816 1 0
-3.6540315 16.63333 -1.5897154 10 3205725216120 1 0
-9.598962 29.56012 0.7232045 12 3205725216120 1 0
-4.55832 20.764105 0.24748942 28 3205725218424 1 0
-4.491298 13.837859 -1.0173284 10 3205725218424 1 0
-10.852619 28.609827 0.89051944 47 3205725220728 1 0
-4.0059533 14.771526 -1.2494328 10 3205725220728 1 0
-7.1552296 26.399345 0.47742802 31 3205725223032 1 0
-5.326963 14.049176 -0.9629447 6 3205725223032 1 0
-6.5184197 29.754755 -1.7739378 4 3205725225336 1 0
0 0 0 12 3205725225336 1 0
-9.139624 33.759693 1.4249177 13 3205725227640 1 0
-4.4807076 13.83263 -0.677307 6 3205725227640 1 0
-4.0020304 14.79112 -0.8030429 8 3205725229944 1 0
-8.490593 26.224771 3.3845553 8 3205725229944 1 0
-7.124566 26.34691 2.2280848 12 3205725232248 1 0
-5.3196235 14.054479 -0.6122375 4 3205725232248 1 0
-4.6021233 21.066021 -0.75299156 2 3205725234552 1 0
-5.4147987 20.047268 3.786118 23 3205725236856 1 0
-4.824413 14.92331 -0.36495215 11 3205725236856 1 0
-6.8928185 21.3109 6.001496 42 3205725234552 1 0
-1.0696024 3.9806921 -1.9220679 3 3205725257592 1 0
0 0 0 14 3205725257592 1 0
-3.997312 14.886124 -0.44857603 5 3205725259896 1 0
-2.2481012 6.989091 -2.0552425 6 3205725259896 1 0
-2.9623847 11.03907 -2.285943 2 3205725262200 1 0
-9.600344 29.862766 0 35 3205725262200 1 0
-4.44369 20.531193 -0.24455588 26 3205725264504 1 0
-4.7951612 14.923991 -2.4387324 6 3205725264504 1 0
-4.2331448 15.794635 -2.0814054 81 3205725266808 1 0
-8.179335 21.756924 0.13509212 42 3205725266808 1 0
-11.418704 42.632545 -0.2565146 7 3205725269112 1 0
-4.443367 13.84431 -1.5661873 39 3205725269112 1 0
-3.3717308 15.614663 -1.4911946 8 3205725271416 1 0
-9.406413 29.32392 0.7165978 28 3205725271416 1 0
-4.498881 20.850723 0.24832758 26 3205725273720 1 0
-4.429375 13.815907 -1.0145382 9 3205725273720 1 0
-3.9752977 14.870612 -1.2565929 10 3205725276024 1 0
-7.021383 26.282124 0.47484508 35 3205725278328 1 0
-10.763399 28.68622 0.89168304 32 3205725276024 1 0
-5.260629 14.027262 -0.9601306 7 3205725278328 1 0
0 0 0 10 3205725280632 1 0
-8.132673 25.40901 1.5537072 12 3205725280632 1 0
-7.7407837 29.012177 1.2233351 42 3205725282936 1 0
-3.967345 14.879022 -0.8070204 6 3205725285240 1 0
-4.4216576 13.822255 -0.6760042 4 3205725282936 1 0
-6.453896 20.186232 2.6021543 4 3205725285240 1 0
-7.0203824 26.345982 2.2258065 4 3205725287544 1 0
-5.2524595 14.032784 -0.6104464 4 3205725287544 1 0
-6.788183 21.255245 5.9787197 17 3205725289848 1 0
0 0 0 100 3205725289848 1 0
-5.266533 19.78961 3.7337422 27 3205725292152 1 0
-4.7507925 14.883957 -0.36355636 5 3205725292152 1 0
-1.055237 3.9882743 -1.9237583 3 3205725312888 1 0
-3.96385 14.990211 -0.45125237 5 3205725315192 1 0
-2.2213504 6.997639 -2.0552425 6 3205725315192 1 0
-18.97583 50.970005 -0.9493411 9 3205725312888 1 0
-2.9162889 11.03511 -2.2828052 2 3205725317496 1 0
-9.352201 29.475924 0 30 3205725317496 1 0
-4.3515882 20.481403 -0.24376428 19 3205725319800 1 0
-4.7348895 14.930784 -2.4368875 7 3205725319800 1 0
-4.164272 15.776001 -2.0768597 79 3205725322104 1 0
-8.246095 22.188885 0.13757962 7 3205725322104 1 0
-11.265168 42.70233 -0.25667736 7 3205725324408 1 0
-4.381575 13.83062 -1.5627601 47 3205725324408 1 0
-3.6228666 17.088238 -1.6306107 12 3205725326712 1 0
-9.793659 30.929705 0.75493544 100 3205725326712 1 0
-4.440807 20.961302 0.24944513 24 3205725329016 1 0
-4.3716817 13.813346 -1.0131431 10 3205725329016 1 0
-3.9412217 14.966272 -1.2634275 3 3205725331320 1 0
