# .PCD v.7 - Point Cloud Data file format
VERSION .7
FIELDS x y z rgb timestamp_ns device_id active
SIZE 4 4 4 4 8 1 1
TYPE F F F F F U U
COUNT 1 1 1 1 1 1 1
WIDTH 976
HEIGHT 1
VIEWPOINT 0 0 0 1 0 0 0
POINTS 976               
DATA ascii
-31.233263 29.63667 1.001897 33 3207717199120 1 0
-27.015064 31.193 0.48040423 17 3207717201424 1 0
-18.838152 17.880123 -1.8161795 3 3207717201424 1 0
-17.172049 17.977898 -2.0295553 3 3207717203728 1 0
-28.15471 24.228273 1.0810043 13 3207717203728 1 0
-26.962997 28.236124 0.68148154 34 3207717206032 1 0
-16.312937 18.851553 -1.4518477 3 3207717208336 1 0
-21.595041 18.588604 -1.8261156 13 3207717206032 1 0
-31.16672 29.606281 2.5034661 23 3207717208336 1 0
-28.062775 29.404095 1.6559721 26 3207717210640 1 0
-21.257956 20.199213 -1.3659676 4 3207717210640 1 0
-18.331682 19.213198 -1.3917178 4 3207717212944 1 0
-31.159983 29.616266 5.278405 27 3207717212944 1 0
-24.454391 25.637423 2.8923442 7 3207717215248 1 0
-25.104986 21.634068 -1.3501791 5 3207717215248 1 0
-17.316185 20.03329 -0.92469704 7 3207717217552 1 0
0 0 0 9 3207717217552 1 0
0 0 0 29 3207717219856 1 0
-27.458729 26.12005 -0.8818591 11 3207717219856 1 0
-2.842948 2.9895658 -1.9237583 4 3207717240592 1 0
-28.072388 24.265656 -0.6476937 58 3207717240592 1 0
-27.835178 29.279234 -1.1757231 17 3207717242896 1 0
-5.312419 5.0675006 -2.0552425 4 3207717242896 1 0
-7.8523 8.262074 -2.2796674 14 3207717245200 1 0
-27.72701 26.456415 0 10 3207717245200 1 0
-27.076853 31.440876 -0.4830584 50 3207717247504 1 0
0 0 0 8 3207717247504 1 0
-14.833202 15.616371 -2.7415357 19 3207717249808 1 0
-27.974354 24.209364 0.21501756 22 3207717249808 1 0
-27.804659 29.281227 -0.23468508 11 3207717252112 1 0
-17.82041 17.018648 -2.6542933 7 3207717252112 1 0
-16.183233 18.808104 -2.3161662 6 3207717254416 1 0
-31.009176 29.62266 0.99789566 40 3207717254416 1 0
-27.066381 31.465721 0.48319808 17 3207717256720 1 0
-18.751879 17.91864 -1.8136684 3 3207717256720 1 0
-17.007019 17.925835 -2.017188 3 3207717259024 1 0
-28.072798 24.323137 1.0810043 27 3207717259024 1 0
-27.778353 29.287628 0.70458853 58 3207717261328 1 0
-21.492844 18.627537 -1.8227899 19 3207717261328 1 0
-16.327042 18.99758 -1.4588243 3 3207717263632 1 0
-27.803282 29.330994 1.6465281 17 3207717265936 1 0
-30.927689 29.579248 2.4923036 34 3207717263632 1 0
-21.189234 20.27129 -1.3659676 4 3207717265936 1 0
-18.359606 19.374058 -1.3988354 4 3207717268240 1 0
-30.92993 29.598621 5.2564683 27 3207717268240 1 0
-23.662153 24.976871 2.8087015 7 3207717270544 1 0
-23.959415 20.789701 -1.2923747 4 3207717270544 1 0
-17.146063 19.974062 -0.91925275 3 3207717272848 1 0
0 0 0 9 3207717272848 1 0
0 0 0 29 3207717275152 1 0
-27.481731 26.321825 -0.88548815 5 3207717275152 1 0
-2.8324952 2.9994714 -1.9237583 4 3207717295888 1 0
-28.09611 24.458033 -0.65020686 54 3207717295888 1 0
-5.2974753 5.0886817 -2.056321 4 3207717298192 1 0
-27.64223 29.280275 -1.1718831 17 3207717298192 1 0
-7.8126435 8.278024 -2.2765296 51 3207717300496 1 0
-26.901953 31.459206 -0.48189428 13 3207717302800 1 0
-27.735441 26.65004 0 16 3207717300496 1 0
-11.464014 11.018587 -2.473782 4 3207717302800 1 0
-27.965061 24.372568 0.21559875 16 3207717305104 1 0
-27.70228 29.378105 -0.23468508 17 3207717307408 1 0
-17.71503 17.03664 -2.647439 7 3207717307408 1 0
-16.21579 18.979544 -2.3302937 6 3207717309712 1 0
-14.72687 15.61321 -2.7319393 21 3207717305104 1 0
-30.79031 29.619827 0.9941736 40 3207717309712 1 0
-27.055094 31.67558 0.48496753 41 3207717312016 1 0
-17.045494 18.092457 -2.0292299 3 3207717314320 1 0
-28.057014 24.481443 1.0836806 13 3207717314320 1 0
-18.660463 17.95632 -1.810878 3 3207717312016 1 0
-27.558039 29.259224 0.7015867 14 3207717316624 1 0
-21.421675 18.697197 -1.8222783 55 3207717316624 1 0
-16.268404 19.063568 -1.459522 3 3207717318928 1 0
-30.700573 29.567911 2.4823036 34 3207717318928 1 0
-26.961092 28.642115 1.6025642 24 3207717321232 1 0
-21.13561 20.361763 -1.3670844 4 3207717321232 1 0
-18.291866 19.438026 -1.3988354 4 3207717323536 1 0
-30.709211 29.593456 5.236482 27 3207717323536 1 0
-23.787899 25.285807 2.8340874 7 3207717325840 1 0
-24.593943 21.491224 -1.3306396 5 3207717325840 1 0
-17.037338 19.988155 -0.9171588 3 3207717328144 1 0
0 0 0 9 3207717328144 1 0
0 0 0 29 3207717330448 1 0
-27.401196 26.4287 -0.8858604 11 3207717330448 1 0
-2.822008 3.0093405 -1.9237583 3 3207717351184 1 0
-27.98049 24.529593 -0.6495088 60 3207717351184 1 0
-27.589075 29.429092 -1.1739776 8 3207717353488 1 0
-5.282449 5.1098204 -2.0573993 4 3207717353488 1 0
-7.791747 8.31383 -2.278883 58 3207717355792 1 0
-27.498516 26.607618 0 16 3207717355792 1 0
-26.98096 31.775488 -0.48529348 18 3207717358096 1 0
-14.661429 15.652937 -2.729919 25 3207717360400 1 0
-27.813679 24.411987 0.2150873 16 3207717360400 1 0
-11.442522 11.075029 -2.4774716 3 3207717358096 1 0
-27.558552 29.43083 -0.23433636 11 3207717362704 1 0
-17.618315 17.062407 -2.64187 7 3207717362704 1 0
0 0 0 16 3207717365008 1 0
-30.554607 29.599134 0.98989314 33 3207717365008 1 0
-27.032322 31.873539 0.48655072 29 3207717367312 1 0
-18.600536 18.024124 -1.8111571 3 3207717367312 1 0
-16.938656 18.105265 -2.0240226 3 3207717369616 1 0
-28.097534 24.690079 1.0885677 13 3207717369616 1 0
-27.381977 29.276377 0.6997019 65 3207717371920 1 0
-21.37427 18.78767 -1.8238132 55 3207717371920 1 0
-16.1682 19.080635 -1.4564987 3 3207717374224 1 0
-30.491114 29.572033 2.473699 33 3207717374224 1 0
-27.406792 29.32 1.63513 69 3207717376528 1 0
-21.081614 20.45211 -1.3682011 4 3207717376528 1 0
-18.234812 19.513433 -1.3996729 4 3207717378832 1 0
-30.471813 29.57052 5.2135706 26 3207717378832 1 0
-23.69949 25.368689 2.8340874 7 3207717381136 1 0
-24.143732 21.246899 -1.3102859 4 3207717381136 1 0
-16.869324 19.931553 -0.911854 3 3207717383440 1 0
0 0 0 9 3207717383440 1 0
-27.373384 29.318434 7.313227 8 3207717385744 1 0
-27.328856 26.543688 -0.88651174 5 3207717385744 1 0
-2.8090155 3.0165198 -1.9220679 4 3207717406480 1 0
-27.864714 24.600645 -0.6488107 41 3207717406480 1 0
-27.371758 29.402304 -1.1690904 8 3207717408784 1 0
-5.267339 5.130916 -2.0584774 4 3207717408784 1 0
-7.765351 8.343849 -2.2796674 53 3207717411088 1 0
-20.286236 19.766577 0 26 3207717411088 1 0
-26.96785 31.985676 -0.48706293 42 3207717413392 1 0
-11.415115 11.125938 -2.479931 4 3207717413392 1 0
-14.6202135 15.718547 -2.7324443 27 3207717415696 1 0
-28.060963 24.802969 0.21766779 16 3207717415696 1 0
-27.357595 29.421394 -0.23349944 16 3207717418000 1 0
-17.524483 17.090483 -2.6367292 7 3207717418000 1 0
0 0 0 56 3207717420304 1 0
-20.263521 19.767439 0.65871906 7 3207717420304 1 0
-18.531796 18.083368 -1.8105991 3 3207717422608 1 0
-27.013647 32.077843 0.48822704 29 3207717422608 1 0
-16.81023 18.094183 -2.0162117 3 3207717424912 1 0
-27.31772 29.412806 0.70067924 21 3207717427216 1 0
-27.88542 24.67672 1.0836806 32 3207717424912 1 0
-21.335459 18.885979 -1.8261156 52 3207717427216 1 0
-16.150345 19.195011 -1.4609174 3 3207717429520 1 0
-20.25466 19.781803 1.6488227 13 3207717429520 1 0
-27.304277 29.41549 1.63513 17 3207717431824 1 0
0 0 0 12 3207717431824 1 0
-18.33233 19.755577 -1.4124428 4 3207717434128 1 0
-30.24631 29.55739 5.192609 26 3207717434128 1 0
-23.62706 25.468798 2.83604 7 3207717436432 1 0
0 0 0 64 3207717438736 1 0
-23.898926 21.17995 -1.3010046 4 3207717436432 1 0
0 0 0 9 3207717438736 1 0
-27.166534 29.301264 7.285246 8 3207717441040 1 0
0 0 0 19 3207717441040 1 0
-2.7984688 3.0263066 -1.9220679 5 3207717461776 1 0
-27.814539 24.729649 -0.64964837 24 3207717461776 1 0
-27.24203 29.468113 -1.1679268 25 3207717464080 1 0
-5.243935 5.1438384 -2.056321 4 3207717464080 1 0
-7.7309756 8.36503 -2.2780983 27 3207717466384 1 0
-20.197416 19.817366 0 3 3207717466384 1 0
-27.026194 32.28144 -0.49013618 9 3207717468688 1 0
-14.576485 15.78072 -2.7344646 40 3207717470992 1 0
-11.387735 11.176543 -2.4823909 3 3207717468688 1 0
-27.133688 29.38348 -0.2324533 22 3207717473296 1 0
-27.954023 24.88134 0.21750505 16 3207717470992 1 0
-17.436966 17.123049 -2.6324453 7 3207717473296 1 0
-17.17201 20.52839 -2.4983366 7 3207717475600 1 0
-30.08321 29.54979 0.98123926 19 3207717475600 1 0
-27.008348 32.29637 0.49013618 30 3207717477904 1 0
-18.606104 18.281242 -1.8239923 3 3207717477904 1 0
-16.602036 17.993553 -1.998637 2 3207717480208 1 0
-27.230373 29.5209 0.7010283 21 3207717482512 1 0
-27.997572 24.94785 1.0913604 13 3207717480208 1 0
-21.303425 18.988163 -1.8289298 55 3207717482512 1 0
-16.12561 19.29913 -1.4646382 3 3207717484816 1 0
-30.009905 29.510391 2.451141 22 3207717484816 1 0
-27.119814 29.417349 1.6300824 17 3207717487120 1 0
0 0 0 4 3207717487120 1 0
-18.246038 19.797293 -1.4109774 4 3207717489424 1 0
-30.029507 29.545996 5.172622 26 3207717489424 1 0
-23.6728 25.692554 2.8519876 7 3207717491728 1 0
-23.847733 21.27962 -1.3021445 4 3207717491728 1 0
-16.503832 19.773987 -0.89942986 21 3207717494032 1 0
0 0 0 9 3207717494032 1 0
-27.165924 29.500067 7.3117924 8 3207717496336 1 0
0 0 0 1 3207717496336 1 0
-2.7908702 3.03824 -1.9237583 5 3207717517072 1 0
-27.923103 24.992456 -0.6541162 18 3207717517072 1 0
-27.214476 29.634857 -1.1709522 25 3207717519376 1 0
-5.2268486 5.1612 -2.056321 4 3207717519376 1 0
0 0 0 30 3207717521680 1 0
0 0 0 15 3207717521680 1 0
-27.044308 32.521576 -0.4924178 14 3207717523984 1 0
-11.361856 11.225356 -2.4848504 5 3207717523984 1 0
-14.478468 15.779267 -2.7258785 29 3207717526288 1 0
-28.008392 25.09669 0.21857445 16 3207717526288 1 0
-27.090178 29.53225 -0.23291825 16 3207717528592 1 0
-17.354633 17.155615 -2.6285899 7 3207717528592 1 0
-17.065662 20.539272 -2.49276 7 3207717530896 1 0
-26.316896 26.022293 0.86120147 10 3207717530896 1 0
-26.993107 32.49652 0.49181247 36 3207717533200 1 0
-18.39502 18.194124 -1.8092039 3 3207717533200 1 0
-16.650024 18.166069 -2.0116553 2 3207717535504 1 0
-28.087313 25.195406 1.0981095 33 3207717535504 1 0
-27.051271 29.522575 0.69893396 29 3207717537808 1 0
-16.160984 19.472338 -1.4737079 3 3207717540112 1 0
-21.275993 19.090694 -1.8319998 58 3207717537808 1 0
-26.31621 26.050396 2.1564925 16 3207717540112 1 0
-27.005919 29.489435 1.6291053 25 3207717542416 1 0
-18.169498 19.845905 -1.41014 4 3207717544720 1 0
-29.812891 29.528072 5.1521482 26 3207717544720 1 0
-21.036226 20.829498 -1.3789964 4 3207717542416 1 0
-23.635921 25.82385 2.8578458 7 3207717547024 1 0
-23.901913 21.470758 -1.3089833 4 3207717547024 1 0
-16.38204 19.7609 -0.89635867 24 3207717549328 1 0
0 0 0 9 3207717549328 1 0
-26.943115 29.453524 7.278071 8 3207717551632 1 0
-26.261795 26.032476 -0.860457 33 3207717551632 1 0
-2.7832232 3.0501559 -1.9254488 4 3207717572368 1 0
-27.994574 25.224127 -0.6577463 18 3207717572368 1 0
-26.85942 29.444906 -1.1598978 16 3207717574672 1 0
-5.2068596 5.1759024 -2.0552425 4 3207717574672 1 0
-7.701389 8.445437 -2.285943 4 3207717576976 1 0
0 0 0 10 3207717579280 1 0
0 0 0 3 3207717576976 1 0
-11.337844 11.27765 -2.487925 5 3207717579280 1 0
-14.368554 15.766863 -2.715272 23 3207717581584 1 0
-27.997065 25.258852 0.21915564 16 3207717581584 1 0
-26.897276 29.524332 -0.23212783 22 3207717583888 1 0
-17.278858 17.198124 -2.6260197 7 3207717583888 1 0
-16.956741 20.551895 -2.4871833 7 3207717586192 1 0
-29.681473 29.552244 0.9746325 19 3207717586192 1 0
-26.98202 32.713383 0.49367505 30 3207717588496 1 0
-18.345932 18.271902 -1.8105991 3 3207717588496 1 0
-16.41477 18.035381 -1.9908259 2 3207717590800 1 0
-26.89896 29.564163 0.6976774 42 3207717593104 1 0
-28.562916 25.802538 1.1202183 34 3207717590800 1 0
-21.253233 19.205454 -1.8358372 61 3207717593104 1 0
-16.122534 19.566315 -1.4764986 3 3207717595408 1 0
-29.50162 29.410793 2.4260252 31 3207717595408 1 0
-26.911634 29.597113 1.6297567 25 3207717597712 1 0
-19.51344 19.459589 -1.2837006 4 3207717597712 1 0
-18.031204 19.836891 -1.4049064 4 3207717600016 1 0
-29.59462 29.522396 5.1326494 25 3207717600016 1 0
-23.580345 25.950075 2.8624022 7 3207717602320 1 0
-22.360445 20.231995 -1.2285458 8 3207717602320 1 0
-16.37133 19.894182 -0.89970905 21 3207717604624 1 0
0 0 0 9 3207717604624 1 0
0 0 0 29 3207717606928 1 0
-27.230764 27.190397 -0.8954448 5 3207717606928 1 0
-2.771491 3.0608203 -1.9254488 4 3207717627664 1 0
-27.95377 25.382515 -0.6590727 18 3207717627664 1 0
-26.838253 29.647827 -1.1638541 17 3207717629968 1 0
-5.195263 5.203884 -2.0584774 4 3207717629968 1 0
-7.672029 8.477408 -2.2867277 3 3207717632272 1 0
-27.265284 27.317678 0 48 3207717632272 1 0
-26.976412 32.91476 -0.4954445 48 3207717634576 1 0
-11.301028 11.32571 -2.4891548 4 3207717634576 1 0
-14.256514 15.761397 -2.7051704 6 3207717636880 1 0
-27.882103 25.344088 0.2189929 16 3207717636880 1 0
-26.830948 29.670965 -0.2324998 11 3207717639184 1 0
-17.201164 17.24776 -2.6238778 7 3207717639184 1 0
-16.861115 20.589256 -2.484209 7 3207717641488 1 0
-29.437431 29.524904 0.970166 32 3207717641488 1 0
-26.959173 32.92888 0.4954445 30 3207717643792 1 0
-16.336246 18.079681 -1.9891987 8 3207717646096 1 0
-18.29064 18.349794 -1.8117151 3 3207717643792 1 0
-32.47381 29.548891 1.2777727 42 3207717646096 1 0
-21.22571 19.318989 -1.8394189 61 3207717648400 1 0
-26.860033 29.734411 0.69942266 43 3207717648400 1 0
-16.113678 19.697586 -1.4820799 3 3207717650704 1 0
-29.284342 29.402132 2.4167228 31 3207717650704 1 0
-26.866217 29.756914 1.6333389 25 3207717653008 1 0
-19.312317 19.395075 -1.2749528 3 3207717653008 1 0
-17.546997 19.4401 -1.3724581 11 3207717655312 1 0
-23.671995 26.232811 2.8845334 7 3207717657616 1 0
-29.38495 29.518599 5.1141253 25 3207717655312 1 0
-22.145515 20.17738 -1.2205671 12 3207717657616 1 0
-16.29283 19.937876 -0.8991506 3 3207717659920 1 0
0 0 0 9 3207717659920 1 0
-27.267794 27.413334 -0.8997252 11 3207717662224 1 0
0 0 0 29 3207717662224 1 0
-27.918177 25.510675 -0.66011983 12 3207717682960 1 0
-27.225853 30.26746 -1.1847993 34 3207717685264 1 0
-5.178813 5.220255 -2.0584774 5 3207717685264 1 0
-2.7667112 3.0749018 -1.9288298 4 3207717682960 1 0
-7.6529794 8.510441 -2.289081 4 3207717687568 1 0
-27.155996 27.38127 0 32 3207717687568 1 0
-26.969929 33.12148 -0.4972605 48 3207717689872 1 0
-11.270462 11.367263 -2.4903846 3 3207717689872 1 0
-27.930721 25.55197 0.22001581 11 3207717692176 1 0
-14.163569 15.759714 -2.6970892 6 3207717692176 1 0
-27.238012 30.316433 -0.23687035 47 3207717694480 1 0
-17.12604 17.283186 -2.620879 7 3207717694480 1 0
-16.78198 20.628145 -2.48235 7 3207717696784 1 0
-29.22656 29.50332 0.96635085 38 3207717696784 1 0
-26.948132 33.13406 0.49721393 30 3207717699088 1 0
-16.279919 18.135775 -1.9895241 2 3207717701392 1 0
-18.22822 18.406187 -1.811436 3 3207717699088 1 0
-32.25058 29.538408 1.2727691 30 3207717701392 1 0
-27.214014 30.32519 0.71122044 81 3207717703696 1 0
-21.206526 19.428795 -1.8432562 55 3207717703696 1 0
-16.071508 19.778337 -1.4841729 3 3207717706000 1 0
-29.167877 29.478363 2.4150949 21 3207717706000 1 0
-26.90392 29.997194 1.6416432 8 3207717708304 1 0
-19.10206 19.311014 -1.2652743 3 3207717708304 1 0
-17.405102 19.41193 -1.3663871 11 3207717710608 1 0
-29.16407 29.491669 5.092676 25 3207717710608 1 0
-21.942703 20.126755 -1.213077 12 3207717712912 1 0
-16.236118 20.004683 -0.89970905 3 3207717715216 1 0
0 0 0 9 3207717715216 1 0
0 0 0 29 3207717717520 1 0
-27.175537 27.504793 -0.8997252 11 3207717717520 1 0
-23.60844 26.338228 2.8874624 7 3207717712912 1 0
-2.75113 3.079134 -1.9254488 4 3207717738256 1 0
-32.152218 29.5862 -0.76267016 14 3207717738256 1 0
-27.167757 30.416185 -1.1868938 43 3207717740560 1 0
-5.157818 5.2355943 -2.0573993 4 3207717740560 1 0
-7.6283264 8.543065 -2.29065 4 3207717742864 1 0
0 0 0 7 3207717742864 1 0
-25.892847 32.027832 -0.47947294 32 3207717745168 1 0
-11.233238 11.409596 -2.4909997 3 3207717745168 1 0
-14.081593 15.779863 -2.6920385 6 3207717747472 1 0
-30.252836 27.872553 0.23907888 19 3207717747472 1 0
0 0 0 19 3207717749776 1 0
-17.056608 17.334978 -2.6195939 7 3207717749776 1 0
-29.007132 29.489546 0.9625357 38 3207717752080 1 0
-25.878304 32.049866 0.47956607 16 3207717754384 1 0
-16.663925 20.63156 -2.4756582 7 3207717752080 1 0
-18.302807 18.612885 -1.8253874 3 3207717754384 1 0
-16.308298 18.297602 -2.000915 2 3207717756688 1 0
-31.998606 29.517126 1.266951 49 3207717756688 1 0
-27.199123 30.526285 0.7136638 66 3207717758992 1 0
0 0 0 4 3207717758992 1 0
-15.9909 19.823048 -1.4832428 3 3207717761296 1 0
-28.953506 29.471018 2.4060252 20 3207717761296 1 0
-26.942822 30.257233 1.6505988 8 3207717763600 1 0
-18.934992 19.279324 -1.25876 3 3207717763600 1 0
-17.202738 19.3249 -1.35592 7 3207717765904 1 0
-28.949886 29.485342 5.0736647 25 3207717765904 1 0
-23.57482 26.491198 2.894948 7 3207717768208 1 0
-21.744171 20.088673 -1.2060753 12 3207717768208 1 0
-16.221832 20.13448 -0.90291977 3 3207717770512 1 0
0 0 0 9 3207717770512 1 0
0 0 0 29 3207717772816 1 0
0 0 0 9 3207717772816 1 0
-2.7494478 3.1000454 -1.9322107 4 3207717793552 1 0
-32.125687 29.779974 -0.76462483 22 3207717793552 1 0
-27.151585 30.623257 -1.1910828 43 3207717795856 1 0
-5.14398 5.259971 -2.0595558 4 3207717795856 1 0
-7.5917597 8.565096 -2.289081 4 3207717798160 1 0
0 0 0 31 3207717798160 1 0
-26.954285 33.59185 -0.50140476 45 3207717800464 1 0
-11.221733 11.481785 -2.4977636 3 3207717800464 1 0
-13.999982 15.804637 -2.6874928 10 3207717802768 1 0
-30.00975 27.852638 0.23796299 13 3207717802768 1 0
-27.178377 30.691221 -0.23826522 66 3207717805072 1 0
-16.967947 17.371773 -2.6157384 7 3207717805072 1 0
-16.575739 20.67696 -2.4737992 7 3207717807376 1 0
-28.789894 29.48408 0.95890665 44 3207717807376 1 0
-26.91375 33.58334 0.50103223 25 3207717809680 1 0
-18.11461 18.55706 -1.8133893 3 3207717809680 1 0
-16.333584 18.461758 -2.0123062 2 3207717811984 1 0
-31.840414 29.587938 1.2649728 24 3207717811984 1 0
-27.169193 30.71864 0.7158279 66 3207717814288 1 0
-19.662268 18.276903 -1.7204578 5 3207717814288 1 0
-16.050415 20.046738 -1.4955682 3 3207717816592 1 0
-28.730986 29.45973 2.3964903 30 3207717816592 1 0
-26.937618 30.475563 1.657112 8 3207717818896 1 0
-18.822363 19.30568 -1.2559681 3 3207717818896 1 0
-17.097408 19.348907 -1.3531985 3 3207717821200 1 0
-28.73632 29.483212 5.0551405 25 3207717821200 1 0
-22.859943 25.878256 2.818791 7 3207717823504 1 0
-21.649918 20.149174 -1.2049356 12 3207717823504 1 0
-16.25528 20.32805 -0.9089225 3 3207717825808 1 0
0 0 0 9 3207717825808 1 0
0 0 0 29 3207717828112 1 0
0 0 0 3 3207717828112 1 0
-2.733818 3.1041827 -1.9288298 4 3207717849296 1 0
-28.51914 26.62246 -0.6809929 6 3207717849296 1 0
-27.12952 30.813484 -1.1948065 43 3207717851600 1 0
-5.1256647 5.2778206 -2.0595558 4 3207717851600 1 0
-7.564657 8.594269 -2.2898655 4 3207717853904 1 0
-26.97759 27.786104 0 16 3207717853904 1 0
-26.925568 33.79405 -0.5030345 50 3207717856208 1 0
-11.1931 11.531742 -2.5002232 2 3207717856208 1 0
-13.945651 15.852598 -2.6874928 10 3207717858512 1 0
0 0 0 5 3207717858512 1 0
-27.157846 30.88005 -0.23900914 48 3207717860816 1 0
-16.889088 17.409683 -2.6127396 7 3207717860816 1 0
-16.539999 20.776876 -2.4790041 2 3207717863120 1 0
-28.580805 29.469936 0.95527756 38 3207717863120 1 0
-26.901905 33.802666 0.50294137 6 3207717865424 1 0
-17.762749 18.320402 -1.7843705 2 3207717865424 1 0
-16.300142 18.54971 -2.015886 6 3207717867728 1 0
-31.611927 29.57502 1.2598529 24 3207717867728 1 0
-27.168776 30.92693 0.7185505 22 3207717870032 1 0
-19.487082 18.236486 -1.7104805 5 3207717870032 1 0
-16.12493 20.278473 -1.5088239 3 3207717872336 1 0
-28.518358 29.438086 2.3869557 30 3207717872336 1 0
-26.888704 30.625181 1.6603686 8 3207717874640 1 0
-18.652327 19.259195 -1.2488954 3 3207717874640 1 0
-16.97518 19.339453 -1.3485929 3 3207717876944 1 0
-28.527927 29.46425 5.035641 24 3207717876944 1 0
-22.653421 25.815744 2.8038197 6 3207717879248 1 0
-21.463692 20.10851 -1.1982595 24 3207717879248 1 0
-16.208263 20.406416 -0.9100393 3 3207717881552 1 0
0 0 0 9 3207717881552 1 0
0 0 0 29 3207717883856 1 0
-30.690645 31.724257 -1.0271142 7 3207717883856 1 0
0 0 0 79 3207717904592 1 0
-27.129393 31.02105 -1.1993445 43 3207717906896 1 0
-5.108058 5.294863 -2.0595558 4 3207717906896 1 0
-7.5461917 8.631337 -2.2930033 4 3207717909200 1 0
-2.7258961 3.11596 -1.9305202 4 3207717904592 1 0
-26.953909 27.948174 0 21 3207717909200 1 0
-26.90867 34.006645 -0.5048505 50 3207717911504 1 0
-11.157037 11.572129 -2.500838 3 3207717911504 1 0
-13.871194 15.87566 -2.6834524 12 3207717913808 1 0
-29.603893 27.853432 0.23624267 19 3207717913808 1 0
-27.155666 31.089397 -0.2399158 48 3207717916112 1 0
-16.796879 17.432451 -2.607599 7 3207717916112 1 0
0 0 0 24 3207717918416 1 0
-28.37492 29.457594 0.9517416 37 3207717918416 1 0
-26.912691 34.05446 0.50531614 6 3207717920720 1 0
-17.57271 18.24879 -1.7715354 5 3207717920720 1 0
-16.228512 18.596539 -2.0149097 5 3207717923024 1 0
-31.376348 29.557238 1.2545002 30 3207717923024 1 0
-27.15403 31.125877 0.7209938 67 3207717925328 1 0
-19.322424 18.207735 -1.7015264 5 3207717925328 1 0
-15.948233 20.199402 -1.498824 3 3207717927632 1 0
-28.308311 29.424397 2.377886 30 3207717927632 1 0
-26.910782 30.866076 1.6683472 8 3207717929936 1 0
-18.554798 19.292238 -1.246848 3 3207717929936 1 0
-16.807835 19.28416 -1.3406378 3 3207717932240 1 0
-28.328594 29.463486 5.0185795 24 3207717932240 1 0
-22.473747 25.792793 2.7927542 6 3207717934544 1 0
-21.381449 20.17265 -1.1976082 24 3207717934544 1 0
-16.126438 20.45078 -0.90948087 3 3207717936848 1 0
0 0 0 29 3207717939152 1 0
-28.218054 29.375443 -0.94783336 12 3207717939152 1 0
-2.7097032 3.1204555 -1.9271393 4 3207717959888 1 0
0 0 0 9 3207717936848 1 0
-27.923063 26.433237 -0.67114973 18 3207717959888 1 0
-27.110554 31.22838 -1.2035335 35 3207717962192 1 0
-5.091397 5.3162203 -2.0606341 4 3207717962192 1 0
-7.5174546 8.661572 -2.2937877 4 3207717964496 1 0
-26.892315 34.23855 -0.50685275 50 3207717966800 1 0
-28.094587 29.342861 0 17 3207717964496 1 0
-11.12624 11.623637 -2.5032978 3 3207717966800 1 0
-13.811703 15.922191 -2.6829472 10 3207717969104 1 0
-29.399525 27.860125 0.23540576 12 3207717969104 1 0
-27.123558 31.276424 -0.24061322 30 3207717971408 1 0
-16.70179 17.457588 -2.6024582 7 3207717971408 1 0
-12.4515 15.865725 -1.882675 37 3207717973712 1 0
-28.215351 29.499897 0.94988054 12 3207717973712 1 0
-26.894136 34.277798 0.5072253 6 3207717976016 1 0
-17.411983 18.209463 -1.7617695 5 3207717976016 1 0
-16.189606 18.683203 -2.0181644 3 3207717978320 1 0
-31.125046 29.526243 1.2485657 35 3207717978320 1 0
-27.145405 31.334751 0.7236466 60 3207717980624 1 0
-19.2244 18.24168 -1.6984564 5 3207717980624 1 0
-15.974594 20.376818 -1.5078937 3 3207717982928 1 0
-28.110167 29.420748 2.3697464 29 3207717982928 1 0
-26.91478 31.084972 1.675186 8 3207717985232 1 0
-18.477571 19.34412 -1.2461035 3 3207717985232 1 0
-16.744719 19.344273 -1.3408473 3 3207717987536 1 0
-28.123962 29.450619 5.0000553 24 3207717987536 1 0
-22.355091 25.832468 2.7888486 6 3207717989840 1 0
-21.333395 20.264105 -1.198748 37 3207717989840 1 0
-16.188267 20.671656 -0.9168796 3 3207717992144 1 0
0 0 0 9 3207717992144 1 0
0 0 0 29 3207717994448 1 0
-26.863754 28.153091 -0.90549445 11 3207717994448 1 0
-27.767488 26.451866 -0.6694045 31 3207718015184 1 0
-2.6975183 3.126208 -1.9254488 3 3207718015184 1 0
-27.07976 31.392506 -1.206559 8 3207718017488 1 0
-5.074593 5.332263 -2.0606341 4 3207718017488 1 0
-7.4950767 8.691305 -2.2953568 3 3207718019792 1 0
-27.89388 29.318773 0 17 3207718019792 1 0
-26.898767 34.472237 -0.5090413 46 3207718022096 1 0
-11.102779 11.673337 -2.5063725 3 3207718022096 1 0
-13.752913 15.957287 -2.681432 10 3207718024400 1 0
-27.802166 26.51577 0.22329372 11 3207718024400 1 0
-27.140375 31.49981 -0.24165937 18 3207718026704 1 0
-16.61545 17.479477 -2.597746 7 3207718026704 1 0
0 0 0 28 3207718029008 1 0
-26.893461 34.50681 0.5093207 6 3207718031312 1 0
-26.205439 27.576187 0.885209 11 3207718029008 1 0
-17.41879 18.33527 -1.7684661 8 3207718031312 1 0
-16.224888 18.847641 -2.0302064 6 3207718033616 1 0
-30.907232 29.51152 1.2436786 29 3207718033616 1 0
-27.136635 31.532545 0.72615975 61 3207718035920 1 0
-19.063566 18.207994 -1.6895024 5 3207718035920 1 0
-15.917342 20.441818 -1.5088239 3 3207718038224 1 0
-27.906094 29.400034 2.3606768 29 3207718038224 1 0
-28.704063 33.373516 1.7933999 9 3207718040528 1 0
-18.38335 19.373138 -1.2440561 3 3207718040528 1 0
-16.646624 19.36032 -1.3381257 3 3207718042832 1 0
-27.933245 29.445787 4.9834814 24 3207718042832 1 0
-22.170176 25.791895 2.7764814 6 3207718045136 1 0
-21.306225 20.373718 -1.2010276 8 3207718045136 1 0
-16.121479 20.728848 -0.9170192 3 3207718047440 1 0
0 0 0 9 3207718047440 1 0
0 0 0 29 3207718049744 1 0
-27.850119 29.38383 -0.9420641 18 3207718049744 1 0
-2.6936657 3.143864 -1.9305202 4 3207718070480 1 0
-27.649012 26.523712 -0.6687762 43 3207718070480 1 0
0 0 0 37 3207718072784 1 0
-5.05058 5.3444185 -2.0584774 5 3207718072784 1 0
-7.4644394 8.717631 -2.2953568 3 3207718075088 1 0
-27.702612 29.323725 0 17 3207718075088 1 0
-19.85723 25.634413 -0.37749705 29 3207718077392 1 0
-11.066881 11.718252 -2.5076022 2 3207718077392 1 0
-13.683298 15.990918 -2.6789067 12 3207718079696 1 0
-26.983757 31.544647 -0.24126416 36 3207718082000 1 0
-27.638659 26.547768 0.22273578 17 3207718079696 1 0
-16.523031 17.506758 -2.5930338 7 3207718082000 1 0
-12.172597 15.729631 -1.8566507 1 3207718084304 1 0
0 0 0 15 3207718084304 1 0
-17.076283 18.10455 -1.7402846 5 3207718086608 1 0
-19.848164 25.656607 0.37763673 12 3207718086608 1 0
-16.180109 18.93332 -2.0331354 6 3207718088912 1 0
-30.682428 29.509174 1.2389077 34 3207718088912 1 0
-27.084606 31.703596 0.7278352 7 3207718091216 1 0
-18.971611 18.252007 -1.6871998 5 3207718091216 1 0
-15.965003 20.657541 -1.5204517 3 3207718093520 1 0
-28.387407 33.25011 1.7811878 18 3207718095824 1 0
-18.33716 19.466295 -1.2457312 3 3207718095824 1 0
-27.703157 29.39959 2.3525374 28 3207718093520 1 0
-16.562588 19.40601 -1.337079 3 3207718098128 1 0
-27.710815 29.426577 4.963007 24 3207718098128 1 0
-22.025953 25.815676 2.7702975 6 3207718100432 1 0
-21.26853 20.488026 -1.2031444 4 3207718100432 1 0
-16.13272 20.90219 -0.9220447 3 3207718102736 1 0
0 0 0 9 3207718102736 1 0
0 0 0 29 3207718105040 1 0
-27.601202 29.338377 -0.93731844 18 3207718105040 1 0
-2.6815743 3.1541836 -1.9305202 4 3207718125776 1 0
-27.601597 26.682497 -0.6701026 62 3207718125776 1 0
-27.019812 31.79124 -1.2142389 17 3207718128080 1 0
-5.0353694 5.369318 -2.0606341 4 3207718128080 1 0
-7.433705 8.7490015 -2.2961411 4 3207718130384 1 0
-25.297485 32.91477 -0.4832912 4 3207718132688 1 0
-27.618029 29.458258 0 17 3207718130384 1 0
-11.027723 11.765945 -2.508832 2 3207718132688 1 0
-27.563938 26.67713 0.222945 11 3207718134992 1 0
-13.60732 16.0244 -2.6758761 12 3207718134992 1 0
-26.91392 31.70401 -0.24170586 30 3207718137296 1 0
-16.42978 17.53985 -2.58875 7 3207718137296 1 0
-12.142593 15.813104 -1.861112 1 3207718139600 1 0
-27.549683 29.419641 0.93787676 18 3207718139600 1 0
-19.722897 25.692545 0.37707797 4 3207718141904 1 0
-17.024853 18.18573 -1.7419586 5 3207718141904 1 0
-16.243597 19.151533 -2.0500593 6 3207718144208 1 0
-30.471842 29.525831 1.234835 11 3207718144208 1 0
0 0 0 8 3207718146512 1 0
-18.88659 18.305574 -1.6856649 5 3207718146512 1 0
-15.888579 20.71638 -1.5204517 3 3207718148816 1 0
-26.947872 28.810558 2.2974215 18 3207718148816 1 0
-28.479324 33.60742 1.7947025 28 3207718151120 1 0
-18.246304 19.51321 -1.2444284 3 3207718151120 1 0
-16.486185 19.46049 -1.3366603 3 3207718153424 1 0
-27.516018 29.435135 4.9474077 24 3207718153424 1 0
-21.815619 25.75901 2.755652 6 3207718155728 1 0
-20.238462 19.638706 -1.1489223 3 3207718155728 1 0
-16.088215 21.001966 -0.9238595 3 3207718158032 1 0
0 0 0 9 3207718158032 1 0
0 0 0 29 3207718160336 1 0
-27.62306 29.5755 -0.94169194 18 3207718160336 1 0
-2.6728864 3.166295 -1.9322107 4 3207718181072 1 0
-20.292343 19.754124 -0.49432197 47 3207718181072 1 0
-16.653496 19.732933 -0.7514667 11 3207718183376 1 0
-5.0166745 5.3867893 -2.0606341 4 3207718183376 1 0
-7.408434 8.780677 -2.2977102 3 3207718185680 1 0
-27.423218 29.454145 0 16 3207718185680 1 0
-10.997872 11.815461 -2.5112917 2 3207718187984 1 0
0 0 0 14 3207718187984 1 0
-13.539446 16.055845 -2.6733508 12 3207718190288 1 0
-20.247503 19.731133 0.16431442 15 3207718190288 1 0
-26.952358 31.97013 -0.24303098 18 3207718192592 1 0
-16.345352 17.569698 -2.5848944 7 3207718192592 1 0
0 0 0 12 3207718194896 1 0
-27.310501 29.363895 0.9331311 12 3207718194896 1 0
-25.101126 32.92907 0.48203397 5 3207718197200 1 0
-16.865309 18.13812 -1.7319137 2 3207718197200 1 0
-16.168608 19.194038 -2.0487573 3 3207718199504 1 0
-20.24898 19.753254 0.8232621 9 3207718199504 1 0
-27.08654 32.163452 0.7339784 53 3207718201808 1 0
-18.719269 18.265776 -1.6761992 5 3207718201808 1 0
-15.81919 20.769415 -1.5204517 3 3207718204112 1 0
-26.913858 28.967829 2.3027704 27 3207718204112 1 0
-28.650337 34.03844 1.8126138 28 3207718206416 1 0
-16.287823 19.356121 -1.3257744 3 3207718208720 1 0
-27.321 29.421486 4.9298587 23 3207718208720 1 0
-18.317175 19.720253 -1.2537346 3 3207718206416 1 0
-21.707355 25.80344 2.7527227 6 3207718211024 1 0
-16.036037 21.077005 -0.92483664 3 3207718213328 1 0
0 0 0 9 3207718213328 1 0
0 0 0 7 3207718211024 1 0
0 0 0 29 3207718215632 1 0
-2.6559365 3.1663442 -1.9271393 3 3207718236368 1 0
-27.452597 26.892956 -0.6708007 25 3207718236368 1 0
-26.185179 28.220558 -0.895817 5 3207718215632 1 0
-16.552309 19.73968 -0.7497212 38 3207718238672 1 0
-5.002186 5.4054956 -2.0617123 4 3207718238672 1 0
-7.3828197 8.8073435 -2.2984946 3 3207718240976 1 0
-24.90081 32.850227 -0.47989202 18 3207718243280 1 0
-10.978449 11.8712225 -2.515596 2 3207718243280 1 0
-27.106092 29.300968 0 16 3207718240976 1 0
-13.481969 16.093788 -2.6723406 12 3207718245584 1 0
-26.919033 32.144417 -0.24368192 18 3207718247888 1 0
0 0 0 3 3207718245584 1 0
-16.260519 17.594124 -2.5806105 7 3207718247888 1 0
-23.888695 25.856222 0.8191417 10 3207718250192 1 0
-24.932892 32.936317 0.48091644 5 3207718252496 1 0
-11.927869 15.751461 -1.844382 55 3207718250192 1 0
-16.766636 18.153399 -1.7280073 2 3207718252496 1 0
-29.978073 29.442234 1.2228497 16 3207718254800 1 0
-27.064157 32.35976 0.7363519 54 3207718257104 1 0
-18.63991 18.312593 -1.6746643 2 3207718257104 1 0
-15.851378 20.960546 -1.5304515 3 3207718259408 1 0
-16.111423 19.25766 -2.0497339 3 3207718254800 1 0
-37.04225 40.144646 3.1811347 22 3207718259408 1 0
-28.786087 34.441006 1.8287339 19 3207718261712 1 0
-18.259638 19.79529 -1.254479 3 3207718261712 1 0
-16.232964 19.428185 -1.3268212 3 3207718264016 1 0
-27.140081 29.432032 4.915722 23 3207718264016 1 0
-21.516726 25.760351 2.74003 6 3207718266320 1 0
0 0 0 1 3207718266320 1 0
-16.05028 21.251812 -0.9300018 3 3207718268624 1 0
0 0 0 9 3207718268624 1 0
0 0 0 29 3207718270928 1 0
-27.200342 29.525805 -0.9341546 18 3207718270928 1 0
-2.6483972 3.1820917 -1.9305202 4 3207718291664 1 0
-26.313116 25.975447 -0.64539 17 3207718291664 1 0
-16.433493 19.750362 -0.74774307 23 3207718293968 1 0
-4.981551 5.4245176 -2.0617123 4 3207718293968 1 0
-7.3494616 8.835198 -2.2984946 3 3207718296272 1 0
-27.187164 29.612465 0 16 3207718296272 1 0
-24.724474 32.87311 -0.4788676 13 3207718298576 1 0
-10.949862 11.929806 -2.5192854 2 3207718298576 1 0
-13.427026 16.149977 -2.6733508 14 3207718300880 1 0
-26.300228 25.98993 0.21490131 11 3207718300880 1 0
-26.848677 32.30209 -0.24412362 19 3207718303184 1 0
-16.17928 17.63649 -2.5780401 7 3207718303184 1 0
-11.822204 15.731397 -1.8369466 53 3207718305488 1 0
-23.712679 25.85519 0.8163501 10 3207718305488 1 0
-24.714466 32.89565 0.4790073 5 3207718307792 1 0
-16.169212 19.468996 -2.0660067 3 3207718310096 1 0
-16.603437 18.108364 -1.7179624 7 3207718307792 1 0
-29.75798 29.437696 1.2181952 16 3207718310096 1 0
-27.05295 32.582542 0.7392141 54 3207718312400 1 0
-18.57427 18.379168 -1.6746643 2 3207718312400 1 0
-15.870389 21.141216 -1.5395212 3 3207718314704 1 0
-37.134235 40.53201 3.2013671 22 3207718314704 1 0
-28.909704 34.837368 1.8443655 19 3207718317008 1 0
-18.313995 19.994976 -1.2630408 3 3207718317008 1 0
-16.17525 19.497026 -1.3276585 3 3207718319312 1 0
-26.986237 29.470957 4.90646 7 3207718319312 1 0
-21.193966 20.99332 -1.2153566 4 3207718321616 1 0
-21.373978 25.770239 2.7331953 6 3207718321616 1 0
-16.085161 21.4507 -0.9362837 3 3207718323920 1 0
0 0 0 9 3207718323920 1 0
0 0 0 29 3207718326224 1 0
-2.6383874 3.190396 -1.9305202 4 3207718346960 1 0
-27.102396 29.621157 -0.93424773 18 3207718326224 1 0
-27.502518 27.320717 -0.6766647 19 3207718346960 1 0
-27.043102 32.7108 -1.2351841 27 3207718349264 1 0
-4.9618096 5.437368 -2.0606341 4 3207718349264 1 0
-7.3239098 8.861481 -2.2992792 3 3207718351568 1 0
-26.885557 29.470976 0 16 3207718351568 1 0
-24.523882 32.823532 -0.47700503 22 3207718353872 1 0
-13.380335 16.198977 -2.674361 12 3207718356176 1 0
-10.919797 11.973384 -2.52113 2 3207718353872 1 0
-27.904413 27.752228 0.22873367 17 3207718356176 1 0
-16.101074 17.66489 -2.574613 7 3207718358480 1 0
-26.889881 32.564026 -0.24544874 44 3207718358480 1 0
-11.721317 15.702464 -1.8291392 44 3207718360784 1 0
-23.534805 25.828165 0.8130933 10 3207718360784 1 0
-24.523918 32.863438 0.47737753 5 3207718363088 1 0
-16.649414 18.277164 -1.7288444 8 3207718363088 1 0
-16.105698 19.521572 -2.0660067 3 3207718365392 1 0
-29.582582 29.4555 1.2149371 33 3207718365392 1 0
-27.053059 32.800484 0.74214613 54 3207718367696 1 0
-18.494226 18.420135 -1.6728734 2 3207718367696 1 0
-15.829453 21.231686 -1.5423119 3 3207718370000 1 0
-26.950972 29.611809 2.3318398 28 3207718370000 1 0
-29.42243 35.694378 1.8845843 20 3207718372304 1 0
-18.124186 19.919382 -1.254479 3 3207718372304 1 0
-16.06224 19.491987 -1.323681 3 3207718374608 1 0
-26.917746 29.59259 4.911822 23 3207718374608 1 0
-22.702497 27.558292 2.914801 7 3207718376912 1 0
-21.087135 21.027107 -1.2132398 4 3207718376912 1 0
-16.020475 21.514008 -0.9367025 3 3207718379216 1 0
0 0 0 9 3207718379216 1 0
0 0 0 29 3207718381520 1 0
-26.811768 29.501932 -0.927641 24 3207718381520 1 0
-2.6249342 3.1967847 -1.9288298 4 3207718402256 1 0
-27.455051 27.464636 -0.67785144 12 3207718402256 1 0
-27.01477 32.91027 -1.2391404 36 3207718404560 1 0
-4.9479327 5.460399 -2.0627906 4 3207718404560 1 0
-7.2878275 8.881034 -2.2977102 2 3207718406864 1 0
-26.822372 29.609503 0 11 3207718406864 1 0
-24.36555 32.851643 -0.47616687 18 3207718409168 1 0
-10.880327 12.014596 -2.5217452 2 3207718409168 1 0
-13.335817 16.261312 -2.6768863 12 3207718411472 1 0
-27.713297 27.756863 0.2279665 17 3207718411472 1 0
-27.04621 32.989643 -0.24793623 46 3207718413776 1 0
-16.022657 17.703878 -2.5720427 7 3207718413776 1 0
-11.620697 15.682993 -1.8220755 46 3207718416080 1 0
-23.378983 25.840015 0.81086004 10 3207718416080 1 0
-24.374046 32.90509 0.47672564 5 3207718418384 1 0
0 0 0 24 3207718418384 1 0
-16.054 19.600195 -2.068285 3 3207718420688 1 0
-29.257648 29.339466 1.2058609 38 3207718420688 1 0
-27.037596 33.020256 0.7449385 63 3207718422992 1 0
-18.442698 18.499922 -1.6741525 2 3207718422992 1 0
-15.867716 21.442032 -1.5534747 3 3207718425296 1 0
-26.87741 29.743212 2.3346305 18 3207718425296 1 0
-26.902914 32.876255 1.7307107 9 3207718427600 1 0
-18.176153 20.12036 -1.2630408 3 3207718427600 1 0
-16.18209 19.781216 -1.3393818 3 3207718429904 1 0
-26.880878 29.765318 4.9244967 15 3207718429904 1 0
-22.545502 27.568527 2.9073153 7 3207718432208 1 0
-21.113132 21.20453 -1.2191017 4 3207718432208 1 0
-15.9953575 21.642147 -0.9397736 3 3207718434512 1 0
0 0 0 9 3207718434512 1 0
-26.788439 29.690296 -0.9305256 36 3207718436816 1 0
-2.6131997 3.206384 -1.9288298 3 3207718457552 1 0
-44.930195 45.276566 -1.1133937 14 3207718457552 1 0
0 0 0 29 3207718436816 1 0
-26.979834 33.114456 -1.2430967 27 3207718459856 1 0
-4.92531 5.475634 -2.0617123 4 3207718459856 1 0
-7.262659 8.916809 -2.3000636 2 3207718462160 1 0
0 0 0 37 3207718462160 1 0
-25.28344 34.351643 -0.49656203 14 3207718464464 1 0
-10.844145 12.063211 -2.5235898 2 3207718464464 1 0
-13.283642 16.319313 -2.6784015 12 3207718466768 1 0
-27.501562 27.747454 0.22705984 17 3207718466768 1 0
-15.941715 17.744734 -2.5694723 7 3207718469072 1 0
-26.003628 31.956127 -0.23945084 12 3207718469072 1 0
-11.513592 15.658098 -1.8142682 46 3207718471376 1 0
-23.185253 25.815449 0.8074171 9 3207718471376 1 0
-24.146677 32.849182 0.47463024 5 3207718473680 1 0
-16.362648 18.224468 -1.7126609 7 3207718473680 1 0
-16.090195 19.791922 -2.0822797 3 3207718475984 1 0
-29.116163 29.412405 1.2044644 33 3207718475984 1 0
-18.487083 18.680885 -1.6843858 2 3207718478288 1 0
-25.983105 31.97078 0.71910894 15 3207718478288 1 0
-15.888293 21.635225 -1.563242 3 3207718480592 1 0
-37.300587 41.58313 3.253227 47 3207718480592 1 0
-17.494076 19.508595 -1.2206044 3 3207718482896 1 0
-16.134659 19.871403 -1.3414752 3 3207718485200 1 0
-26.046474 32.06876 1.6831646 17 3207718482896 1 0
-26.832556 29.931635 4.9357085 7 3207718485200 1 0
-22.434256 27.638594 2.9060135 7 3207718487504 1 0
-21.024033 21.270403 -1.2184503 4 3207718487504 1 0
-15.993946 21.807003 -0.9443804 3 3207718489808 1 0
0 0 0 9 3207718489808 1 0
-27.124985 30.285746 -0.94606537 43 3207718492112 1 0
0 0 0 29 3207718492112 1 0
-2.5997112 3.2126682 -1.9271393 5 3207718512296 1 0
-27.07535 27.475233 -0.67331386 18 3207718512296 1 0
-27.015442 33.39455 -1.2500784 18 3207718514600 1 0
-4.9113784 5.4984674 -2.063869 4 3207718514600 1 0
-7.231749 8.9418955 -2.3000636 2 3207718516904 1 0
-27.162176 30.417505 0 47 3207718516904 1 0
-23.98026 32.81742 -0.47318676 13 3207718519208 1 0
-10.818292 12.118211 -2.5272794 2 3207718519208 1 0
-13.245008 16.386414 -2.681937 17 3207718521512 1 0
-27.324783 27.759022 0.22638567 17 3207718521512 1 0
-27.007956 33.423058 -0.24974956 40 3207718523816 1 0
-15.846552 17.76054 -2.5639033 7 3207718523816 1 0
-11.413266 15.63286 -1.8068327 45 3207718526120 1 0
-23.020063 25.807665 0.80471855 9 3207718526120 1 0
-23.955046 32.820976 0.47304705 5 3207718528424 1 0
-16.306107 18.28577 -1.713219 7 3207718528424 1 0
-16.10847 19.951569 -2.0933452 3 3207718530728 1 0
-28.907423 29.399296 1.1999264 26 3207718530728 1 0
-27.003408 33.455235 0.7504535 55 3207718533032 1 0
-18.413023 18.731504 -1.6833625 2 3207718533032 1 0
-15.825241 21.70116 -1.5641723 3 3207718535336 1 0
-37.209087 41.76134 3.2574131 23 3207718535336 1 0
-26.827843 33.25652 1.7408061 9 3207718537640 1 0
-17.38648 19.519014 -1.2176265 3 3207718537640 1 0
-16.168978 20.049173 -1.349849 3 3207718539944 1 0
-17.159382 19.269423 3.1681154 3 3207718539944 1 0
-22.3604 27.734238 2.9082918 7 3207718542248 1 0
-15.94807 21.895002 -0.94591594 3 3207718544552 1 0
0 0 0 9 3207718544552 1 0
0 0 0 29 3207718546856 1 0
-20.990095 21.376772 -1.2205671 4 3207718542248 1 0
-27.092184 30.449038 -0.9483917 57 3207718546856 1 0
-2.5913143 3.224097 -1.9288298 4 3207718567592 1 0
-27.006472 27.587732 -0.6738723 37 3207718567592 1 0
-4.8905215 5.511878 -2.0627906 4 3207718569896 1 0
-26.974432 33.57142 -1.2533365 45 3207718569896 1 0
-7.22649 8.996511 -2.3079083 3 3207718572200 1 0
-27.140345 30.597576 0 17 3207718572200 1 0
-23.825954 32.835773 -0.47230202 8 3207718574504 1 0
-13.207506 16.45229 -2.6854725 19 3207718576808 1 0
-27.340832 27.961811 0.22729231 41 3207718576808 1 0
-10.780404 12.157211 -2.5278943 3 3207718574504 1 0
-26.993393 33.635075 -0.25065622 60 3207718579112 1 0
-15.768456 17.79273 -2.5609047 7 3207718579112 1 0
-11.316265 15.609852 -1.7997689 49 3207718581416 1 0
-22.85367 25.795067 0.801927 9 3207718581416 1 0
-16.281485 18.38239 -1.7171254 2 3207718583720 1 0
-23.802153 32.84315 0.4722089 5 3207718583720 1 0
-16.088442 20.064905 -2.0995288 3 3207718586024 1 0
-28.699104 29.385115 1.1953882 26 3207718586024 1 0
-26.980173 33.6587 0.75296664 15 3207718588328 1 0
-18.360731 18.805088 -1.6843858 2 3207718588328 1 0
-15.796104 21.816118 -1.5685908 3 3207718590632 1 0
0 0 0 3 3207718590632 1 0
-30.05315 37.514698 1.9583459 31 3207718592936 1 0
-17.206247 19.449265 -1.2096231 3 3207718592936 1 0
-16.038225 20.026138 -1.3446153 3 3207718595240 1 0
-17.004274 19.226597 3.1515412 3 3207718595240 1 0
-22.278135 27.825901 2.909919 7 3207718597544 1 0
-19.306986 19.797274 -1.1266147 7 3207718597544 1 0
-17.99315 24.880936 -1.0722522 4 3207718599848 1 0
0 0 0 9 3207718599848 1 0
0 0 0 29 3207718602152 1 0
-27.088354 30.655527 -0.9519277 57 3207718602152 1 0
-2.5800443 3.2331228 -1.9288298 5 3207718622888 1 0
-26.979702 27.753527 -0.6756176 12 3207718622888 1 0
-26.966549 33.803093 -1.2584565 36 3207718625192 1 0
-4.871211 5.528951 -2.0627906 4 3207718625192 1 0
-7.1998024 9.02792 -2.3094773 2 3207718627496 1 0
-27.157187 30.833601 0 30 3207718627496 1 0
-23.659044 32.84786 -0.47127762 13 3207718629800 1 0
-10.732411 12.189069 -2.5266643 3 3207718629800 1 0
-13.171775 16.526602 -2.6900182 19 3207718632104 1 0
-27.049986 27.859856 0.22568823 11 3207718632104 1 0
-26.97928 33.86146 -0.2516326 48 3207718634408 1 0
-15.684586 17.82435 -2.5574775 7 3207718634408 1 0
-11.212174 15.5818615 -1.7919617 50 3207718636712 1 0
-22.688406 25.791605 0.7993215 9 3207718636712 1 0
-23.601604 32.810352 0.4705326 5 3207718639016 1 0
-16.213644 18.43694 -1.7168463 2 3207718639016 1 0
-15.989821 20.087564 -2.095949 3 3207718641320 1 0
-26.982334 33.907776 0.7563873 24 3207718643624 1 0
-17.749153 18.30851 -1.634243 5 3207718643624 1 0
-15.74856 21.914423 -1.571614 3 3207718645928 1 0
0 0 0 3 3207718645928 1 0
-28.491652 29.380575 1.1910828 37 3207718641320 1 0
-30.150358 37.912685 1.9734889 31 3207718648232 1 0
-17.047039 19.408506 -1.2032949 3 3207718648232 1 0
-16.050987 20.189705 -1.3517331 3 3207718650536 1 0
-16.882984 19.227648 3.1417916 10 3207718650536 1 0
-21.615156 27.197107 2.83604 7 3207718652840 1 0
-19.171942 19.800325 -1.1228696 10 3207718652840 1 0
-17.908314 24.95191 -1.0725313 4 3207718655144 1 0
0 0 0 9 3207718655144 1 0
0 0 0 29 3207718657448 1 0
-2.5726786 3.2482412 -1.9322107 4 3207718678184 1 0
-26.969446 27.947195 -0.6779213 19 3207718678184 1 0
-26.93753 34.020233 -1.2628783 27 3207718680488 1 0
-4.8484993 5.5437627 -2.0617123 4 3207718680488 1 0
-7.198708 9.093915 -2.3196752 3 3207718682792 1 0
-27.142761 31.043167 0 60 3207718682792 1 0
-25.224615 35.288643 -0.50499016 15 3207718685096 1 0
-27.067488 30.85505 -0.9550915 51 3207718657448 1 0
-10.709274 12.2514305 -2.5315835 3 3207718685096 1 0
-13.119946 16.582958 -2.6915336 14 3207718687400 1 0
-26.967876 34.095226 -0.2526555 55 3207718689704 1 0
-15.600168 17.856054 -2.5540504 7 3207718689704 1 0
-11.119998 15.569536 -1.7860132 50 3207718692008 1 0
-27.005653 28.014055 0.22615318 17 3207718687400 1 0
-23.42346 32.80516 0.46927536 5 3207718694312 1 0
-27.098116 31.024876 0.9585344 19 3207718692008 1 0
-16.16191 18.508802 -1.7182415 2 3207718694312 1 0
-16.04815 20.305904 -2.1128726 3 3207718696616 1 0
-26.286654 27.296799 1.1028804 4 3207718696616 1 0
-26.973646 34.139244 0.7594589 24 3207718698920 1 0
-17.566488 18.246313 -1.6232424 2 3207718698920 1 0
-15.765694 22.098608 -1.5809163 3 3207718701224 1 0
-27.30066 31.28982 2.4183507 10 3207718701224 1 0
-30.176369 38.21334 1.9837472 31 3207718703528 1 0
-16.93581 19.415594 -1.2001307 3 3207718703528 1 0
-16.068813 20.353949 -1.3590602 3 3207718705832 1 0
-16.796572 19.261057 3.1378918 7 3207718705832 1 0
-21.62927 27.404612 2.8500347 7 3207718708136 1 0
-18.988518 19.744055 -1.1160308 7 3207718708136 1 0
-17.912539 25.135645 -1.077836 4 3207718710440 1 0
0 0 0 9 3207718710440 1 0
0 0 0 29 3207718712744 1 0
-2.5579774 3.2506096 -1.9288298 4 3207718733480 1 0
-27.056293 31.050749 -0.95834833 58 3207718712744 1 0
-26.972864 28.127043 -0.680225 12 3207718733480 1 0
-26.941269 34.246494 -1.2681146 27 3207718735784 1 0
-4.8335047 5.561945 -2.0627906 5 3207718735784 1 0
-7.121344 9.055033 -2.3039858 2 3207718738088 1 0
-27.112404 31.207582 0 36 3207718738088 1 0
-25.216284 35.515568 -0.50708556 15 3207718740392 1 0
-10.677972 12.294432 -2.5334284 3 3207718740392 1 0
-12.99816 16.537504 -2.6773915 4 3207718742696 1 0
-26.959469 34.310688 -0.25360867 56 3207718745000 1 0
-27.314302 28.516283 0.22950085 60 3207718742696 1 0
-15.524445 17.885082 -2.5510516 7 3207718745000 1 0
-11.0258875 15.54364 -1.7789495 50 3207718747304 1 0
0 0 0 7 3207718747304 1 0
-16.104406 18.564138 -1.7185205 2 3207718749608 1 0
-23.24984 32.786346 0.46792498 5 3207718749608 1 0
0 0 0 13 3207718751912 1 0
-26.965986 28.185446 1.135229 14 3207718751912 1 0
-17.365969 18.15658 -1.610195 5 3207718754216 1 0
0 0 0 10 3207718756520 1 0
-26.955608 34.346886 0.76211166 24 3207718754216 1 0
-117.26719 135.2974 10.427117 28 3207718756520 1 0
-30.284363 38.611515 1.999216 31 3207718758824 1 0
-16.79312 19.38081 -1.194547 3 3207718758824 1 0
-16.0382 20.454275 -1.3622003 3 3207718761128 1 0
-16.774199 19.364664 3.1456914 10 3207718761128 1 0
-21.653471 27.62397 2.8653312 7 3207718763432 1 0
-17.923027 25.329218 -1.0835596 4 3207718765736 1 0
0 0 0 9 3207718765736 1 0
0 0 0 19 3207718763432 1 0
0 0 0 29 3207718768040 1 0
-27.035559 31.238235 -0.961326 26 3207718768040 1 0
-2.5488472 3.2623756 -1.9305202 4 3207718788776 1 0
-26.946228 28.296326 -0.68204004 12 3207718788776 1 0
-26.927141 34.47602 -1.2731181 37 3207718791080 1 0
-4.8215694 5.587567 -2.0660255 4 3207718791080 1 0
-7.0847325 9.073755 -2.302417 2 3207718793384 1 0
-27.104746 31.420547 0 42 3207718793384 1 0
-25.195065 35.75104 -0.50918096 10 3207718795688 1 0
-10.652791 12.352815 -2.5377328 2 3207718795688 1 0
-12.371113 15.854256 -2.5597095 5 3207718797992 1 0
-27.304733 28.70789 0.23026802 48 3207718797992 1 0
-26.926853 34.5191 -0.25444558 21 3207718800296 1 0
-15.424918 17.89755 -2.5450542 7 3207718800296 1 0
-10.9273205 15.5206375 -1.7718858 50 3207718802600 1 0
-27.083437 31.43465 0.96551335 25 3207718802600 1 0
-23.082933 32.79652 0.46690056 5 3207718804904 1 0
-16.228659 18.841764 -1.7388893 2 3207718804904 1 0
-12.424748 15.943064 -1.6500715 35 3207718807208 1 0
0 0 0 13 3207718807208 1 0
-19.948616 25.605528 0.56657493 9 3207718809512 1 0
-17.218826 18.131384 -1.6025201 2 3207718809512 1 0
-11.139689 15.842827 -1.127897 40 3207718811816 1 0
0 0 0 3 3207718811816 1 0
-19.97886 25.660513 1.3249406 11 3207718814120 1 0
-16.671694 19.380068 -1.1908245 3 3207718814120 1 0
-16.00417 20.561962 -1.3655498 3 3207718816424 1 0
-16.663387 19.376394 3.1378918 7 3207718816424 1 0
-20.002111 25.70657 2.658991 6 3207718818728 1 0
-18.491209 19.495037 -1.0947002 28 3207718818728 1 0
-17.843403 25.4098 -1.0842576 4 3207718821032 1 0
0 0 0 9 3207718821032 1 0
0 0 0 29 3207718823336 1 0
-2.5390942 3.2745605 -1.9322107 4 3207718844072 1 0
-26.943989 28.502434 -0.684623 13 3207718844072 1 0
-27.034994 31.465778 -0.96532726 19 3207718823336 1 0
-19.856478 25.615355 -0.94323146 17 3207718846376 1 0
-4.7936215 5.596355 -2.0627906 4 3207718846376 1 0
-7.0733166 9.127359 -2.3094773 3 3207718848680 1 0
-27.089184 31.634348 0 56 3207718848680 1 0
-25.157114 35.973164 -0.51104355 10 3207718850984 1 0
-10.615696 12.40032 -2.5395775 3 3207718850984 1 0
-12.287119 15.864267 -2.5541537 15 3207718853288 1 0
-27.280645 28.89053 0.2309422 42 3207718853288 1 0
-19.865078 25.655718 -0.18858497 8 3207718855592 1 0
-15.334667 17.92263 -2.5407703 7 3207718855592 1 0
-10.828378 15.497605 -1.764822 52 3207718857896 1 0
-27.059172 31.634672 0.96867716 39 3207718857896 1 0
-16.166601 18.905539 -1.7394475 2 3207718860200 1 0
-22.888048 32.767082 0.46531737 5 3207718860200 1 0
-12.302226 15.901918 -1.6412841 33 3207718862504 1 0
-27.593784 29.254522 1.1703703 15 3207718862504 1 0
-19.850653 25.66638 0.5663655 9 3207718864808 1 0
-17.119036 18.154371 -1.5991943 2 3207718864808 1 0
0 0 0 12 3207718867112 1 0
0 0 0 3 3207718867112 1 0
-30.384367 39.308643 2.024129 10 3207718869416 1 0
-16.590685 19.423195 -1.1898938 3 3207718869416 1 0
-15.956722 20.64931 -1.3676432 3 3207718871720 1 0
-16.621431 19.464634 3.1427667 3 3207718871720 1 0
-18.445253 19.58247 -1.0960028 24 3207718874024 1 0
-21.591923 27.949703 2.8832314 7 3207718874024 1 0
-17.860495 25.622269 -1.090679 4 3207718876328 1 0
