# .PCD v.7 - Point Cloud Data file format
VERSION .7
FIELDS x y z rgb timestamp_ns device_id active
SIZE 4 4 4 4 8 1 1
TYPE F F F F F U U
COUNT 1 1 1 1 1 1 1
WIDTH 985
HEIGHT 1
VIEWPOINT 0 0 0 1 0 0 0
POINTS 985               
DATA ascii
4.7594795 4.316011 -1.7986069 4 3200043428784 1 0
6.980685 5.7329793 -1.8066325 2 3200043431088 1 0
22.228859 20.152365 0 34 3200043431088 1 0
22.843916 16.957657 -0.3312121 82 3200043433392 1 0
8.557295 7.75588 -1.7967664 4 3200043433392 1 0
11.081338 9.095838 -1.8248284 3 3200043435696 1 0
21.907785 21.892496 0.1800066 35 3200043435696 1 0
22.213648 18.22865 -0.16701116 100 3200043438000 1 0
12.47364 11.299501 -1.8129388 3 3200043438000 1 0
15.338339 11.376724 -1.7826673 4 3200043440304 1 0
22.431982 20.315125 0.7042218 24 3200043440304 1 0
22.83994 16.936165 0.33102584 63 3200043442608 1 0
18.999153 17.201717 -1.7921833 8 3200043442608 1 0
17.032984 13.966176 -1.7981548 6 3200043444912 1 0
22.08578 22.047266 0.90820646 22 3200043444912 1 0
22.22018 18.214548 0.50151235 100 3200043447216 1 0
19.959103 19.919083 -1.8071842 6 3200043447216 1 0
22.867243 16.942497 -1.6574272 58 3200043449520 1 0
26.097471 23.609848 2.0495167 14 3200043449520 1 0
22.219185 18.204008 1.1702529 70 3200043451824 1 0
22.94859 20.755657 -1.4413481 14 3200043451824 1 0
22.249695 18.224138 -1.5072756 87 3200043454128 1 0
22.828491 20.641603 3.7789247 10 3200043454128 1 0
22.211823 18.18826 2.3436222 46 3200043456432 1 0
22.943184 22.873215 -1.3198929 15 3200043456432 1 0
22.865566 16.922718 -0.9933793 80 3200043458736 1 0
24.77271 22.38779 8.9468565 16 3200043458736 1 0
22.291367 18.243649 5.25192 61 3200043461040 1 0
29.016417 26.216045 -0.909961 5 3200043461040 1 0
0 0 0 4 3200043481776 1 0
23.879438 23.738153 -0.58772725 15 3200043481776 1 0
22.258709 18.16778 -0.8361783 87 3200043484080 1 0
4.7673545 4.295811 -1.7964503 5 3200043484080 1 0
6.998828 5.7108173 -1.8066325 2 3200043486384 1 0
22.289673 20.079105 0 34 3200043486384 1 0
22.888155 16.877687 -0.33107242 99 3200043488688 1 0
8.58783 7.733874 -1.7979963 5 3200043488688 1 0
11.10116 9.05281 -1.8233131 3 3200043490992 1 0
21.952177 21.796919 0.17979737 35 3200043490992 1 0
22.259726 18.147043 -0.16691816 100 3200043493296 1 0
15.352548 11.310604 -1.7800648 4 3200043495600 1 0
12.495115 11.246046 -1.8107969 5 3200043493296 1 0
22.524214 20.26666 0.70505923 36 3200043495600 1 0
22.881868 16.852509 0.33083957 66 3200043497904 1 0
19.022213 17.110651 -1.789114 8 3200043497904 1 0
17.093851 13.923199 -1.7997822 6 3200043500208 1 0
22.043936 21.862574 0.903552 37 3200043500208 1 0
22.267263 18.131634 0.5012331 100 3200043502512 1 0
19.984495 19.814312 -1.8036026 9 3200043502512 1 0
22.903511 16.85304 -1.6560318 58 3200043504816 1 0
41.82109 37.58545 3.2746222 24 3200043504816 1 0
22.94863 20.618359 -1.4370673 14 3200043507120 1 0
22.263664 18.117937 1.1694387 65 3200043507120 1 0
22.294514 18.137651 -1.5062288 83 3200043509424 1 0
21.142338 18.989927 3.489363 25 3200043509424 1 0
22.250628 18.096571 2.341344 41 3200043511728 1 0
22.942566 22.72074 -1.3154964 15 3200043511728 1 0
22.909164 16.836662 -0.99282086 88 3200043514032 1 0
22.38918 18.198437 5.26053 48 3200043516336 1 0
21.532362 19.32893 7.7531834 8 3200043514032 1 0
0 0 0 8 3200043516336 1 0
0 0 0 4 3200043537072 1 0
23.990618 23.68275 -0.58842534 15 3200043537072 1 0
22.300245 18.07235 -0.8353638 87 3200043539376 1 0
4.7737093 4.271438 -1.7932153 4 3200043539376 1 0
7.0126243 5.6814137 -1.8050635 2 3200043541680 1 0
22.380495 20.019846 0 42 3200043541680 1 0
22.934021 16.788239 -0.33088616 96 3200043543984 1 0
8.605935 7.6959457 -1.7961515 5 3200043543984 1 0
11.108022 8.994029 -1.8192725 3 3200043546288 1 0
22.033825 21.725775 0.17984386 30 3200043546288 1 0
22.30739 18.056648 -0.16680193 34 3200043548592 1 0
12.5046425 11.17586 -1.8065131 5 3200043548592 1 0
15.375861 11.24519 -1.7782059 4 3200043550896 1 0
22.621658 20.211893 0.70589674 36 3200043550896 1 0
22.927639 16.76309 0.33065334 63 3200043553200 1 0
17.167147 13.8835 -1.8023858 7 3200043555504 1 0
22.014713 21.681684 0.8992466 37 3200043555504 1 0
19.058016 17.022882 -1.7868818 8 3200043553200 1 0
22.311758 18.03871 0.50081426 100 3200043557808 1 0
20.084827 19.77524 -1.8064167 6 3200043557808 1 0
22.952526 16.765923 -1.6553342 58 3200043560112 1 0
41.952034 37.43924 3.2746222 24 3200043560112 1 0
22.93996 20.466307 -1.4320419 14 3200043562416 1 0
22.33283 18.039637 -1.504554 87 3200043564720 1 0
22.31123 18.027552 1.1686246 70 3200043562416 1 0
21.16998 18.881657 3.4830258 17 3200043564720 1 0
22.936249 22.556444 -1.3106116 15 3200043567024 1 0
22.951649 16.744812 -0.9921229 92 3200043569328 1 0
0 0 0 86 3200043569328 1 0
22.304356 18.011276 2.3403678 46 3200043567024 1 0
22.504625 18.162186 5.272727 39 3200043571632 1 0
23.460155 20.905909 -0.731207 17 3200043571632 1 0
23.464813 23.002523 -0.5735559 14 3200043592368 1 0
22.34762 17.981865 -0.83478194 87 3200043594672 1 0
0 0 0 4 3200043592368 1 0
4.7885904 4.254749 -1.7932153 5 3200043594672 1 0
7.023245 5.649525 -1.8027102 2 3200043596976 1 0
22.973068 16.693975 -0.33060676 100 3200043599280 1 0
8.620925 7.6553607 -1.7936919 5 3200043599280 1 0
22.49211 19.97879 0 34 3200043596976 1 0
11.123887 8.942769 -1.8167472 3 3200043601584 1 0
21.89232 21.436049 0.17807704 38 3200043601584 1 0
22.351576 17.963636 -0.16666244 100 3200043603888 1 0
12.513832 11.105744 -1.8022292 5 3200043603888 1 0
15.353786 11.146993 -1.7711421 4 3200043606192 1 0
22.814716 20.241617 0.7097119 40 3200043606192 1 0
22.97954 16.678257 0.3305602 67 3200043608496 1 0
19.066572 16.911242 -1.7821383 8 3200043608496 1 0
17.190636 13.803522 -1.7997822 6 3200043610800 1 0
21.955915 21.473312 0.89377755 29 3200043610800 1 0
22.355877 17.945696 0.5003954 100 3200043613104 1 0
20.122337 19.674313 -1.8036026 6 3200043613104 1 0
23.007679 16.683357 -1.6551017 62 3200043615408 1 0
21.789877 19.309717 1.6955664 4 3200043615408 1 0
22.355316 17.934555 1.1676476 70 3200043617712 1 0
22.9335 20.317217 -1.4272026 14 3200043617712 1 0
22.376968 17.946577 -1.503298 87 3200043620016 1 0
21.206038 18.78132 3.478151 12 3200043620016 1 0
22.345318 17.915854 2.3380895 41 3200043622320 1 0
22.940502 22.403643 -1.306378 14 3200043622320 1 0
23.003483 16.659904 -0.9918437 84 3200043624624 1 0
21.785397 19.28313 7.7956295 12 3200043624624 1 0
22.589382 18.100744 5.2777495 39 3200043626928 1 0
23.535982 20.82654 -0.73130006 43 3200043626928 1 0
0 0 0 4 3200043647664 1 0
28.812204 28.048012 -0.701866 6 3200043647664 1 0
22.397757 17.893764 -0.8343165 92 3200043649968 1 0
4.806301 4.240556 -1.7942936 5 3200043649968 1 0
22.56771 19.905449 0 34 3200043652272 1 0
0 0 0 100 3200043654576 1 0
8.641665 7.619993 -1.7924621 5 3200043654576 1 0
11.136428 8.889032 -1.8137168 3 3200043656880 1 0
7.0429225 5.624975 -1.8027102 2 3200043652272 1 0
21.89245 21.287 0.17747259 42 3200043656880 1 0
22.401638 17.875526 -0.16656944 34 3200043659184 1 0
12.537603 11.048848 -1.8000872 5 3200043659184 1 0
15.3635235 11.072372 -1.7677962 4 3200043661488 1 0
22.80722 20.093124 0.7072925 44 3200043661488 1 0
26.146513 18.83781 0.37516883 24 3200043663792 1 0
17.229362 13.735976 -1.7988057 6 3200043666096 1 0
19.101532 16.823486 -1.7799062 8 3200043663792 1 0
22.070892 21.43554 0.89540666 21 3200043666096 1 0
20.056284 19.473259 -1.7915787 6 3200043668400 1 0
22.393362 17.847609 0.49983692 100 3200043668400 1 0
23.759335 17.102175 -1.7048687 16 3200043670704 1 0
0 0 0 9 3200043670704 1 0
22.402153 17.843962 1.1668335 70 3200043673008 1 0
22.423853 17.855915 -1.5022513 83 3200043675312 1 0
22.96228 20.20009 -1.4245969 19 3200043673008 1 0
21.271467 18.707184 3.478151 21 3200043675312 1 0
22.395243 17.827812 2.3367877 46 3200043677616 1 0
22.923887 22.231607 -1.3010046 14 3200043677616 1 0
0 0 0 32 3200043679920 1 0
21.788729 19.15085 7.7728534 12 3200043679920 1 0
22.670904 18.036482 5.2820544 39 3200043682224 1 0
23.63257 20.765375 -0.7320445 35 3200043682224 1 0
0 0 0 4 3200043702960 1 0
27.572842 26.6547 -0.6694045 18 3200043702960 1 0
22.444418 17.80305 -0.8337347 87 3200043705264 1 0
4.8210745 4.223753 -1.7942936 4 3200043705264 1 0
7.0625143 5.6003566 -1.8027102 2 3200043707568 1 0
22.606966 19.800198 0 42 3200043707568 1 0
24.123184 17.273687 -0.34541422 57 3200043709872 1 0
8.656317 7.579367 -1.7900025 5 3200043709872 1 0
11.145619 8.832853 -1.8101813 3 3200043712176 1 0
21.877422 21.124321 0.17675193 38 3200043712176 1 0
12.546166 10.9788265 -1.7958033 5 3200043714480 1 0
15.392363 11.011724 -1.7666808 4 3200043716784 1 0
22.441954 17.779833 -0.1664067 100 3200043714480 1 0
22.910326 20.042353 0.7083161 36 3200043716784 1 0
26.28043 18.79529 0.37614667 24 3200043719088 1 0
19.142118 16.740946 -1.778232 8 3200043719088 1 0
17.277205 13.675751 -1.7988057 6 3200043721392 1 0
22.030464 21.247343 0.89075214 29 3200043721392 1 0
22.439844 17.756924 0.49948788 100 3200043723696 1 0
23.864374 17.051638 -1.7081244 28 3200043726000 1 0
20.112642 19.392048 -1.7905552 9 3200043723696 1 0
21.857998 19.099321 1.6904502 4 3200043726000 1 0
22.445494 17.75078 1.1658565 65 3200043728304 1 0
23.104874 20.182903 -1.4290639 14 3200043728304 1 0
22.46411 17.760191 -1.5007858 87 3200043730608 1 0
23.711031 20.706324 3.8652081 15 3200043730608 1 0
22.444826 17.739641 2.335486 37 3200043732912 1 0
22.92938 22.082144 -1.296934 14 3200043732912 1 0
26.213724 18.707273 -1.1246014 15 3200043735216 1 0
21.762293 18.99338 7.7397246 37 3200043735216 1 0
22.752253 17.97187 5.2863593 39 3200043737520 1 0
26.434877 23.064676 -0.8163501 10 3200043737520 1 0
0 0 0 4 3200043758256 1 0
23.05236 22.1296 -0.5577789 9 3200043758256 1 0
22.490591 17.71239 -0.8331529 87 3200043760560 1 0
4.8241334 4.1968207 -1.7899804 4 3200043760560 1 0
7.0788574 5.573346 -1.8019257 2 3200043762864 1 0
22.75413 19.789743 0 59 3200043762864 1 0
24.30358 17.275646 -0.3471371 51 3200043765168 1 0
8.679574 7.546701 -1.7893875 5 3200043765168 1 0
11.160537 8.781951 -1.8076559 3 3200043767472 1 0
21.872463 20.973717 0.17612423 34 3200043767472 1 0
22.487516 17.68984 -0.16629048 100 3200043769776 1 0
15.391264 10.930928 -1.7622195 4 3200043772080 1 0
23.003428 19.984243 0.7090605 32 3200043772080 1 0
12.556998 10.911945 -1.7919478 5 3200043769776 1 0
19.178501 16.656687 -1.7762789 8 3200043774384 1 0
26.468855 18.79277 0.37791613 16 3200043774384 1 0
17.32091 13.613903 -1.7984803 6 3200043776688 1 0
22.487955 17.670074 0.49920863 89 3200043778992 1 0
22.085941 21.155005 0.890054 29 3200043776688 1 0
20.19048 19.334087 -1.7915787 9 3200043778992 1 0
23.912746 16.96304 -1.7074268 12 3200043781296 1 0
31.930168 27.708403 2.4620712 11 3200043781296 1 0
22.480759 17.654375 1.1645539 70 3200043783600 1 0
23.252048 20.17206 -1.4339031 14 3200043783600 1 0
22.515 17.676233 -1.5001578 87 3200043785904 1 0
26.867634 23.302217 4.3668222 12 3200043785904 1 0
22.448492 17.619007 2.3296275 37 3200043788208 1 0
22.934927 21.937843 -1.2930261 14 3200043788208 1 0
24.352514 17.254774 -1.0422386 8 3200043790512 1 0
21.797338 18.894215 7.729372 20 3200043790512 1 0
23.91071 20.720325 -0.73623186 8 3200043792816 1 0
22.837666 17.914259 5.292099 39 3200043792816 1 0
0 0 0 4 3200043813552 1 0
23.212446 22.135836 -0.5598732 9 3200043813552 1 0
22.533457 17.625395 -0.8325711 83 3200043815856 1 0
4.8351097 4.178282 -1.788902 4 3200043815856 1 0
7.088031 5.5425925 -1.7995722 2 3200043818160 1 0
22.910437 19.792627 0 12 3200043818160 1 0
0 0 0 84 3200043820464 1 0
8.698569 7.5127096 -1.7881577 5 3200043820464 1 0
11.180218 8.737562 -1.8061407 3 3200043822768 1 0
21.872383 20.834856 0.17556629 29 3200043822768 1 0
22.527143 17.600397 -0.16615099 100 3200043825072 1 0
12.572041 10.852054 -1.7889491 5 3200043825072 1 0
15.414409 10.870647 -1.7607324 4 3200043827376 1 0
23.114985 19.947039 0.7104563 36 3200043827376 1 0
26.609484 18.760206 0.37903365 17 3200043829680 1 0
17.369102 13.558843 -1.7988057 6 3200043831984 1 0
19.227589 16.587784 -1.7757208 8 3200043829680 1 0
22.135696 21.062355 0.88923943 21 3200043831984 1 0
22.52751 17.58064 0.4987898 96 3200043834288 1 0
20.190851 19.206501 -1.7859503 9 3200043834288 1 0
23.955807 16.87445 -1.7064966 12 3200043836592 1 0
22.343025 19.259344 1.7178918 14 3200043836592 1 0
22.529726 17.572355 1.1640654 65 3200043838896 1 0
23.409618 20.173094 -1.4394869 14 3200043838896 1 0
22.551441 17.58428 -1.4986924 87 3200043841200 1 0
26.893625 23.168941 4.3585353 12 3200043841200 1 0
22.478497 17.52241 2.3266985 37 3200043843504 1 0
22.935116 21.792841 -1.2889553 14 3200043843504 1 0
24.53057 17.259035 -1.0474037 12 3200043845808 1 0
21.918432 18.872248 7.7500777 16 3200043845808 1 0
22.927988 17.862614 5.2992735 39 3200043848112 1 0
26.40692 22.73058 -0.81076694 15 3200043848112 1 0
0 0 0 4 3200043868296 1 0
23.211168 21.980427 -0.55798835 13 3200043868296 1 0
22.576023 17.531754 -0.83187294 87 3200043870600 1 0
4.855542 4.16636 -1.7910587 5 3200043870600 1 0
7.1012187 5.512903 -1.7980033 2 3200043872904 1 0
23.040392 19.764286 0 68 3200043872904 1 0
27.726248 19.424948 -0.3941205 45 3200043875208 1 0
8.721904 7.479537 -1.7875428 4 3200043875208 1 0
11.198362 8.688428 -1.8041204 3 3200043877512 1 0
21.9543 20.76599 0.17563604 34 3200043877512 1 0
22.570116 17.506124 -0.1660115 100 3200043879816 1 0
12.586081 10.786941 -1.785522 3 3200043879816 1 0
15.433155 10.802398 -1.7585018 4 3200043882120 1 0
23.29466 19.958887 0.7138062 37 3200043882120 1 0
27.73099 19.404228 0.39402738 39 3200043884424 1 0
19.274094 16.509201 -1.7746047 8 3200043884424 1 0
17.407658 13.489792 -1.7978294 6 3200043886728 1 0
22.1173 20.895802 0.88551587 32 3200043886728 1 0
22.5804 17.493073 0.49858034 96 3200043889032 1 0
20.25322 19.129097 -1.7854387 6 3200043889032 1 0
24.022331 16.793556 -1.7069616 12 3200043891336 1 0
26.385937 22.58089 2.0225403 14 3200043891336 1 0
22.576525 17.479563 1.1632513 61 3200043893640 1 0
23.569548 20.164707 -1.4448844 14 3200043893640 1 0
22.598417 17.491257 -1.4976457 87 3200043895944 1 0
26.90092 23.008057 4.3463483 19 3200043895944 1 0
22.54748 17.446587 2.3273494 37 3200043898248 1 0
22.943329 21.644651 -1.2850474 9 3200043898248 1 0
26.706514 18.646896 -1.1374444 10 3200043900552 1 0
26.890814 22.98587 9.478989 6 3200043900552 1 0
23.020157 17.801628 5.305731 40 3200043902856 1 0
26.512892 22.656157 -0.8115114 70 3200043902856 1 0
0 0 0 4 3200043923592 1 0
27.969776 26.302137 -0.6701724 6 3200043923592 1 0
22.618084 17.438192 -0.83117473 87 3200043925896 1 0
4.8729877 4.1518836 -1.792137 1 3200043925896 1 0
7.120419 5.488082 -1.7980033 2 3200043928200 1 0
23.21582 19.77452 0 25 3200043928200 1 0
24.979689 17.371037 -0.35421488 69 3200043930504 1 0
8.735922 7.4387965 -1.7850832 5 3200043930504 1 0
11.219192 8.642021 -1.8026052 3 3200043932808 1 0
21.953766 20.620766 0.17505483 29 3200043932808 1 0
12.602456 10.724898 -1.7825233 3 3200043935112 1 0
22.61524 17.415031 -0.16589527 100 3200043935112 1 0
15.418436 10.712102 -1.7525533 4 3200043937416 1 0
23.616987 20.092525 0.72152954 28 3200043937416 1 0
24.966795 17.340528 0.35388893 42 3200043939720 1 0
19.322485 16.434065 -1.7737676 8 3200043939720 1 0
17.432522 13.411928 -1.7955512 6 3200043942024 1 0
22.111376 20.744606 0.8823741 32 3200043942024 1 0
22.615963 17.394638 0.49802187 77 3200043944328 1 0
20.31987 19.058283 -1.7854387 6 3200043944328 1 0
24.041435 16.682281 -1.704171 12 3200043946632 1 0
26.440254 22.467962 2.0206797 21 3200043946632 1 0
22.624727 17.390907 1.1625999 70 3200043948936 1 0
23.734194 20.162506 -1.4506543 14 3200043948936 1 0
22.6435 17.400097 -1.496599 87 3200043951240 1 0
26.185194 22.238108 4.2181416 12 3200043951240 1 0
22.62089 17.377491 2.3286512 41 3200043953544 1 0
22.986658 21.534376 -1.2832563 9 3200043953544 1 0
24.964336 17.301172 -1.0606655 17 3200043955848 1 0
0 0 0 38 3200043955848 1 0
23.107126 17.740335 5.311471 36 3200043958152 1 0
26.72293 22.674723 -0.81551266 30 3200043958152 1 0
0 0 0 4 3200043978888 1 0
27.92111 26.073324 -0.66682154 12 3200043978888 1 0
22.662943 17.346983 -0.83059293 92 3200043981192 1 0
4.899214 4.1448 -1.7964503 0 3200043981192 1 0
7.1395326 5.4631934 -1.7980033 2 3200043983496 1 0
23.28776 19.695946 0 42 3200043983496 1 0
24.964462 17.231478 -0.3531439 90 3200043985800 1 0
8.755798 7.4031534 -1.7838533 4 3200043985800 1 0
21.981735 20.503082 0.17470613 25 3200043988104 1 0
11.23353 8.590754 -1.8000798 3 3200043988104 1 0
22.663181 17.326265 -0.16580227 36 3200043990408 1 0
12.62159 10.6654415 -1.779953 5 3200043990408 1 0
15.432783 10.642389 -1.7499509 4 3200043992712 1 0
23.854994 20.151897 0.72664744 42 3200043992712 1 0
24.997534 17.232841 0.35346985 42 3200043995016 1 0
19.358393 16.348495 -1.7718145 8 3200043995016 1 0
17.44755 13.326796 -1.7922966 6 3200043997320 1 0
22.16025 20.645493 0.8814432 36 3200043997320 1 0
22.66701 17.308306 0.49781245 100 3200043999624 1 0
20.32493 18.930103 -1.7800663 9 3200043999624 1 0
24.037037 16.555223 -1.6997524 12 3200044001928 1 0
26.491055 22.352354 2.0185869 14 3200044001928 1 0
22.672586 17.302128 1.1619486 74 3200044004232 1 0
23.896055 20.156824 -1.456238 14 3200044004232 1 0
22.691395 17.311258 -1.4957616 91 3200044006536 1 0
33.194813 27.992258 5.33154 9 3200044006536 1 0
22.66556 17.286335 2.327024 41 3200044008840 1 0
23.03535 21.429506 -1.2817909 9 3200044008840 1 0
25.034458 17.22072 -1.0610843 65 3200044011144 1 0
22.9499 19.341589 8.042026 9 3200044011144 1 0
23.193949 17.678652 5.3172107 40 3200044013448 1 0
26.798859 22.578728 -0.8154196 10 3200044013448 1 0
0 0 0 4 3200044034184 1 0
28.847736 26.75073 -0.6867173 6 3200044034184 1 0
0 0 0 1 3200044036488 1 0
22.701073 17.250835 -0.8297784 87 3200044036488 1 0
7.155436 5.435866 -1.7972188 2 3200044038792 1 0
23.374748 19.62997 0 25 3200044038792 1 0
25.149845 17.230131 -0.35491335 45 3200044041096 1 0
8.77856 7.370003 -1.7832384 6 3200044041096 1 0
11.253968 8.544291 -1.7985646 3 3200044043400 1 0
22.05904 20.431664 0.17475262 21 3200044043400 1 0
22.704407 17.232542 -0.16566278 90 3200044045704 1 0
12.643509 10.608538 -1.777811 5 3200044045704 1 0
15.440259 10.568209 -1.7466049 4 3200044048008 1 0
0 0 0 1 3200044048008 1 0
25.153263 17.21098 0.35482022 23 3200044050312 1 0
19.381708 16.252619 -1.7687452 8 3200044050312 1 0
17.455841 13.236904 -1.7883911 6 3200044052616 1 0
22.27327 20.606028 0.88307226 29 3200044052616 1 0
20.370369 18.840069 -1.7782754 9 3200044054920 1 0
22.717726 17.22183 0.497603 81 3200044054920 1 0
24.068306 16.45319 -1.697892 12 3200044057224 1 0
57.518032 48.189278 4.3699613 28 3200044057224 1 0
22.720102 17.213226 1.1612973 78 3200044059528 1 0
24.07348 20.163084 -1.4627525 14 3200044059528 1 0
22.096458 18.501734 3.5385983 8 3200044061832 1 0
22.70987 17.195078 2.3253965 46 3200044064136 1 0
22.735764 17.219887 -1.4947149 83 3200044061832 1 0
23.104143 21.343544 -1.2814652 14 3200044064136 1 0
25.216572 17.21663 -1.0662494 48 3200044066440 1 0
23.26493 17.604706 5.319363 54 3200044068744 1 0
0 0 0 96 3200044066440 1 0
31.395435 26.264626 -0.95248604 6 3200044068744 1 0
0 0 0 4 3200044089480 1 0
22.312502 20.546164 -0.52943623 8 3200044089480 1 0
22.745192 17.159449 -0.8291966 92 3200044091784 1 0
0 0 0 1 3200044091784 1 0
7.1649723 5.40377 -1.7948655 2 3200044094088 1 0
22.112911 18.439045 0 100 3200044094088 1 0
25.36529 17.247942 -0.35710186 48 3200044096392 1 0
8.7920885 7.3291926 -1.7807788 5 3200044096392 1 0
11.274219 8.49779 -1.7970494 3 3200044098696 1 0
22.068401 20.297674 0.17426442 41 3200044098696 1 0
22.751642 17.143555 -0.1655698 79 3200044101000 1 0
12.649908 10.538882 -1.7735271 5 3200044101000 1 0
15.457289 10.500819 -1.7443743 4 3200044103304 1 0
0 0 0 40 3200044103304 1 0
25.279364 17.168016 0.3557515 7 3200044105608 1 0
19.416859 16.166992 -1.7667919 8 3200044105608 1 0
17.47009 13.151914 -1.7851366 6 3200044107912 1 0
22.324451 20.509218 0.8822577 32 3200044107912 1 0
22.755335 17.125591 0.49711433 75 3200044110216 1 0
20.318409 18.660841 -1.7680422 9 3200044110216 1 0
24.099155 16.35114 -1.6960316 12 3200044112520 1 0
0 0 0 54 3200044112520 1 0
22.767273 17.124203 1.160646 74 3200044114824 1 0
22.770191 17.121214 -1.4930402 78 3200044117128 1 0
22.140701 18.413137 -1.3413992 72 3200044114824 1 0
22.757006 17.10612 2.3240948 40 3200044119432 1 0
23.190285 21.273573 -1.2821165 14 3200044119432 1 0
0 0 0 35 3200044117128 1 0
25.428743 17.23166 -1.0726709 49 3200044121736 1 0
22.576204 18.758663 7.864993 17 3200044121736 1 0
23.348265 17.539934 5.324385 67 3200044124040 1 0
0 0 0 81 3200044124040 1 0
0 0 0 4 3200044144776 1 0
28.886213 26.413742 -0.6832268 13 3200044144776 1 0
22.79215 17.070362 -0.8287311 90 3200044147080 1 0
0 0 0 1 3200044147080 1 0
7.1806517 5.376376 -1.794081 2 3200044149384 1 0
22.155575 18.343887 0 36 3200044149384 1 0
25.561272 17.251034 -0.359011 45 3200044151688 1 0
8.808484 7.290897 -1.778934 5 3200044151688 1 0
11.287928 8.446497 -1.794524 3 3200044153992 1 0
22.118444 20.201635 0.17410168 28 3200044153992 1 0
22.798534 17.05445 -0.16547681 79 3200044156296 1 0
12.67436 10.484522 -1.7718135 5 3200044156296 1 0
15.477339 10.435667 -1.7425154 4 3200044158600 1 0
22.169489 18.33368 0.6694201 87 3200044158600 1 0
25.35572 17.090847 0.35598433 7 3200044160904 1 0
19.463947 16.09149 -1.7659549 8 3200044160904 1 0
17.490345 13.071758 -1.7825329 6 3200044163208 1 0
22.372276 20.409609 0.8813268 36 3200044163208 1 0
22.80216 17.03648 0.4968351 78 3200044165512 1 0
20.333284 18.544075 -1.7636931 9 3200044165512 1 0
24.116339 16.240152 -1.6932409 12 3200044167816 1 0
22.810896 17.032671 1.1598319 78 3200044170120 1 0
22.16402 18.307455 1.6741712 78 3200044167816 1 0
22.820213 17.034458 -1.4924121 83 3200044172424 1 0
22.20176 18.333195 -1.3412131 100 3200044170120 1 0
22.157728 18.291416 3.5278738 78 3200044172424 1 0
22.79741 17.012272 2.3221421 40 3200044174728 1 0
23.243721 21.173653 -1.2809767 14 3200044174728 1 0
25.631374 17.238724 -1.0786736 45 3200044177032 1 0
22.66837 18.701872 7.8743105 8 3200044177032 1 0
23.462975 17.49832 5.336582 18 3200044179336 1 0
22.196554 18.307188 -0.66951317 39 3200044179336 1 0
0 0 0 4 3200044200072 1 0
0 0 0 29 3200044200072 1 0
22.841972 16.983541 -0.8283821 85 3200044202376 1 0
0 0 0 1 3200044202376 1 0
7.2025228 5.353618 -1.7948655 2 3200044204680 1 0
25.764227 17.257416 -0.36101326 43 3200044206984 1 0
22.204021 18.253738 0 36 3200044204680 1 0
8.82472 7.252577 -1.7770894 6 3200044206984 1 0
11.301416 8.395213 -1.7919986 3 3200044209288 1 0
22.197716 20.132366 0.17417143 20 3200044209288 1 0
22.845081 16.965223 -0.16538382 83 3200044211592 1 0
12.680149 10.414974 -1.7675297 5 3200044211592 1 0
15.493812 10.368287 -1.7402847 4 3200044213896 1 0
22.211716 18.238419 0.66876876 79 3200044213896 1 0
25.355385 16.962204 0.35514617 7 3200044216200 1 0
19.49841 16.005728 -1.7640017 8 3200044216200 1 0
17.481438 12.9702425 -1.7770001 6 3200044218504 1 0
22.502647 20.385078 0.88365406 32 3200044218504 1 0
22.839005 16.940104 0.49634644 78 3200044220808 1 0
20.391973 18.467627 -1.7631814 9 3200044220808 1 0
24.06996 16.087086 -1.6860316 8 3200044223112 1 0
22.212353 18.217316 1.6730084 64 3200044223112 1 0
22.857368 16.943422 1.1591805 78 3200044225416 1 0
22.860281 16.940428 -1.4911561 83 3200044227720 1 0
22.24399 18.23785 -1.3399103 100 3200044225416 1 0
22.193808 18.191309 3.5234864 61 3200044227720 1 0
22.850246 16.927845 2.3214912 45 3200044230024 1 0
23.270065 21.04949 -1.2783715 14 3200044230024 1 0
25.834362 17.244583 -1.0846764 45 3200044232328 1 0
22.679714 18.57856 7.8556757 8 3200044232328 1 0
23.701021 17.547438 5.376761 4 3200044234632 1 0
22.247948 18.219461 -0.66914093 38 3200044234632 1 0
0 0 0 4 3200044255368 1 0
23.007614 20.745253 -0.5407454 8 3200044255368 1 0
22.888248 16.894207 -0.8279166 90 3200044257672 1 0
0 0 0 1 3200044257672 1 0
7.2085423 5.3191285 -1.7917275 2 3200044259976 1 0
22.245913 18.158415 0 37 3200044259976 1 0
25.984192 17.273663 -0.36324835 46 3200044262280 1 0
8.84692 7.2192297 -1.7764744 7 3200044262280 1 0
22.258938 20.046728 0.17410168 28 3200044264584 1 0
11.321072 8.348647 -1.7904834 3 3200044264584 1 0
22.888063 16.873508 -0.16526757 87 3200044266888 1 0
12.694853 10.353054 -1.764531 3 3200044266888 1 0
15.476827 10.278886 -1.7343363 4 3200044269192 1 0
22.259748 18.14814 0.6683035 83 3200044269192 1 0
19.517044 15.907316 -1.7606534 8 3200044271496 1 0
25.271156 16.778463 0.3531439 7 3200044271496 1 0
17.491297 12.883134 -1.7734201 6 3200044273800 1 0
22.621227 20.34919 0.88551587 39 3200044273800 1 0
22.891556 16.855536 0.49620682 78 3200044276104 1 0
20.441473 18.382986 -1.7619023 9 3200044276104 1 0
24.042776 15.947784 -1.6802177 8 3200044278408 1 0
22.257229 18.12454 1.6716131 69 3200044278408 1 0
22.903498 16.854055 1.1585292 78 3200044280712 1 0
22.292023 18.147482 -1.3389796 97 3200044280712 1 0
22.906403 16.851059 -1.4903187 78 3200044283016 1 0
22.241774 18.101198 3.521049 61 3200044283016 1 0
22.889927 16.833807 2.3195384 45 3200044285320 1 0
23.313667 20.941427 -1.2767432 14 3200044285320 1 0
26.041035 17.25144 -1.0908186 46 3200044287624 1 0
0 0 0 100 3200044289928 1 0
23.074142 18.767456 7.969556 13 3200044287624 1 0
0 0 0 4 3200044310664 1 0
0 0 0 43 3200044310664 1 0
22.292793 18.126554 -0.6685827 35 3200044289928 1 0
22.93406 16.804922 -0.82745117 90 3200044312968 1 0
0 0 0 1 3200044312968 1 0
7.233317 5.2986746 -1.7932965 2 3200044315272 1 0
22.293362 18.068382 0 38 3200044315272 1 0
26.19419 17.282547 -0.36534375 46 3200044317576 1 0
8.862697 7.181033 -1.7746297 5 3200044317576 1 0
11.3435 8.304721 -1.7894733 3 3200044319880 1 0
22.363976 20.001554 0.17438066 29 3200044319880 1 0
22.926847 16.780172 -0.1651281 83 3200044322184 1 0
12.708904 10.291621 -1.7615323 3 3200044322184 1 0
15.485565 10.20794 -1.7313621 4 3200044324488 1 0
22.300417 18.053688 0.66765213 87 3200044324488 1 0
19.54373 15.817495 -1.7581421 8 3200044326792 1 0
25.315361 16.682634 0.35295764 3 3200044326792 1 0
17.49358 12.792427 -1.7691891 6 3200044329096 1 0
22.765486 20.338017 0.88842493 36 3200044329096 1 0
22.929783 16.762867 0.49578795 82 3200044331400 1 0
20.412024 18.230433 -1.7539716 9 3200044331400 1 0
24.05045 15.834772 -1.6769619 11 3200044333704 1 0
22.309732 18.040829 1.6709155 64 3200044333704 1 0
22.93503 16.756979 1.1572266 83 3200044336008 1 0
22.328928 18.051249 -1.3374907 100 3200044336008 1 0
22.95717 16.76829 -1.4899 74 3200044338312 1 0
22.284723 18.010422 3.518124 61 3200044338312 1 0
22.937305 16.74892 2.318562 40 3200044340616 1 0
23.327988 20.811579 -1.2736493 13 3200044340616 1 0
26.249651 17.261932 -1.0971006 46 3200044342920 1 0
0 0 0 58 3200044345224 1 0
0 0 0 67 3200044342920 1 0
22.335295 18.035992 -0.66802436 35 3200044345224 1 0
0 0 0 4 3200044365960 1 0
23.246906 20.675877 -0.5430491 8 3200044365960 1 0
22.970383 16.714497 -0.82675296 90 3200044368264 1 0
7.2414093 5.267631 -1.7909431 2 3200044370568 1 0
0 0 0 1 3200044368264 1 0
22.334723 17.978981 0 37 3200044370568 1 0
26.408987 17.29802 -0.36753228 46 3200044372872 1 0
8.877379 7.143976 -1.772785 5 3200044372872 1 0
11.358379 8.257395 -1.7874529 3 3200044375176 1 0
22.574297 20.054144 0.17549655 34 3200044375176 1 0
22.989445 16.707918 -0.16517459 68 3200044377480 1 0
12.72784 10.236494 -1.7593904 17 3200044377480 1 0
15.496446 10.14059 -1.7287596 4 3200044379784 1 0
22.351597 17.971146 0.66737294 79 3200044379784 1 0
25.281015 16.538183 0.3517004 7 3200044382088 1 0
19.581327 15.739102 -1.756747 8 3200044382088 1 0
22.929686 20.346003 0.8921485 36 3200044384392 1 0
17.510838 12.714587 -1.7665855 6 3200044384392 1 0
23.054306 16.73457 0.49725395 58 3200044386696 1 0
24.077232 15.735701 -1.6751015 11 3200044389000 1 0
22.348948 17.947618 1.6692876 64 3200044389000 1 0
22.988571 16.676647 1.1570637 17 3200044391304 1 0
20.58703 18.261965 -1.7636931 9 3200044386696 1 0
22.37141 17.960304 -1.3363739 100 3200044391304 1 0
22.997938 16.678335 -1.4888533 83 3200044393608 1 0
22.321121 17.914595 3.5142243 61 3200044393608 1 0
26.070316 18.90067 2.6287234 12 3200044395912 1 0
23.422764 20.753098 -1.274952 14 3200044395912 1 0
26.462486 17.272623 -1.1035221 47 3200044398216 1 0
23.285744 18.67765 7.9985437 13 3200044398216 1 0
25.553427 18.514593 5.7534356 15 3200044400520 1 0
22.381342 17.946875 -0.6675591 38 3200044400520 1 0
0 0 0 4 3200044421256 1 0
23.543764 20.793163 -0.5482848 13 3200044421256 1 0
0 0 0 18 3200044423560 1 0
0 0 0 1 3200044423560 1 0
7.250289 5.2353277 -1.7885897 2 3200044425864 1 0
22.378857 17.8856 0 39 3200044425864 1 0
26.61714 17.301064 -0.3695811 46 3200044428168 1 0
8.890066 7.102882 -1.7703253 6 3200044428168 1 0
11.374502 8.208077 -1.7854327 3 3200044430472 1 0
22.602747 19.937521 0.17517108 29 3200044430472 1 0
0 0 0 47 3200044432776 1 0
12.74211 10.174169 -1.7563916 6 3200044432776 1 0
15.502127 10.0662365 -1.7254137 4 3200044435080 1 0
22.396221 17.877068 0.6668146 79 3200044435080 1 0
25.664852 16.659786 0.35621715 7 3200044437384 1 0
19.605755 15.644767 -1.7539568 8 3200044437384 1 0
17.523506 12.629054 -1.7633308 6 3200044439688 1 0
23.070747 20.325293 0.8948248 39 3200044439688 1 0
23.311611 16.795088 0.50151235 38 3200044441992 1 0
20.63387 18.17281 -1.7621582 9 3200044441992 1 0
24.062792 15.604178 -1.6702178 7 3200044444296 1 0
22.397148 17.85542 1.6681248 64 3200044444296 1 0
25.39623 18.285194 1.274952 15 3200044446600 1 0
22.429148 17.87533 -1.3360016 100 3200044446600 1 0
0 0 0 17 3200044448904 1 0
22.369549 17.822247 3.511787 61 3200044448904 1 0
26.011703 18.71627 2.6160305 17 3200044451208 1 0
23.536028 20.703304 -1.2770689 14 3200044451208 1 0
26.672003 17.273058 -1.1096644 47 3200044453512 1 0
23.262014 18.521677 7.9674854 8 3200044453512 1 0
31.901083 22.939087 7.1639924 7 3200044455816 1 0
22.433285 17.85623 -0.66718686 37 3200044455816 1 0
0 0 0 4 3200044476552 1 0
23.673948 20.754187 -0.54954135 27 3200044476552 1 0
26.274282 18.832222 -0.94078785 11 3200044478856 1 0
0 0 0 1 3200044478856 1 0
7.2694287 5.208719 -1.7885897 2 3200044481160 1 0
22.437992 17.798485 0 37 3200044481160 1 0
26.835003 17.303095 -0.37172306 48 3200044483464 1 0
8.912943 7.067795 -1.7697104 5 3200044483464 1 0
11.394832 8.159402 -1.7839174 3 3200044485768 1 0
22.651594 19.833464 0.1749851 38 3200044485768 1 0
26.306225 18.830803 -0.18802702 30 3200044488072 1 0
12.757497 10.110107 -1.7533929 3 3200044488072 1 0
15.535568 10.0071945 -1.7250419 4 3200044490376 1 0
22.455324 17.789896 0.66662854 83 3200044490376 1 0
25.99813 16.741009 0.35998887 8 3200044492680 1 0
19.65358 15.5653715 -1.7531197 8 3200044492680 1 0
17.534004 12.539233 -1.7597508 6 3200044494984 1 0
22.970522 20.087936 0.8880758 39 3200044494984 1 0
23.486883 16.790941 0.50395566 42 3200044497288 1 0
20.586136 17.997221 -1.7524366 9 3200044497288 1 0
24.076164 15.487794 -1.6671946 7 3200044499592 1 0
22.449915 17.7633 1.6671946 69 3200044499592 1 0
26.36388 18.835564 1.3200557 39 3200044501896 1 0
22.478844 17.780607 -1.335071 97 3200044501896 1 0
25.273272 18.050554 -1.6276482 15 3200044504200 1 0
22.416037 17.725363 3.508862 56 3200044504200 1 0
26.401342 18.850151 2.6482508 18 3200044506504 1 0
23.54853 20.561699 -1.2736493 13 3200044506504 1 0
26.89321 17.276735 -1.1162255 48 3200044508808 1 0
0 0 0 67 3200044508808 1 0
23.688398 16.90223 5.305731 9 3200044511112 1 0
22.473478 17.754057 -0.66644245 36 3200044511112 1 0
0 0 0 4 3200044532296 1 0
24.31032 17.303066 -0.86841065 14 3200044534600 1 0
23.845188 20.764868 -0.55191493 36 3200044532296 1 0
0 0 0 1 3200044534600 1 0
7.28339 5.182416 -1.7878052 2 3200044536904 1 0
22.477781 17.709455 0 36 3200044536904 1 0
27.050184 17.31595 -0.3739116 58 3200044539208 1 0
8.929968 7.033503 -1.7684805 5 3200044539208 1 0
11.411889 8.115005 -1.7824023 3 3200044541512 1 0
22.761936 19.798277 0.17533381 29 3200044541512 1 0
26.377623 18.751375 -0.18809678 17 3200044543816 1 0
12.762462 10.046073 -1.7495373 3 3200044543816 1 0
15.534681 9.934843 -1.7213242 2 3200044546120 1 0
22.491423 17.699005 0.6659772 79 3200044546120 1 0
26.096464 16.684038 0.36059418 12 3200044548424 1 0
19.691755 15.491246 -1.7520036 8 3200044548424 1 0
17.54876 12.463573 -1.7571472 6 3200044550728 1 0
23.398045 20.327663 0.9020393 26 3200044550728 1 0
23.66526 16.802488 0.5066084 48 3200044553032 1 0
20.632475 17.919737 -1.7514132 9 3200044553032 1 0
24.079155 15.379532 -1.6639388 7 3200044555336 1 0
22.485434 17.673119 1.6655667 60 3200044555336 1 0
24.850363 17.633049 1.2414092 9 3200044557640 1 0
22.523699 17.697895 -1.3343265 97 3200044557640 1 0
24.347488 17.2709 -1.5644264 13 3200044559944 1 0
22.445053 17.63082 3.5044749 48 3200044559944 1 0
26.289574 18.642775 2.6310017 18 3200044562248 1 0
23.52106 20.404541 -1.2686017 13 3200044562248 1 0
27.090155 17.280497 -1.1220887 58 3200044564552 1 0
27.53421 21.615458 9.379602 12 3200044564552 1 0
25.39916 18.000252 5.675948 15 3200044566856 1 0
22.505135 17.662142 -0.665698 100 3200044566856 1 0
0 0 0 4 3200044587592 1 0
22.919199 19.81825 -0.52887774 8 3200044587592 1 0
24.501192 17.310387 -0.8730651 15 3200044589896 1 0
0 0 0 1 3200044589896 1 0
7.298232 5.154698 -1.7870208 2 3200044592200 1 0
22.52686 17.621027 0 33 3200044592200 1 0
8.945125 6.9949846 -1.7666359 5 3200044594504 1 0
27.238758 17.302917 -0.37568104 52 3200044594504 1 0
11.433662 8.070543 -1.7813921 3 3200044596808 1 0
22.867231 19.750076 0.17561278 17 3200044596808 1 0
26.580181 18.756046 -0.18907318 30 3200044599112 1 0
12.766116 9.976974 -1.7452534 3 3200044599112 1 0
15.515463 9.846412 -1.7153758 4 3200044601416 1 0
22.48374 17.566223 0.66393 36 3200044601416 1 0
26.289639 16.678549 0.36245677 8 3200044603720 1 0
19.73942 15.417502 -1.7514455 8 3200044603720 1 0
17.559576 12.37927 -1.7538925 6 3200044606024 1 0
23.517298 20.287653 0.9039011 33 3200044606024 1 0
23.847992 16.80733 0.5092612 36 3200044608328 1 0
24.028135 15.229116 -1.6567296 7 3200044610632 1 0
20.667694 17.824144 -1.7491108 9 3200044608328 1 0
22.528097 17.579782 1.6641713 55 3200044610632 1 0
26.653364 18.772865 1.3281971 17 3200044612936 1 0
22.560137 17.599504 -1.3328375 100 3200044612936 1 0
24.600327 17.321491 -1.5767777 19 3200044615240 1 0
22.475151 17.527948 3.4996002 61 3200044615240 1 0
26.35449 18.550892 2.6310017 6 3200044617544 1 0
23.577002 20.30927 -1.2677876 13 3200044617544 1 0
27.305685 17.28418 -1.1285101 50 3200044619848 1 0
27.618635 21.526339 9.382708 18 3200044619848 1 0
26.672007 18.762793 5.9457192 5 3200044622152 1 0
22.554031 17.573645 -0.6653258 36 3200044622152 1 0
0 0 0 4 3200044642888 1 0
26.586977 22.828072 -0.6116719 16 3200044642888 1 0
27.736813 19.451601 -0.9859364 25 3200044645192 1 0
0 0 0 1 3200044645192 1 0
7.3161807 5.129191 -1.7870208 2 3200044647496 1 0
22.562958 17.522657 0 34 3200044647496 1 0
27.552761 17.367693 -0.37917337 55 3200044649800 1 0
8.966365 6.961294 -1.7660209 4 3200044649800 1 0
11.4422655 8.016922 -1.7783617 3 3200044652104 1 0
22.94818 19.68055 0.17570578 38 3200044652104 1 0
24.935303 17.465294 -0.1769379 68 3200044654408 1 0
12.785153 9.92016 -1.7431116 3 3200044654408 1 0
15.539628 9.785827 -1.7142603 4 3200044656712 1 0
22.535442 17.48028 0.6636509 90 3200044656712 1 0
26.493246 16.678307 0.36445904 8 3200044659016 1 0
19.783657 15.341169 -1.7506084 8 3200044659016 1 0
17.573282 12.297328 -1.7509634 6 3200044661320 1 0
24.076859 20.624218 0.9226354 31 3200044661320 1 0
24.047432 16.822561 0.51226306 36 3200044663624 1 0
20.738882 17.759682 -1.7498783 9 3200044663624 1 0
24.006783 15.098379 -1.6516134 11 3200044665928 1 0
22.567228 17.483917 1.6625434 55 3200044665928 1 0
25.873636 18.088888 1.2861873 21 3200044668232 1 0
22.59932 17.503521 -1.3315346 97 3200044668232 1 0
25.017519 17.48494 -1.5995961 40 3200044670536 1 0
22.504807 17.425083 3.4947252 65 3200044670536 1 0
24.4419 17.077345 2.4340997 9 3200044672840 1 0
23.684196 20.25802 -1.2697415 13 3200044672840 1 0
27.623127 17.350357 -1.1391196 56 3200044675144 1 0
27.782223 21.498371 9.412731 12 3200044675144 1 0
26.579245 18.559185 5.910563 5 3200044677448 1 0
22.599422 17.482576 -0.66486055 36 3200044677448 1 0
0 0 0 4 3200044698184 1 0
24.110022 20.555544 -0.55303186 9 3200044698184 1 0
24.962723 17.37648 -0.88516676 87 3200044700488 1 0
0 0 0 1 3200044700488 1 0
7.3340406 5.1036215 -1.7870208 2 3200044702792 1 0
22.60498 17.429138 0 35 3200044702792 1 0
27.74886 17.35625 -0.38103592 42 3200044705096 1 0
8.978088 6.9203014 -1.7635614 5 3200044705096 1 0
11.460407 7.9701357 -1.7768464 3 3200044707400 1 0
23.232956 19.784452 0.17735636 29 3200044707400 1 0
24.963274 17.355312 -0.17670542 88 3200044709704 1 0
12.791348 9.853628 -1.739256 3 3200044709704 1 0
15.543295 9.712529 -1.7109144 4 3200044712008 1 0
22.599491 17.40395 0.6637439 79 3200044712008 1 0
26.632717 16.636583 0.36557657 4 3200044714312 1 0
19.80547 15.247677 -1.7478182 8 3200044714312 1 0
17.583357 12.213167 -1.7477089 6 3200044716616 1 0
26.454235 22.501053 1.0107216 8 3200044716616 1 0
24.23741 16.82976 0.5150554 36 3200044718920 1 0
20.68823 17.591505 -1.7404126 8 3200044718920 1 0
24.035625 14.999689 -1.6499854 11 3200044721224 1 0
22.624956 17.402601 1.6623108 64 3200044721224 1 0
26.83631 18.622791 1.3308024 17 3200044723528 1 0
22.644444 17.41235 -1.330604 100 3200044723528 1 0
24.979939 17.329199 -1.5933158 53 3200044725832 1 0
22.603266 17.375456 3.500575 61 3200044725832 1 0
24.665165 17.10552 2.4503725 5 3200044728136 1 0
23.797415 20.211447 -1.272021 13 3200044728136 1 0
27.81244 17.334177 -1.1444243 15 3200044730440 1 0
24.201849 18.593113 8.177647 13 3200044730440 1 0
22.647625 17.393839 -0.6644883 39 3200044732744 1 0
24.441332 16.939764 5.421962 9 3200044732744 1 0
0 0 0 4 3200044753480 1 0
24.239624 20.520357 -0.55435824 4 3200044753480 1 0
24.983753 17.261965 -0.8837704 61 3200044755784 1 0
0 0 0 1 3200044755784 1 0
7.345356 5.073531 -1.7854518 2 3200044758088 1 0
22.652975 17.3404 0 35 3200044758088 1 0
27.938414 17.339432 -0.38280538 6 3200044760392 1 0
8.995912 6.8841157 -1.7623315 6 3200044760392 1 0
11.475097 7.9210663 -1.7748262 3 3200044762696 1 0
23.286604 19.69032 0.17724012 34 3200044762696 1 0
25.03358 17.274885 -0.17677517 60 3200044765000 1 0
12.81303 9.799254 -1.7375425 3 3200044765000 1 0
15.55341 9.643522 -1.708312 2 3200044767304 1 0
22.65375 17.3201 0.6635578 72 3200044767304 1 0
19.845892 15.168757 -1.7467021 8 3200044769608 1 0
17.547108 12.097406 -1.7398978 6 3200044771912 1 0
29.757109 18.444199 0.4075776 4 3200044769608 1 0
29.184046 24.647882 1.1117239 14 3200044771912 1 0
24.43761 16.842646 0.5180572 33 3200044774216 1 0
24.064072 14.900982 -1.6483575 11 3200044776520 1 0
20.74951 17.519182 -1.7404126 8 3200044774216 1 0
22.669697 17.311403 1.6611481 69 3200044776520 1 0
28.5403 19.658018 1.4118913 13 3200044778824 1 0
22.68603 17.318653 -1.3294873 100 3200044778824 1 0
25.023827 17.230572 -1.5922692 39 3200044781128 1 0
22.648 17.284407 3.4981377 65 3200044781128 1 0
25.463608 17.527931 2.5236006 10 3200044783432 1 0
23.950314 20.197823 -1.2764175 14 3200044783432 1 0
29.722351 18.380795 -1.2203656 5 3200044785736 1 0
24.146791 18.417135 8.137271 13 3200044785736 1 0
26.221853 18.038631 5.8029413 10 3200044788040 1 0
22.695482 17.30498 -0.66411614 36 3200044788040 1 0
0 0 0 4 3200044808776 1 0
0 0 0 94 3200044808776 1 0
25.165861 17.25832 -0.8880758 46 3200044811080 1 0
0 0 0 1 3200044811080 1 0
7.356551 5.0434246 -1.7838829 2 3200044813384 1 0
22.69426 17.246698 0 33 3200044813384 1 0
0 0 0 12 3200044815688 1 0
11.496129 7.876477 -1.773816 3 3200044817992 1 0
54.27693 45.570663 0.41190195 60 3200044817992 1 0
9.01674 6.8502812 -1.7617166 6 3200044815688 1 0
25.229033 17.28007 -0.17772833 56 3200044820296 1 0
12.821818 9.7352295 -1.7341154 3 3200044820296 1 0
15.559839 9.572477 -1.7053378 4 3200044822600 1 0
22.7077 17.236082 0.6633717 79 3200044822600 1 0
0 0 0 86 3200044824904 1 0
19.882826 15.08733 -1.745307 8 3200044824904 1 0
17.513554 11.9843 -1.7324123 6 3200044827208 1 0
0 0 0 43 3200044827208 1 0
24.62829 16.847563 0.52084965 24 3200044829512 1 0
20.822773 17.456903 -1.7414359 8 3200044829512 1 0
24.092123 14.8022585 -1.6467296 11 3200044831816 1 0
22.70771 17.215279 1.6595203 74 3200044831816 1 0
25.302788 17.298166 1.2487365 20 3200044834120 1 0
22.733606 17.229704 -1.3287427 99 3200044834120 1 0
22.689209 17.19086 3.4952128 65 3200044836424 1 0
0 0 0 34 3200044838728 1 0
25.195948 17.21975 -1.5993868 30 3200044836424 1 0
22.24647 18.62844 -1.1821394 32 3200044838728 1 0
28.85274 17.704079 -1.1821158 5 3200044841032 1 0
0 0 0 28 3200044841032 1 0
24.50375 16.730997 5.409765 13 3200044843336 1 0
22.73343 17.208757 -0.6634648 36 3200044843336 1 0
22.125525 18.467028 -0.5030482 86 3200044864072 1 0
0 0 0 4 3200044864072 1 0
25.368076 17.267109 -0.8930794 46 3200044866376 1 0
0 0 0 1 3200044866376 1 0
7.370868 5.015508 -1.7830985 2 3200044868680 1 0
0 0 0 28 3200044870984 1 0
9.037441 6.8163853 -1.7611017 4 3200044870984 1 0
22.74155 17.15774 0 93 3200044868680 1 0
11.500585 7.820681 -1.7702805 2 3200044873288 1 0
0 0 0 52 3200044873288 1 0
25.438053 17.293093 -0.17877446 56 3200044875592 1 0
12.833491 9.673656 -1.7311167 3 3200044875592 1 0
15.5727625 9.505654 -1.7031071 4 3200044877896 1 0
22.754951 17.147087 0.6629995 68 3200044877896 1 0
0 0 0 21 3200044880200 1 0
19.92262 15.008229 -1.7441908 8 3200044880200 1 0
17.519003 11.898454 -1.7288324 6 3200044882504 1 0
22.104124 18.405573 0.8371092 97 3200044882504 1 0
24.835846 16.862585 0.52399105 25 3200044884808 1 0
20.892786 17.391775 -1.7422034 8 3200044884808 1 0
22.754904 17.126303 1.65859 69 3200044887112 1 0
25.25057 17.13344 1.2432003 14 3200044889416 1 0
24.041357 14.655716 -1.639753 11 3200044887112 1 0
22.774454 17.13583 -1.327626 94 3200044889416 1 0
25.411272 17.237085 -1.609226 35 3200044891720 1 0
30.277433 20.53149 2.9864016 7 3200044894024 1 0
22.736387 17.102009 3.4932628 65 3200044891720 1 0
22.145407 18.412691 -1.1733466 32 3200044894024 1 0
29.795315 18.139585 -1.218132 11 3200044896328 1 0
24.009176 18.04845 8.048237 9 3200044896328 1 0
25.992073 17.6145 5.7247367 15 3200044898632 1 0
22.780575 17.119688 -0.66309255 35 3200044898632 1 0
0 0 0 4 3200044919368 1 0
25.570534 17.274883 -0.898083 52 3200044921672 1 0
22.112867 18.325882 -0.5013029 48 3200044919368 1 0
0 0 0 1 3200044921672 1 0
7.385008 4.987661 -1.782314 2 3200044923976 1 0
22.785048 17.066593 0 93 3200044923976 1 0
9.048377 6.7755184 -1.7586421 6 3200044926280 1 0
29.366486 17.80337 -0.39980137 3 3200044926280 1 0
11.514432 7.7719445 -1.7682602 3 3200044928584 1 0
22.144476 18.331442 0.1670809 85 3200044928584 1 0
25.636896 17.299088 -0.17975086 49 3200044930888 1 0
12.847726 9.61497 -1.7285464 3 3200044930888 1 0
15.547524 9.416842 -1.6967869 4 3200044933192 1 0
22.794712 17.054174 0.6624412 63 3200044933192 1 0
29.362637 17.77885 0.3996151 4 3200044935496 1 0
19.964542 14.932443 -1.7433538 8 3200044935496 1 0
17.526684 11.815964 -1.7255777 6 3200044937800 1 0
22.139439 18.306662 0.83606195 87 3200044937800 1 0
25.046015 16.880238 0.5272023 29 3200044940104 1 0
24.06739 14.5589905 -1.6381251 11 3200044942408 1 0
20.91839 17.292133 -1.7393893 8 3200044940104 1 0
22.80371 17.041258 1.6578923 69 3200044942408 1 0
25.315489 17.051683 1.243526 9 3200044944712 1 0
22.819962 17.048489 -1.3268815 94 3200044944712 1 0
25.605639 17.241976 -1.617809 35 3200044947016 1 0
22.775375 17.010275 3.490338 63 3200044947016 1 0
30.241154 20.357306 2.975987 7 3200044949320 1 0
22.186237 18.319565 -1.1722069 96 3200044949320 1 0
29.822401 18.017838 -1.2167361 11 3200044951624 1 0
24.039238 17.943872 8.037885 13 3200044951624 1 0
24.797726 16.68302 5.449226 14 3200044953928 1 0
22.825516 17.03299 -0.6627203 35 3200044953928 1 0
0 0 0 4 3200044974664 1 0
22.133375 18.21941 -0.5003954 56 3200044974664 1 0
25.780548 17.29226 -0.90343565 47 3200044976968 1 0
0 0 0 1 3200044976968 1 0
7.391806 4.956483 -1.7799605 2 3200044979272 1 0
29.439457 17.713495 -0.3999876 3 3200044981576 1 0
22.832136 16.983448 0 93 3200044979272 1 0
9.0646 6.740561 -1.7574122 6 3200044981576 1 0
11.540367 7.7333827 -1.7682602 3 3200044983880 1 0
22.190226 18.24456 0.16696465 81 3200044983880 1 0
25.86423 17.32658 -0.1809365 33 3200044986184 1 0
12.85116 9.550495 -1.7246909 3 3200044986184 1 0
15.562008 9.354295 -1.694928 4 3200044988488 1 0
22.84225 16.970339 0.662162 66 3200044988488 1 0
29.484041 17.716967 0.40045327 4 3200044990792 1 0
19.995487 14.850862 -1.7416797 8 3200044990792 1 0
17.526697 11.730147 -1.7216723 6 3200044993096 1 0
22.185637 18.219164 0.83548015 91 3200044993096 1 0
25.235914 16.884407 0.52999467 17 3200044995400 1 0
20.958233 17.2061 -1.7378542 8 3200044995400 1 0
24.096048 14.465014 -1.6367297 11 3200044997704 1 0
22.845295 16.951982 1.6567296 69 3200044997704 1 0
25.469603 17.030035 1.2482481 15 3200045000008 1 0
22.864893 16.961369 -1.3261371 94 3200045000008 1 0
25.80365 17.247963 -1.6266016 36 3200045002312 1 0
22.81719 16.92084 3.4879005 63 3200045002312 1 0
30.446316 20.34486 2.9893308 8 3200045004616 1 0
22.230047 18.228582 -1.1712298 92 3200045004616 1 0
29.746666 17.833582 -1.2111521 5 3200045006920 1 0
27.248013 20.194378 9.087654 11 3200045006920 1 0
26.026281 17.380352 5.7060823 10 3200045009224 1 0
22.867659 16.942804 -0.66225505 100 3200045009224 1 0
0 0 0 4 3200045029960 1 0
22.181355 18.129383 -0.5000464 63 3200045029960 1 0
25.993855 17.304083 -0.90878826 48 3200045032264 1 0
0 0 0 1 3200045032264 1 0
7.4090624 4.93065 -1.7799605 2 3200045034568 1 0
22.881626 16.896517 0 93 3200045034568 1 0
9.081714 6.7041836 -1.7561824 5 3200045036872 1 0
0 0 0 66 3200045036872 1 0
11.554075 7.6842628 -1.7662399 3 3200045039176 1 0
22.235186 18.151814 0.16682518 85 3200045039176 1 0
26.06112 17.32699 -0.18188965 41 3200045041480 1 0
12.865217 9.491411 -1.7221205 3 3200045041480 1 0
15.5706215 9.285637 -1.6923256 4 3200045043784 1 0
22.891695 16.88338 0.6618829 63 3200045043784 1 0
0 0 0 54 3200045046088 1 0
20.027935 14.766766 -1.7400055 8 3200045046088 1 0
17.544289 11.653456 -1.7193941 6 3200045048392 1 0
22.233604 18.128977 0.83489835 84 3200045048392 1 0
25.471281 16.91347 0.53369457 13 3200045050696 1 0
20.987226 17.107616 -1.735296 8 3200045050696 1 0
24.118948 14.364469 -1.6348692 11 3200045053000 1 0
22.901115 16.869766 1.656497 69 3200045053000 1 0
25.568855 16.967545 1.250202 10 3200045055304 1 0
22.91109 16.871975 -1.3253925 100 3200045055304 1 0
26.013489 17.257156 -1.636022 36 3200045057608 1 0
22.86013 16.829319 3.4854631 63 3200045057608 1 0
22.274944 18.135735 -1.1702529 88 3200045059912 1 0
27.506964 18.242155 2.6944659 19 3200045059912 1 0
0 0 0 43 3200045062216 1 0
28.133718 20.699047 9.358896 12 3200045062216 1 0
26.372162 17.47853 5.7685027 10 3200045064520 1 0
22.913774 16.853401 -0.6618829 36 3200045064520 1 0
0 0 0 4 3200045085256 1 0
22.21966 18.031685 -0.49948788 67 3200045085256 1 0
26.200882 17.310217 -0.91390824 48 3200045087560 1 0
0 0 0 1 3200045087560 1 0
7.4229555 4.902596 -1.7791761 1 3200045089864 1 0
22.924337 16.804718 0 93 3200045089864 1 0
29.7861 17.640018 -0.4030143 25 3200045092168 1 0
9.098684 6.6677694 -1.7549525 5 3200045092168 1 0
11.560958 7.6307697 -1.7632095 3 3200045094472 1 0
22.282875 18.061495 0.16670893 85 3200045094472 1 0
26.244972 17.317423 -0.18274981 20 3200045096776 1 0
12.8726015 9.427647 -1.7186935 3 3200045096776 1 0
15.57209 9.212977 -1.6889796 4 3200045099080 1 0
22.934357 16.79156 0.6614176 66 3200045099080 1 0
0 0 0 43 3200045101384 1 0
20.069698 14.689695 -1.7391684 8 3200045101384 1 0
17.534931 11.55923 -1.7145122 4 3200045103688 1 0
25.693798 16.93229 0.5371153 13 3200045105992 1 0
22.281212 18.038677 0.8343165 87 3200045103688 1 0
21.034403 17.024208 -1.7342726 8 3200045105992 1 0
24.062365 14.217219 -1.62766 7 3200045108296 1 0
22.940521 16.775581 1.6551017 64 3200045108296 1 0
22.963394 16.787182 -1.3250203 99 3200045110600 1 0
26.716063 17.59482 1.3032843 38 3200045110600 1 0
26.227041 17.267288 -1.6456518 32 3200045112904 1 0
22.90912 16.742393 3.4840007 63 3200045112904 1 0
27.367334 18.012325 2.674613 6 3200045115208 1 0
22.319466 18.042793 -1.1692759 84 3200045115208 1 0
