# .PCD v.7 - Point Cloud Data file format
VERSION .7
FIELDS x y z rgb timestamp_ns device_id active
SIZE 4 4 4 4 8 1 1
TYPE F F F F F U U
COUNT 1 1 1 1 1 1 1
WIDTH 999
HEIGHT 1
VIEWPOINT 0 0 0 1 0 0 0
POINTS 999               
DATA ascii
15.612853 -13.647576 -1.2076638 27 3199865064112 1 1
36.97585 -26.430645 2.6469533 40 3199865064112 1 0
33.157017 -26.24814 1.7228949 9 3199865066416 1 0
18.422415 -13.172748 -1.0549537 8 3199865066416 1 1
16.894766 -13.378629 -1.1294099 3 3199865068720 1 1
44.96294 -32.160637 6.787635 43 3199865068720 1 0
33.13525 -26.247377 3.45083 33 3199865071024 1 0
27.078993 -17.440351 -1.3122399 5 3199865071024 1 0
15.570292 -13.627161 -0.72255915 2 3199865073328 1 1
0 0 0 9 3199865073328 1 0
0 0 0 29 3199865075632 1 0
35.554848 -25.455944 -1.0175297 14 3199865075632 1 0
0 0 0 4 3199865096368 1 0
39.088852 -25.268362 -0.81244445 8 3199865096368 1 0
16.862364 -13.407324 -0.6269592 2 3199865098672 1 1
0 0 0 1 3199865098672 1 0
6.4711027 -5.146733 -1.653661 2 3199865100976 1 0
37.893402 -27.225828 0 8 3199865100976 1 0
15.843374 -13.921195 -0.24553372 1 3199865103280 1 1
8.344754 -5.9974184 -1.5987655 4 3199865103280 1 0
9.985044 -7.946257 -1.6243144 6 3199865105584 1 0
43.891335 -28.409067 0.30387008 11 3199865105584 1 0
23.949589 -19.065155 -0.1779143 8 3199865107888 1 1
11.520265 -8.284758 -1.5284891 10 3199865107888 1 0
10.102489 -8.88463 -1.2558602 40 3199865110192 1 0
37.75693 -27.161097 1.0822943 15 3199865110192 1 0
29.199005 -25.686586 0.45274502 15 3199865112496 1 0
17.412127 -12.529555 -1.5000432 3 3199865112496 1 0
14.851182 -11.832926 -1.550156 5 3199865114800 1 0
43.85697 -28.423044 1.5209695 8 3199865114800 1 0
38.325176 -30.545334 0.8554472 27 3199865117104 1 0
19.098967 -12.381698 -1.4587436 4 3199865117104 1 0
15.488798 -13.637606 -1.2018498 9 3199865119408 1 1
36.695965 -26.430283 2.6336977 40 3199865119408 1 0
32.89084 -26.229792 1.7139393 9 3199865121712 1 0
18.313475 -13.194332 -1.0514172 30 3199865121712 1 1
16.834301 -13.429027 -1.1285726 3 3199865124016 1 1
44.963535 -32.40487 6.8051844 43 3199865124016 1 0
32.897972 -26.25114 3.435859 33 3199865126320 1 0
27.02325 -17.541283 -1.3125656 5 3199865126320 1 0
15.503642 -13.666697 -0.7217216 2 3199865128624 1 1
0 0 0 9 3199865128624 1 0
0 0 0 29 3199865130928 1 0
34.64682 -24.99267 -0.9940805 14 3199865130928 1 0
0 0 0 4 3199865151664 1 0
38.950146 -25.37191 -0.81139725 8 3199865151664 1 0
16.799856 -13.453607 -0.6263774 2 3199865153968 1 1
0 0 0 1 3199865153968 1 0
6.4500365 -5.1668377 -1.6528765 2 3199865156272 1 0
37.93747 -27.458782 0 8 3199865156272 1 0
15.638924 -13.838584 -0.24311239 1 3199865158576 1 1
8.32697 -6.0288286 -1.5993804 4 3199865158576 1 0
9.957245 -7.981063 -1.6243144 6 3199865160880 1 0
39.02441 -25.452635 0.27078867 9 3199865160880 1 0
31.700304 -25.41642 -0.23614968 5 3199865163184 1 0
11.500937 -8.33192 -1.5297742 10 3199865163184 1 0
10.032656 -8.885513 -1.2510271 17 3199865165488 1 0
40.896717 -29.636932 1.1752539 25 3199865165488 1 0
29.216944 -25.883837 0.4544213 15 3199865167792 1 0
17.368284 -12.590259 -1.5000432 3 3199865167792 1 0
14.822224 -11.894674 -1.5514578 5 3199865170096 1 0
43.46624 -28.38576 1.510846 8 3199865170096 1 0
38.065495 -30.556252 0.85202646 74 3199865172400 1 0
19.058971 -12.450474 -1.4589994 4 3199865172400 1 0
15.39927 -13.654498 -1.1985941 13 3199865174704 1 1
36.393394 -26.405783 2.6185815 39 3199865174704 1 0
32.646393 -26.221806 1.7059608 27 3199865177008 1 0
18.225267 -13.227667 -1.0489976 5 3199865177008 1 1
16.68456 -13.405146 -1.1216642 3 3199865179312 1 1
44.95617 -32.638596 6.821271 43 3199865179312 1 0
32.647655 -26.238443 3.4192605 33 3199865181616 1 0
26.988613 -17.653006 -1.3138682 5 3199865181616 1 0
15.381104 -13.654383 -0.7182316 2 3199865183920 1 1
0 0 0 9 3199865183920 1 0
0 0 0 29 3199865186224 1 0
35.342236 -25.682348 -1.0165992 14 3199865186224 1 0
0 0 0 4 3199865206960 1 0
38.5504 -25.303621 -0.804905 7 3199865206960 1 0
16.743553 -13.504515 -0.6260283 2 3199865209264 1 1
0 0 0 1 3199865209264 1 0
6.4320374 -5.1892276 -1.6528765 2 3199865211568 1 0
36.53924 -26.640802 0 7 3199865211568 1 0
15.596798 -13.898071 -0.2432055 1 3199865213872 1 1
8.3092 -6.060006 -1.5999953 4 3199865213872 1 0
9.932646 -8.017975 -1.6248195 7 3199865216176 1 0
39.016296 -25.64029 0.27134663 9 3199865216176 1 0
31.659 -25.563463 -0.23649839 5 3199865218480 1 0
11.484938 -8.380975 -1.5314878 20 3199865218480 1 0
0 0 0 56 3199865220784 1 0
40.58114 -29.62212 1.1691123 17 3199865220784 1 0
29.190416 -26.040096 0.4553992 15 3199865223088 1 0
17.334541 -12.656985 -1.5008802 3 3199865223088 1 0
14.78751 -11.950493 -1.5521086 5 3199865225392 1 0
43.061256 -28.332602 1.5001407 8 3199865225392 1 0
0 0 0 21 3199865227696 1 0
19.032887 -12.526654 -1.4602785 4 3199865227696 1 0
15.322722 -13.680457 -1.1962684 8 3199865230000 1 1
36.125607 -26.40043 2.6057909 39 3199865230000 1 0
0 0 0 9 3199865232304 1 0
18.073599 -13.211936 -1.0428555 5 3199865232304 1 1
16.601576 -13.431702 -1.1191521 3 3199865234608 1 1
44.956993 -32.873432 6.8383327 44 3199865234608 1 0
32.4127 -26.23129 3.403964 32 3199865236912 1 0
27.001926 -17.792942 -1.3174504 5 3199865236912 1 0
15.31984 -13.693109 -0.71753365 2 3199865239216 1 1
0 0 0 9 3199865239216 1 0
0 0 0 29 3199865241520 1 0
35.255184 -25.801714 -1.0165992 14 3199865241520 1 0
0 0 0 4 3199865262256 1 0
38.269444 -25.301186 -0.8007862 7 3199865262256 1 0
16.57433 -13.459388 -0.62137383 2 3199865264560 1 1
0 0 0 1 3199865264560 1 0
6.4146423 -5.210715 -1.6528765 3 3199865266864 1 0
33.2805 -24.43578 0 6 3199865266864 1 0
9.917117 -8.896949 -0.1551058 9 3199865269168 1 0
8.288794 -6.0878887 -1.5999953 3 3199865269168 1 0
9.908614 -8.053947 -1.6253246 6 3199865271472 1 0
38.93956 -25.77842 0.27141637 9 3199865271472 1 0
31.16873 -25.342562 -0.23347619 5 3199865273776 1 0
11.440447 -8.4080715 -1.5293459 11 3199865273776 1 0
9.927102 -8.914118 -1.2454505 2 3199865276080 1 0
40.260998 -29.598991 1.1627848 25 3199865276080 1 0
29.151827 -26.185152 0.45619076 15 3199865278384 1 0
17.323326 -12.7398 -1.5036706 3 3199865278384 1 0
14.755679 -12.00873 -1.5530851 5 3199865280688 1 0
42.670483 -28.285837 1.4899008 8 3199865280688 1 0
30.990843 -25.22939 0.6975378 7 3199865282992 1 0
18.989594 -12.592186 -1.4602785 4 3199865282992 1 0
15.2604265 -13.720067 -1.1951057 2 3199865285296 1 1
35.853916 -26.392757 2.5927677 38 3199865285296 1 0
32.62617 -26.577269 1.7144278 27 3199865287600 1 0
17.995388 -13.25099 -1.0409943 2 3199865287600 1 1
16.529818 -13.469384 -1.1174773 3 3199865289904 1 1
44.966637 -33.12199 6.857344 44 3199865289904 1 0
32.20313 -26.249027 3.3915968 32 3199865292208 1 0
26.952711 -17.896322 -1.3181018 5 3199865292208 1 0
15.238868 -13.717526 -0.71599805 2 3199865294512 1 1
0 0 0 9 3199865294512 1 0
0 0 0 29 3199865296816 1 0
35.289303 -26.018705 -1.0202283 14 3199865296816 1 0
0 0 0 4 3199865317552 1 0
38.066624 -25.36809 -0.7984825 7 3199865317552 1 0
16.54036 -13.532704 -0.62195563 2 3199865319856 1 1
0 0 0 1 3199865319856 1 0
6.3924656 -5.2317066 -1.6520921 3 3199865322160 1 0
33.13605 -24.517149 0 6 3199865322160 1 0
9.914116 -8.960055 -0.15557143 11 3199865324464 1 0
8.266424 -6.1182275 -1.5999953 4 3199865324464 1 0
9.875958 -8.087697 -1.6248195 5 3199865326768 1 0
38.14611 -25.454723 0.26653436 8 3199865326768 1 0
16.91012 -13.852483 -0.12704843 2 3199865329072 1 1
11.409554 -8.449946 -1.5293459 10 3199865329072 1 0
9.885503 -8.942428 -1.2443352 2 3199865331376 1 0
40.116898 -29.720171 1.1617612 41 3199865331376 1 0
29.109041 -26.34013 0.45702893 10 3199865333680 1 0
17.282927 -12.80796 -1.5042286 3 3199865333680 1 0
14.730063 -12.077898 -1.5550379 5 3199865335984 1 0
42.240726 -28.224352 1.4784973 16 3199865335984 1 0
29.976662 -24.586987 0.6767345 13 3199865338288 1 0
18.939995 -12.659484 -1.4600227 4 3199865338288 1 0
15.186359 -13.754461 -1.1932453 4 3199865340592 1 1
35.58375 -26.395521 2.5802097 37 3199865340592 1 0
32.611954 -26.765131 1.7188243 27 3199865342896 1 0
17.8376 -13.235904 -1.0346661 5 3199865342896 1 1
16.396978 -13.461443 -1.1118251 2 3199865345200 1 1
44.956516 -33.369396 6.874406 45 3199865345200 1 0
32.02352 -26.298567 3.3828094 31 3199865347504 1 0
26.89358 -17.999435 -1.3184274 5 3199865347504 1 0
15.17072 -13.757175 -0.7151605 2 3199865349808 1 1
0 0 0 9 3199865349808 1 0
0 0 0 29 3199865352112 1 0
18.08476 -13.436439 -0.52425814 2 3199865352112 1 1
0 0 0 4 3199865373296 1 0
37.650223 -25.271294 -0.7915015 7 3199865373296 1 0
16.46463 -13.561939 -0.620792 2 3199865375600 1 1
0 0 0 1 3199865375600 1 0
6.387266 -5.26276 -1.6552299 2 3199865377904 1 0
32.766235 -24.411339 0 5 3199865377904 1 0
9.920048 -9.024966 -0.15613021 11 3199865380208 1 0
8.2525625 -6.1501503 -1.6012251 3 3199865380208 1 0
9.858505 -8.127687 -1.6263347 6 3199865382512 1 0
37.730247 -25.35686 0.2642096 8 3199865382512 1 0
16.842995 -13.890055 -0.1268857 2 3199865384816 1 1
11.388154 -8.492077 -1.5302026 10 3199865384816 1 0
0 0 0 33 3199865387120 1 0
39.817482 -29.700663 1.1558989 16 3199865387120 1 0
29.079063 -26.48621 0.45791364 15 3199865389424 1 0
17.24741 -12.869096 -1.5047866 3 3199865389424 1 0
14.696786 -12.130899 -1.5556887 5 3199865391728 1 0
42.22816 -28.415392 1.48129 24 3199865391728 1 0
29.890411 -24.679209 0.6765949 20 3199865394032 1 0
18.905365 -12.725443 -1.4605343 4 3199865394032 1 0
15.044285 -13.714867 -1.185571 4 3199865396336 1 1
35.312386 -26.372208 2.5667214 37 3199865396336 1 0
29.684301 -24.523556 1.5686958 16 3199865398640 1 0
17.74986 -13.260079 -1.0320603 2 3199865398640 1 1
16.316479 -13.483781 -1.1093129 2 3199865400944 1 1
44.969387 -33.60469 6.89293 68 3199865400944 1 0
32.018524 -26.467638 3.3912714 10 3199865403248 1 0
26.845396 -18.092682 -1.3189158 5 3199865403248 1 0
15.049653 -13.735801 -0.7115309 2 3199865405552 1 1
0 0 0 9 3199865405552 1 0
0 0 0 29 3199865407856 1 0
17.983936 -13.451255 -0.5225832 2 3199865407856 1 1
0 0 0 4 3199865428592 1 0
37.36963 -25.272615 -0.7874526 7 3199865428592 1 0
16.410936 -13.614343 -0.6205593 2 3199865430896 1 1
0 0 0 1 3199865430896 1 0
6.3657618 -5.2826114 -1.6544454 4 3199865433200 1 0
0 0 0 42 3199865433200 1 0
9.932523 -9.100285 -0.15682867 12 3199865435504 1 0
8.230909 -6.179099 -1.6012251 2 3199865435504 1 0
9.829837 -8.162337 -1.6263347 7 3199865437808 1 0
37.640762 -25.489504 0.2642096 8 3199865437808 1 0
16.775438 -13.934039 -0.12674621 4 3199865440112 1 1
11.38675 -8.553687 -1.5340581 10 3199865440112 1 0
9.774505 -8.963748 -1.2380149 36 3199865442416 1 0
38.51661 -28.942749 1.1210972 16 3199865442416 1 0
29.023396 -26.624178 0.45851898 5 3199865444720 1 0
17.198536 -12.9277 -1.5045077 3 3199865444720 1 0
14.681233 -12.205918 -1.5586178 5 3199865447024 1 0
42.186623 -28.605463 1.4833845 24 3199865447024 1 0
29.793236 -24.777674 0.67638546 20 3199865449328 1 0
18.945885 -12.850852 -1.467186 4 3199865449328 1 0
14.99826 -13.771089 -1.1858034 4 3199865451632 1 1
35.04907 -26.370628 2.554396 36 3199865451632 1 0
29.73479 -24.744434 1.5760231 16 3199865453936 1 0
17.603432 -13.248888 -1.0262904 2 3199865453936 1 1
16.25278 -13.529296 -1.1082662 2 3199865456240 1 1
44.953533 -33.844173 6.9090166 69 3199865456240 1 0
29.533764 -24.592417 3.137414 8 3199865458544 1 0
26.783665 -18.191057 -1.3190787 5 3199865458544 1 0
0 0 0 23 3199865460848 1 0
0 0 0 9 3199865460848 1 0
0 0 0 29 3199865463152 1 0
17.785297 -13.402791 -0.5182097 2 3199865463152 1 1
0 0 0 4 3199865483888 1 0
37.468422 -25.540064 -0.7915015 7 3199865483888 1 0
16.219904 -13.556334 -0.6152066 2 3199865486192 1 1
0 0 0 1 3199865486192 1 0
6.3374066 -5.298268 -1.6520921 4 3199865488496 1 0
0 0 0 3 3199865488496 1 0
9.855213 -9.095721 -0.15613021 14 3199865490800 1 0
8.211494 -6.2114305 -1.60184 3 3199865490800 1 0
9.800093 -8.198025 -1.6263347 9 3199865493104 1 0
37.316566 -25.46836 0.26258227 17 3199865493104 1 0
16.712494 -13.984555 -0.12665322 4 3199865495408 1 1
11.384174 -8.616553 -1.5379136 10 3199865495408 1 0
9.712723 -8.972063 -1.2342973 33 3199865497712 1 0
38.491245 -29.142395 1.1234236 16 3199865497712 1 0
0 0 0 15 3199865500016 1 0
17.167604 -13.0018215 -1.5059028 3 3199865500016 1 0
14.64628 -12.266474 -1.5595943 5 3199865502320 1 0
42.175602 -28.820608 1.4866426 16 3199865502320 1 0
29.71918 -24.897602 0.6767345 20 3199865504624 1 0
18.912685 -12.927979 -1.4682093 4 3199865504624 1 0
0 0 0 93 3199865506928 1 0
34.788628 -26.370932 2.542303 36 3199865506928 1 0
29.606068 -24.817503 1.5739063 16 3199865509232 1 0
17.520798 -13.285358 -1.0242431 2 3199865509232 1 1
16.112444 -13.510364 -1.1019859 2 3199865511536 1 1
44.939705 -34.086372 6.925591 69 3199865511536 1 0
29.525183 -24.764328 3.145876 8 3199865513840 1 0
26.758118 -18.313663 -1.3210326 5 3199865513840 1 0
0 0 0 109 3199865516144 1 0
0 0 0 9 3199865516144 1 0
0 0 0 29 3199865518448 1 0
17.56553 -13.33538 -0.51318485 2 3199865518448 1 1
0 0 0 4 3199865539184 1 0
37.214203 -25.557491 -0.7880111 7 3199865539184 1 0
16.197153 -13.633231 -0.6161375 2 3199865541488 1 1
0 0 0 1 3199865541488 1 0
6.3310304 -5.3302784 -1.6552299 3 3199865543792 1 0
32.075623 -24.430653 0 11 3199865543792 1 0
9.826731 -9.132361 -0.15617678 12 3199865546096 1 0
8.190035 -6.239699 -1.60184 3 3199865546096 1 0
9.771895 -8.231615 -1.6263347 7 3199865548400 1 0
37.261887 -25.618961 0.26281473 8 3199865548400 1 0
16.591185 -13.979738 -0.12609528 4 3199865550704 1 1
11.376798 -8.67229 -1.5409124 11 3199865550704 1 0
9.652968 -8.977943 -1.2305795 16 3199865553008 1 0
38.46498 -29.328995 1.1255637 24 3199865553008 1 0
9.801449 -9.118435 0.15585083 12 3199865555312 1 0
17.126617 -13.0623455 -1.5061818 4 3199865555312 1 0
14.604806 -12.3158245 -1.5595943 5 3199865557616 1 0
42.878437 -29.51363 1.5149187 8 3199865557616 1 0
29.571163 -24.94316 0.67526853 20 3199865559920 1 0
18.87243 -12.993712 -1.4684651 4 3199865559920 1 0
9.825796 -9.148286 -0.78185356 106 3199865562224 1 0
34.538334 -26.363592 2.5304427 36 3199865562224 1 0
29.492702 -24.890196 1.572278 24 3199865564528 1 0
17.441517 -13.316967 -1.0221957 2 3199865564528 1 1
16.030924 -13.5328 -1.0994737 2 3199865566832 1 1
44.936855 -34.319553 6.9426527 70 3199865566832 1 0
29.446308 -24.864244 3.1462014 8 3199865569136 1 0
26.71067 -18.41098 -1.321684 5 3199865569136 1 0
9.808258 -9.141549 -0.46821165 108 3199865571440 1 0
0 0 0 9 3199865571440 1 0
0 0 0 29 3199865573744 1 0
17.569454 -13.429218 -0.51458067 2 3199865573744 1 1
0 0 0 4 3199865594480 1 0
37.32124 -25.80392 -0.7919902 7 3199865594480 1 0
16.108084 -13.645752 -0.6143921 2 3199865596784 1 1
0 0 0 1 3199865596784 1 0
6.304965 -5.3429017 -1.6528765 3 3199865599088 1 0
0 0 0 11 3199865599088 1 0
9.946166 -9.303389 -0.15855156 11 3199865601392 1 0
8.176117 -6.2709217 -1.6030699 3 3199865601392 1 0
9.745026 -8.263408 -1.6263347 9 3199865603696 1 0
37.28017 -25.810806 0.2635354 8 3199865603696 1 0
16.51464 -14.008325 -0.1258628 4 3199865606000 1 1
11.35454 -8.714481 -1.5417691 18 3199865606000 1 0
0 0 0 84 3199865608304 1 0
38.45315 -29.522139 1.1280762 16 3199865608304 1 0
28.895214 -27.062532 0.46089375 15 3199865610608 1 0
17.082825 -13.119564 -1.5061818 4 3199865610608 1 0
0 0 0 240 3199865612912 1 0
42.430305 -29.416672 1.5025842 8 3199865612912 1 0
29.550114 -25.098026 0.6767345 6 3199865615216 1 0
18.84122 -13.066966 -1.4694884 4 3199865615216 1 0
0 0 0 49 3199865617520 1 0
34.283012 -26.355433 2.51835 35 3199865617520 1 0
0 0 0 19 3199865619824 1 0
17.284456 -13.29201 -1.0156814 2 3199865619824 1 1
15.959242 -13.567977 -1.0977991 2 3199865622128 1 1
44.948948 -34.577873 6.9631267 71 3199865622128 1 0
39.10128 -33.253292 4.1902704 18 3199865624432 1 0
18.750803 -13.022038 -0.93007994 2 3199865624432 1 1
0 0 0 53 3199865626736 1 0
0 0 0 9 3199865626736 1 0
0 0 0 29 3199865629040 1 0
0 0 0 4 3199865649776 1 0
37.32359 -26.017933 -0.7941543 7 3199865649776 1 0
15.925012 -13.595637 -0.60938853 2 3199865652080 1 1
17.590998 -13.54567 -0.5166278 2 3199865629040 1 1
0 0 0 1 3199865652080 1 0
6.2935076 -5.3745303 -1.6552299 5 3199865654384 1 0
31.821276 -24.59132 0 39 3199865654384 1 0
9.96317 -9.390458 -0.1593897 1 3199865656688 1 0
8.149126 -6.2994967 -1.6024549 4 3199865656688 1 0
9.734824 -8.318244 -1.6298702 10 3199865658992 1 0
38.382786 -26.789484 0.27204406 9 3199865658992 1 0
16.455673 -14.065238 -0.1258163 4 3199865661296 1 1
11.346798 -8.776658 -1.5451962 23 3199865661296 1 0
37.276253 -28.84155 1.0967175 15 3199865663600 1 0
9.580575 -9.037753 -1.2294642 3 3199865663600 1 0
28.860764 -27.233486 0.46196476 21 3199865665904 1 0
17.033667 -13.183327 -1.5061818 4 3199865665904 1 0
0 0 0 226 3199865668208 1 0
42.156616 -29.459936 1.4967662 24 3199865668208 1 0
29.408209 -25.165846 0.6756176 13 3199865670512 1 0
18.782812 -13.129894 -1.4687209 4 3199865670512 1 0
0 0 0 24 3199865672816 1 0
34.008633 -26.344957 2.5053267 34 3199865672816 1 0
30.543724 -26.152948 1.6382238 17 3199865675120 1 0
17.203844 -13.331049 -1.0138202 2 3199865675120 1 1
0 0 0 25 3199865677424 1 0
44.922325 -34.82022 6.978726 72 3199865677424 1 0
38.722286 -33.17534 4.1626062 18 3199865679728 1 0
18.640926 -13.046861 -0.9269862 2 3199865679728 1 1
14.750006 -13.946762 -0.7088786 16 3199865682032 1 1
0 0 0 9 3199865682032 1 0
0 0 0 29 3199865684336 1 0
0 0 0 4 3199865705072 1 0
37.90676 -26.621555 -0.8085351 8 3199865705072 1 0
15.868361 -13.643323 -0.6090394 2 3199865707376 1 1
17.541826 -13.609287 -0.5166278 2 3199865684336 1 1
0 0 0 1 3199865707376 1 0
6.277683 -5.3990235 -1.6560144 3 3199865709680 1 0
31.78259 -24.739101 0 11 3199865709680 1 0
15.665728 -14.868818 -0.2514474 1 3199865711984 1 1
8.136443 -6.3351884 -1.6042997 3 3199865711984 1 0
9.717759 -8.362527 -1.6318905 19 3199865714288 1 0
38.05673 -26.759949 0.27039346 9 3199865714288 1 0
16.41557 -14.130422 -0.12588605 4 3199865716592 1 1
11.312955 -8.813768 -1.5447679 20 3199865716592 1 0
9.540307 -9.062911 -1.2283489 5 3199865718896 1 0
28.820614 -27.386412 0.46284947 21 3199865721200 1 0
37.314133 -29.07965 1.1008118 23 3199865718896 1 0
17.003279 -13.2549715 -1.507577 4 3199865721200 1 0
10.305483 -8.878728 -1.1104623 112 3199865723504 1 0
42.10583 -29.643738 1.4986279 24 3199865723504 1 0
18.74992 -13.204572 -1.4697442 4 3199865725808 1 0
0 0 0 17 3199865725808 1 0
14.635573 -13.919419 -1.1762687 4 3199865728112 1 1
33.749603 -26.333317 2.4930012 34 3199865728112 1 0
30.376577 -26.194157 1.6341531 17 3199865730416 1 0
17.05011 -13.307433 -1.007492 2 3199865730416 1 1
15.761928 -13.595733 -1.0908906 5 3199865732720 1 1
44.913166 -35.06477 6.9962754 72 3199865732720 1 0
38.419098 -33.148827 4.142428 18 3199865735024 1 0
18.676928 -13.169429 -0.9310569 7 3199865735024 1 1
14.730184 -14.02573 -0.7102746 8 3199865737328 1 1
0 0 0 9 3199865737328 1 0
30.28987 -26.150126 7.2960076 8 3199865739632 1 0
17.336666 -13.547324 -0.51197517 2 3199865739632 1 1
0 0 0 4 3199865760368 1 0
37.679745 -26.659006 -0.8056729 15 3199865760368 1 0
15.802505 -13.682928 -0.6083413 2 3199865762672 1 1
0 0 0 1 3199865762672 1 0
6.255833 -5.418336 -1.6552299 4 3199865764976 1 0
24.03724 -18.845345 0 12 3199865764976 1 1
0 0 0 13 3199865767280 1 0
8.11428 -6.3635516 -1.6042997 4 3199865767280 1 0
37.77051 -26.756212 0.26902187 9 3199865769584 1 0
9.691508 -8.398996 -1.6323956 37 3199865769584 1 0
16.375214 -14.195497 -0.12595579 4 3199865771888 1 1
11.304022 -8.87039 -1.5477666 19 3199865771888 1 0
9.508613 -9.096158 -1.2283489 10 3199865774192 1 0
37.240707 -29.231947 1.1016493 23 3199865774192 1 0
28.77686 -27.536623 0.46368763 15 3199865776496 1 0
10.277439 -8.917259 -1.1107877 213 3199865778800 1 0
42.083633 -29.848362 1.501537 24 3199865778800 1 0
29.35564 -25.478018 0.67847973 34 3199865781104 1 0
18.560465 -13.168309 -1.4584877 4 3199865781104 1 0
14.667645 -14.047759 -1.1827803 2 3199865783408 1 1
33.503635 -26.33006 2.481606 34 3199865783408 1 0
16.953768 -13.311779 -1.5072979 4 3199865776496 1 0
32.61457 -28.32311 1.7598572 55 3199865785712 1 0
16.981567 -13.349583 -1.006189 2 3199865785712 1 1
15.67517 -13.616614 -1.0881692 8 3199865788016 1 1
44.905964 -35.312134 7.014312 73 3199865788016 1 0
38.119583 -33.123222 4.1225753 17 3199865790320 1 0
18.510288 -13.148906 -0.92503226 4 3199865790320 1 1
14.724417 -14.118564 -0.71236855 33 3199865792624 1 1
0 0 0 9 3199865792624 1 0
30.177616 -26.237625 7.2909856 24 3199865794928 1 0
0 0 0 1 3199865794928 1 0
0 0 0 4 3199865815664 1 0
39.214848 -27.95103 -0.8405777 8 3199865815664 1 0
15.769713 -13.751144 -0.6089231 2 3199865817968 1 1
0 0 0 1 3199865817968 1 0
6.2368817 -5.44014 -1.6552299 4 3199865820272 1 0
23.939919 -18.904346 0 100 3199865820272 1 1
8.088916 -6.3893867 -1.6036848 5 3199865822576 1 0
28.791735 -27.711746 -0.46522424 59 3199865822576 1 0
9.6322365 -8.406683 -1.6273448 34 3199865824880 1 0
37.865726 -27.022657 0.27037022 9 3199865824880 1 0
16.343641 -14.268353 -0.12609528 4 3199865827184 1 1
11.29171 -8.92459 -1.5503368 14 3199865827184 1 0
9.350599 -9.007717 -1.2119906 20 3199865829488 1 0
37.188637 -29.401443 1.1031381 15 3199865829488 1 0
28.735287 -27.689636 0.46457234 15 3199865831792 1 0
16.913458 -13.375828 -1.5078559 4 3199865831792 1 0
10.279272 -8.9819355 -1.1143678 118 3199865834096 1 0
29.326752 -25.632973 0.67987597 34 3199865836400 1 0
18.352007 -13.116958 -1.4456962 3 3199865836400 1 0
14.647264 -14.126594 -1.1851058 2 3199865838704 1 1
33.251835 -26.320452 2.4697456 33 3199865838704 1 0
32.578682 -28.492037 1.7632766 27 3199865841008 1 0
16.916069 -13.393896 -1.0050722 2 3199865841008 1 1
42.06702 -30.05784 1.5046787 24 3199865834096 1 0
15.582447 -13.631797 -1.085029 57 3199865843312 1 1
44.89447 -35.55741 7.0318613 74 3199865843312 1 0
30.233171 -26.456268 3.2796392 28 3199865845616 1 0
18.360271 -13.139009 -0.91982174 4 3199865845616 1 1
14.718181 -14.211527 -0.7144625 52 3199865847920 1 1
0 0 0 9 3199865847920 1 0
29.988144 -26.25726 7.2673087 16 3199865850224 1 0
0 0 0 4 3199865870960 1 0
0 0 0 1 3199865850224 1 0
37.076885 -26.622826 -0.79673725 7 3199865870960 1 0
15.607452 -13.7058525 -0.6045013 2 3199865873264 1 1
0 0 0 1 3199865873264 1 0
6.2266946 -5.469643 -1.6575834 5 3199865875568 1 0
0 0 0 7 3199865875568 1 0
28.746525 -27.862186 -0.4660624 56 3199865877872 1 0
8.069656 -6.4200444 -1.6042997 5 3199865877872 1 0
9.599853 -8.437635 -1.6268398 30 3199865880176 1 0
37.657497 -27.072948 0.26955655 9 3199865880176 1 0
16.365831 -14.388703 -0.12665322 4 3199865882480 1 1
11.279158 -8.978813 -1.5529072 13 3199865882480 1 0
9.293372 -9.015345 -1.2086446 15 3199865884784 1 0
0 0 0 5 3199865884784 1 0
28.690125 -27.839909 0.4654105 21 3199865887088 1 0
16.866665 -13.434785 -1.5078559 4 3199865887088 1 0
0 0 0 19 3199865889392 1 0
42.0235 -30.24888 1.5068897 8 3199865889392 1 0
29.28213 -25.774824 0.6809231 48 3199865891696 1 0
18.270475 -13.155281 -1.4428821 5 3199865891696 1 0
14.683801 -14.2611 -1.1920825 2 3199865894000 1 1
33.00676 -26.314384 2.4583504 22 3199865894000 1 0
32.575005 -28.690113 1.7684871 28 3199865896304 1 0
16.753628 -13.360685 -0.9981857 2 3199865896304 1 1
0 0 0 25 3199865898608 1 0
44.89112 -35.810463 7.050873 50 3199865898608 1 0
29.988094 -26.427212 3.2630408 19 3199865900912 1 0
18.207308 -13.12589 -0.9144483 4 3199865900912 1 1
0 0 0 21 3199865903216 1 0
0 0 0 9 3199865903216 1 0
30.005514 -26.458075 7.293855 16 3199865905520 1 0
0 0 0 1 3199865905520 1 0
7.438077 -9.344806 -1.5202694 50 3199868700512 1 0
28.429981 -29.318687 0.23735856 26 3199868700512 1 0
28.679092 -36.04111 -0.26769674 23 3199868702816 1 0
8.112381 -9.230744 -1.3237195 3 3199868702816 1 0
10.324106 -14.366191 -1.6514302 2 3199868705120 1 0
28.397556 -32.321415 1.0011525 33 3199868705120 1 0
29.360275 -40.8673 0.58582586 25 3199868707424 1 0
14.680605 -16.713768 -1.5555694 4 3199868707424 1 0
12.21682 -15.365987 -1.6025547 3 3199868709728 1 0
28.416136 -29.336836 1.1886392 31 3199868709728 1 0
29.573551 -37.207367 0.8296176 54 3199868712032 1 0
16.491941 -17.030998 -1.5193753 4 3199868712032 1 0
27.68085 -31.540817 2.4439318 21 3199868714336 1 0
15.349904 -21.384615 -1.5330096 6 3199868714336 1 0
27.604206 -34.749386 1.8080546 19 3199868716640 1 0
18.651299 -23.485733 -1.5717534 9 3199868718944 1 0
18.030064 -20.550001 -1.2734638 3 3199868716640 1 0
31.551956 -35.97178 5.8750772 22 3199868718944 1 0
32.072266 -40.39689 4.2107744 19 3199868721248 1 0
23.591095 -24.389153 -1.3824192 16 3199868721248 1 0
18.788092 -26.205065 -1.1259973 45 3199868723552 1 0
21.328922 -26.880274 6.256386 18 3199868725856 1 0
0 0 0 9 3199868723552 1 0
17.99119 -20.528568 -0.6351768 54 3199868725856 1 1
0 0 0 4 3199868746592 1 0
24.772043 -25.688066 -0.6229113 38 3199868746592 1 0
3.951676 -4.52172 -1.681072 1 3199868748896 1 0
19.834576 -25.068794 -0.93031526 45 3199868748896 1 0
5.192567 -6.5649123 -1.6740572 3 3199868751200 1 0
0 0 0 15 3199868751200 1 0
29.566233 -41.398727 -0.5922517 19 3199868753504 1 0
6.902997 -7.9036508 -1.6325855 4 3199868753504 1 0
7.3941994 -9.354286 -1.5177441 45 3199868755808 1 0
28.419683 -29.506641 0.23810248 26 3199868755808 1 0
28.58407 -36.172615 -0.26795247 23 3199868758112 1 0
8.078438 -9.255187 -1.3232912 19 3199868758112 1 0
28.395185 -32.541412 1.0049677 34 3199868760416 1 0
10.270526 -14.39476 -1.6506866 2 3199868760416 1 0
29.348164 -41.146507 0.5883869 17 3199868762720 1 0
14.628638 -16.769861 -1.5561274 4 3199868762720 1 0
12.168945 -15.414088 -1.6032056 3 3199868765024 1 0
28.41506 -29.537933 1.1928283 37 3199868765024 1 0
29.569006 -37.466057 0.83310807 54 3199868767328 1 0
16.433138 -17.087746 -1.5193753 4 3199868767328 1 0
15.2873745 -21.453882 -1.5341725 6 3199868769632 1 0
27.6712 -31.750843 2.452769 22 3199868769632 1 0
17.85878 -20.49807 -1.266391 7 3199868771936 1 0
18.57415 -23.556969 -1.5721722 9 3199868774240 1 0
27.589676 -34.98007 1.8150562 19 3199868771936 1 0
31.5305 -36.20145 5.8945765 22 3199868774240 1 0
31.987232 -40.581074 4.21826 19 3199868776544 1 0
23.524841 -24.49187 -1.3835591 16 3199868776544 1 0
18.658655 -26.21892 -1.1237638 40 3199868778848 1 0
0 0 0 9 3199868778848 1 0
21.168041 -26.872025 6.2370143 24 3199868781152 1 0
17.873898 -20.540741 -0.6335949 70 3199868781152 1 1
0 0 0 4 3199868801888 1 0
19.76003 -25.163193 -0.9311298 45 3199868804192 1 0
3.9199646 -4.518687 -1.6746022 1 3199868804192 1 0
5.168566 -6.583825 -1.6740572 3 3199868806496 1 0
28.416487 -32.76635 0 61 3199868806496 1 0
29.58172 -41.74113 -0.59560436 27 3199868808800 1 0
6.8767443 -7.931735 -1.6332004 5 3199868808800 1 0
24.622412 -25.720907 -0.6215151 38 3199868801888 1 0
7.347891 -9.365501 -1.5152187 19 3199868811104 1 0
28.417252 -29.719643 0.2389859 26 3199868811104 1 0
28.506926 -36.345345 -0.2684639 24 3199868813408 1 0
8.026568 -9.263402 -1.3202925 64 3199868813408 1 0
10.22293 -14.438362 -1.6514302 2 3199868815712 1 0
28.379261 -32.761913 1.0085967 34 3199868815712 1 0
29.35408 -41.471043 0.5915067 34 3199868818016 1 0
14.583605 -16.840723 -1.5578016 4 3199868818016 1 0
12.118186 -15.464157 -1.6038564 3 3199868820320 1 0
28.407747 -29.744328 1.1970173 43 3199868820320 1 0
29.572065 -37.74856 0.8370174 54 3199868822624 1 0
16.37152 -17.14679 -1.5193753 4 3199868822624 1 0
15.203286 -21.498882 -1.5334748 6 3199868824928 1 0
27.669308 -31.979897 2.462769 22 3199868824928 1 0
17.808702 -20.589163 -1.2680662 7 3199868827232 1 0
18.556221 -23.708206 -1.5778244 9 3199868829536 1 0
27.592207 -35.242397 1.8235233 28 3199868827232 1 0
31.512436 -36.443165 5.915538 23 3199868829536 1 0
23.489647 -24.630667 -1.3866528 11 3199868831840 1 0
18.52129 -26.223202 -1.1211114 43 3199868834144 1 0
31.770882 -40.603977 4.2088213 19 3199868831840 1 0
0 0 0 9 3199868834144 1 0
21.016594 -26.875834 6.2205124 24 3199868836448 1 0
17.834724 -20.64351 -0.63480455 70 3199868836448 1 1
0 0 0 4 3199868857184 1 0
24.469103 -25.74003 -0.61990947 33 3199868857184 1 0
19.694384 -25.26025 -0.93217707 45 3199868859488 1 0
3.9092286 -4.538151 -1.6767588 1 3199868859488 1 0
5.140826 -6.5955644 -1.6724882 3 3199868861792 1 0
28.352009 -32.92252 0 41 3199868861792 1 0
29.512693 -41.951447 -0.597141 60 3199868864096 1 0
6.8543468 -7.961532 -1.6344303 4 3199868864096 1 0
0 0 0 30 3199868866400 1 0
28.410604 -29.919352 0.23979956 26 3199868866400 1 0
28.395954 -36.462532 -0.2686034 24 3199868868704 1 0
7.963395 -9.254897 -1.3151518 61 3199868868704 1 0
10.177681 -14.480032 -1.6521738 2 3199868871008 1 0
28.313103 -32.914112 1.0102717 27 3199868871008 1 0
29.330833 -41.741943 0.59392804 25 3199868873312 1 0
14.556812 -16.927092 -1.5611498 4 3199868873312 1 0
12.069931 -15.511954 -1.6045074 3 3199868875616 1 0
28.399036 -29.94029 1.2009736 43 3199868875616 1 0
29.933714 -38.480984 0.8509793 18 3199868877920 1 0
16.3072 -17.196972 -1.5188637 4 3199868877920 1 0
15.210022 -21.665108 -1.5416143 6 3199868880224 1 0
27.663939 -32.19543 2.4720712 33 3199868880224 1 0
30.989538 -39.86101 2.0570202 23 3199868882528 1 0
17.811277 -20.73465 -1.2732776 7 3199868882528 1 0
18.48278 -23.780684 -1.5784525 9 3199868884832 1 0
31.548592 -36.736946 5.9457617 23 3199868884832 1 0
0 0 0 8 3199868887136 1 0
23.419605 -24.724808 -1.3874669 11 3199868887136 1 0
18.384119 -26.217083 -1.1181799 39 3199868889440 1 0
0 0 0 9 3199868889440 1 0
20.886974 -26.89702 6.2090325 24 3199868891744 1 0
0 0 0 4 3199868912480 1 0
17.837729 -20.788677 -0.63741004 33 3199868891744 1 1
24.328693 -25.762875 -0.6185133 38 3199868912480 1 0
19.62746 -25.347692 -0.9329916 45 3199868914784 1 0
3.8916206 -4.548191 -1.6756804 1 3199868914784 1 0
5.1260333 -6.621955 -1.6748416 2 3199868917088 1 0
28.356602 -33.150513 0 42 3199868917088 1 0
29.525957 -42.269417 -0.6002608 55 3199868919392 1 0
6.825165 -7.9813633 -1.6338153 4 3199868919392 1 0
7.2548366 -9.377638 -1.5091578 2 3199868921696 1 0
28.41191 -30.121885 0.24065973 33 3199868921696 1 0
28.356756 -36.665104 -0.26939383 24 3199868924000 1 0
7.9194045 -9.266425 -1.3130099 51 3199868924000 1 0
10.122136 -14.504346 -1.6510584 2 3199868926304 1 0
28.306263 -33.130665 1.0139937 20 3199868926304 1 0
29.311413 -42.01432 0.59639597 17 3199868928608 1 0
14.502327 -16.979044 -1.5614289 4 3199868928608 1 0
12.02727 -15.565212 -1.6058092 3 3199868930912 1 0
28.396551 -30.140715 1.2051626 44 3199868930912 1 0
29.58093 -38.29397 0.84462667 18 3199868933216 1 0
16.262638 -17.266546 -1.5201428 4 3199868933216 1 0
15.131948 -21.709976 -1.5411491 6 3199868935520 1 0
31.068913 -40.244423 2.0713491 37 3199868937824 1 0
27.655767 -32.40746 2.4811409 34 3199868935520 1 0
17.644804 -20.682549 -1.266391 3 3199868937824 1 0
18.431025 -23.881397 -1.5809646 9 3199868940128 1 0
31.518703 -36.95587 5.963798 23 3199868940128 1 0
0 0 0 8 3199868942432 1 0
19.202677 -20.411858 -1.1417578 7 3199868942432 1 0
18.253294 -26.220709 -1.1156671 39 3199868944736 1 0
0 0 0 9 3199868944736 1 0
20.75147 -26.912312 6.196118 30 3199868947040 1 0
22.126324 -25.966188 -0.7938314 39 3199868947040 1 0
0 0 0 4 3199868967776 1 0
24.1839 -25.789295 -0.6171171 38 3199868967776 1 0
3.8757207 -4.5617476 -1.6756804 1 3199868970080 1 0
5.105277 -6.642918 -1.6756262 2 3199868972384 1 0
28.354649 -33.38344 0 42 3199868972384 1 0
19.560793 -25.44458 -0.9340389 45 3199868970080 1 0
29.51269 -42.566154 -0.6030081 56 3199868974688 1 0
6.8023796 -8.011165 -1.6350452 5 3199868974688 1 0
7.205139 -9.380877 -1.5056223 3 3199868976992 1 0
28.454248 -30.378521 0.24191509 27 3199868976992 1 0
28.42348 -37.01767 -0.27125365 24 3199868979296 1 0
7.884437 -9.29098 -1.3125814 18 3199868979296 1 0
10.12814 -14.62144 -1.6603528 2 3199868981600 1 0
28.291336 -33.348198 1.0176228 21 3199868981600 1 0
29.328526 -42.353138 0.5997486 26 3199868983904 1 0
14.4481325 -17.035648 -1.5619869 4 3199868983904 1 0
11.9801445 -15.6165905 -1.6067857 3 3199868986208 1 0
28.392237 -30.347683 1.209468 44 3199868986208 1 0
29.524963 -38.498547 0.8468606 55 3199868988512 1 0
16.196814 -17.317377 -1.5196311 4 3199868988512 1 0
15.07425 -21.788935 -1.5430096 7 3199868990816 1 0
27.64832 -32.628708 2.4906757 34 3199868990816 1 0
31.07412 -40.542957 2.081119 38 3199868993120 1 0
20.020874 -23.634274 -1.4428371 9 3199868993120 1 0
18.379133 -23.986809 -1.583686 9 3199868995424 1 0
31.52293 -37.223213 5.989147 23 3199868995424 1 0
0 0 0 8 3199868997728 1 0
19.084927 -20.429113 -1.1389897 7 3199868997728 1 0
18.116205 -26.218489 -1.1128751 43 3199869000032 1 0
0 0 0 9 3199869000032 1 0
20.61674 -26.931463 6.183921 30 3199869002336 1 0
0 0 0 4 3199869023072 1 0
24.03922 -25.815018 -0.6157209 37 3199869023072 1 0
19.496113 -25.544489 -0.9352025 45 3199869025376 1 0
3.8572898 -4.5723042 -1.6746022 1 3199869025376 1 0
5.0868163 -6.666935 -1.6771951 2 3199869027680 1 0
28.353992 -33.61981 0 42 3199869027680 1 0
21.942562 -25.933367 -0.7904815 39 3199869002336 1 0
29.506777 -42.87649 -0.60594165 49 3199869029984 1 0
6.7743735 -8.034861 -1.6350452 4 3199869029984 1 0
7.162726 -9.393349 -1.503602 3 3199869032288 1 0
28.35229 -37.193005 -0.27181157 16 3199869034592 1 0
28.454279 -30.591885 0.24282175 27 3199869032288 1 0
0 0 0 4 3199869034592 1 0
10.077041 -14.656704 -1.6603528 2 3199869036896 1 0
28.29842 -33.59355 1.0220894 21 3199869036896 1 0
29.293785 -42.620068 0.6020768 26 3199869039200 1 0
14.386009 -17.082926 -1.561708 4 3199869039200 1 0
11.937637 -15.674171 -1.6084129 3 3199869041504 1 0
28.386822 -30.554987 1.2137735 44 3199869041504 1 0
29.511536 -38.760475 0.85035104 37 3199869043808 1 0
16.138983 -17.376734 -1.519887 4 3199869043808 1 0
15.002622 -21.848005 -1.5434747 7 3199869046112 1 0
27.642233 -32.85335 2.500443 23 3199869046112 1 0
31.164747 -40.956516 2.0967505 40 3199869048416 1 0
19.961401 -23.731535 -1.4445122 9 3199869048416 1 0
18.300129 -24.057177 -1.5841048 9 3199869050720 1 0
31.566557 -37.539654 6.0222955 35 3199869050720 1 0
0 0 0 8 3199869053024 1 0
18.904774 -20.378407 -1.1324766 3 3199869053024 1 0
17.981617 -26.21893 -1.1102228 34 3199869055328 1 0
0 0 0 9 3199869055328 1 0
20.491652 -26.962538 6.174594 30 3199869057632 1 0
21.797886 -25.945505 -0.7885274 43 3199869057632 1 0
23.90552 -25.851791 -0.61460394 37 3199869078368 1 0
19.425959 -25.638023 -0.9361334 46 3199869080672 1 0
3.8387992 -4.582816 -1.6735239 2 3199869080672 1 0
5.063416 -6.6847243 -1.6771951 3 3199869082976 1 0
28.29504 -33.789524 0 49 3199869082976 1 0
17.93664 -26.26089 -0.370233 43 3199869085280 1 0
0 0 0 4 3199869078368 1 0
6.751184 -8.064667 -1.6362749 5 3199869085280 1 0
28.44684 -30.80057 0.24368192 35 3199869087584 1 0
0 0 0 29 3199869087584 1 0
19.797134 -26.161077 -0.19067727 39 3199869089888 1 0
9.980281 -14.626431 -1.6529173 2 3199869092192 1 0
28.243652 -33.770046 1.0244156 35 3199869092192 1 0
29.29367 -42.944927 0.60519665 26 3199869094496 1 0
14.3407755 -17.152136 -1.5633821 4 3199869094496 1 0
7.796075 -9.318629 -1.308726 2 3199869089888 1 0
11.886745 -15.722797 -1.6090639 3 3199869096800 1 0
28.386648 -30.77309 1.2184279 39 3199869096800 1 0
29.496494 -39.027897 0.85391134 55 3199869099104 1 0
16.093323 -17.451624 -1.5214219 4 3199869099104 1 0
27.635069 -33.083427 2.510443 35 3199869101408 1 0
14.929171 -21.907927 -1.5439398 7 3199869101408 1 0
31.184515 -41.28759 2.1079857 14 3199869103712 1 0
19.88166 -23.808792 -1.4448844 14 3199869103712 1 0
18.264484 -24.189444 -1.588501 9 3199869106016 1 0
31.556711 -37.801697 6.0461817 36 3199869106016 1 0
0 0 0 8 3199869108320 1 0
18.807222 -20.419594 -1.1310111 11 3199869108320 1 0
17.867067 -26.253614 -1.1089664 47 3199869110624 1 0
0 0 0 9 3199869110624 1 0
20.358913 -26.989004 6.1638317 30 3199869112928 1 0
0 0 0 4 3199869133664 1 0
21.627508 -25.931673 -0.78573585 38 3199869112928 1 0
18.696356 -20.36778 -0.48259395 3 3199869133664 1 1
19.35848 -25.74406 -0.9374134 34 3199869135968 1 0
3.8318605 -4.608675 -1.677837 2 3199869135968 1 0
5.036622 -6.700029 -1.6764106 2 3199869138272 1 0
21.549227 -25.925465 0 57 3199869138272 1 0
25.759386 -38.01072 -0.53455853 22 3199869140576 1 0
6.7217565 -8.0892105 -1.6362749 4 3199869140576 1 0
7.1000924 -9.450708 -1.5046122 42 3199869142880 1 0
28.434675 -31.012888 0.24454208 35 3199869142880 1 0
0 0 0 96 3199869145184 1 0
7.7367997 -9.316263 -1.304442 3 3199869145184 1 0
9.974135 -14.731736 -1.6607246 2 3199869147488 1 0
28.22845 -34.001335 1.0283239 28 3199869147488 1 0
14.271044 -17.194643 -1.5625451 4 3199869149792 1 0
11.832349 -15.76876 -1.6093893 3 3199869152096 1 0
28.378078 -30.98733 1.2228497 39 3199869152096 1 0
29.279505 -43.2592 0.60813016 26 3199869149792 1 0
29.485409 -39.306587 0.85768104 56 3199869154400 1 0
16.03579 -17.515331 -1.5219336 4 3199869154400 1 0
14.861555 -21.977957 -1.5451026 7 3199869156704 1 0
27.617998 -33.305447 2.519745 35 3199869156704 1 0
31.175339 -41.584602 2.11743 14 3199869159008 1 0
19.872675 -23.972202 -1.4504682 14 3199869159008 1 0
18.185007 -24.264227 -1.589129 9 3199869161312 1 0
31.547926 -38.067204 6.0705557 36 3199869161312 1 0
0 0 0 8 3199869163616 1 0
18.677553 -20.42468 -1.1275917 7 3199869163616 1 0
17.755505 -26.290611 -1.1078496 47 3199869165920 1 0
0 0 0 9 3199869165920 1 0
20.229788 -27.017132 6.153787 24 3199869168224 1 0
21.48925 -25.952976 -0.7840609 52 3199869168224 1 0
0 0 0 4 3199869188960 1 0
0 0 0 18 3199869188960 1 0
19.294807 -25.846722 -0.93869334 46 3199869191264 1 0
5.0155497 -6.7207127 -1.6771951 3 3199869193568 1 0
3.8132977 -4.619052 -1.6767588 1 3199869191264 1 0
28.27453 -34.25912 0 36 3199869193568 1 0
25.532791 -37.96101 -0.53260285 55 3199869195872 1 0
7.0291033 -9.424542 -1.496531 40 3199869198176 1 0
6.6985097 -8.118722 -1.6375048 5 3199869195872 1 0
28.466276 -31.265755 0.24575096 28 3199869198176 1 0
29.604454 -39.705368 -0.28785247 101 3199869200480 1 0
7.7042327 -9.343213 -1.304442 18 3199869200480 1 0
9.924872 -14.769768 -1.6610963 2 3199869202784 1 0
29.259914 -43.55703 0.61087745 27 3199869205088 1 0
28.218967 -34.232346 1.0323251 35 3199869202784 1 0
14.21855 -17.253592 -1.5633821 4 3199869205088 1 0
11.784378 -15.819558 -1.6103656 3 3199869207392 1 0
28.366581 -31.19269 1.2270387 39 3199869207392 1 0
29.477016 -39.582485 0.8614508 56 3199869209696 1 0
15.95844 -17.553476 -1.5203986 4 3199869209696 1 0
14.791424 -22.039646 -1.5458003 7 3199869212000 1 0
30.977495 -41.622635 2.1138477 14 3199869214304 1 0
27.615791 -33.54037 2.5302103 36 3199869212000 1 0
19.834583 -24.096956 -1.4538184 14 3199869214304 1 0
0 0 0 25 3199869216608 1 0
31.54351 -38.333447 6.095417 36 3199869216608 1 0
18.557781 -20.436495 -1.1246607 7 3199869218912 1 0
0 0 0 8 3199869218912 1 0
17.628014 -26.2993 -1.1056161 47 3199869221216 1 0
9.549086 -11.611467 4.0282598 1 3199869221216 1 0
20.102491 -27.043367 6.143742 24 3199869223520 1 0
21.357893 -25.978407 -0.78257203 57 3199869223520 1 0
0 0 0 4 3199869244256 1 0
19.223701 -25.939476 -0.93962425 46 3199869246560 1 0
18.360468 -20.284319 -0.47756764 70 3199869244256 1 1
3.7996266 -4.635286 -1.677837 2 3199869246560 1 0
28.274433 -34.50261 0 22 3199869248864 1 0
4.9944925 -6.741258 -1.6779796 3 3199869248864 1 0
25.40762 -38.059334 -0.53274256 16 3199869251168 1 0
6.675317 -8.148025 -1.6387346 5 3199869251168 1 0
23.421873 -25.904833 0.20297527 15 3199869253472 1 0
29.638472 -40.038868 -0.28952628 112 3199869255776 1 0
7.6567955 -9.351307 -1.3018718 60 3199869255776 1 0
6.984631 -9.432874 -1.4940057 43 3199869253472 1 0
9.878322 -14.810518 -1.66184 2 3199869258080 1 0
28.197054 -34.447002 1.0358611 21 3199869258080 1 0
29.243052 -43.857086 0.61367136 27 3199869260384 1 0
14.174279 -17.320927 -1.5650562 4 3199869260384 1 0
11.7537155 -15.891968 -1.6136203 3 3199869262688 1 0
29.467285 -39.853653 0.8651507 47 3199869264992 1 0
15.919623 -17.631737 -1.5224453 4 3199869264992 1 0
28.36922 -31.411531 1.2318096 40 3199869262688 1 0
14.729291 -22.110014 -1.5471957 7 3199869267296 1 0
31.607307 -42.772694 2.1667671 33 3199869269600 1 0
19.716879 -24.121153 -1.4512126 14 3199869269600 1 0
17.984068 -24.344036 -1.5861982 9 3199869271904 1 0
31.553549 -38.612736 6.122716 37 3199869271904 1 0
0 0 0 8 3199869274208 1 0
27.604626 -33.76131 2.539745 36 3199869267296 1 0
18.432056 -20.437075 -1.1212413 3 3199869274208 1 0
17.512213 -26.31895 -1.1039408 47 3199869276512 1 0
0 0 0 102 3199869276512 1 0
19.989895 -27.082697 6.137285 30 3199869278816 1 0
21.148525 -25.901798 -0.7781055 9 3199869278816 1 0
0 0 0 4 3199869299552 1 0
18.27171 -20.321302 -0.47700918 66 3199869299552 1 1
19.149427 -26.019182 -0.94020605 46 3199869301856 1 0
4.974435 -6.760943 -1.678764 2 3199869304160 1 0
0 0 0 8 3199869301856 1 0
20.099758 -24.69383 0 81 3199869304160 1 0
25.305576 -38.18005 -0.53325474 16 3199869306464 1 0
6.6457653 -8.167049 -1.6381197 4 3199869306464 1 0
6.9533124 -9.455983 -1.4940057 14 3199869308768 1 0
28.478226 -31.707943 0.24770376 14 3199869308768 1 0
29.623993 -40.298073 -0.29068866 124 3199869311072 1 0
7.600651 -9.345792 -1.2975879 63 3199869311072 1 0
9.831352 -14.846515 -1.6622118 2 3199869313376 1 0
28.23403 -34.726486 1.0414443 42 3199869313376 1 0
29.245382 -44.177273 0.6167911 27 3199869315680 1 0
14.109213 -17.358545 -1.5642191 4 3199869315680 1 0
11.705671 -15.9372835 -1.6142712 3 3199869317984 1 0
28.369032 -31.621504 1.2363477 40 3199869317984 1 0
29.46752 -40.13168 0.86906004 47 3199869320288 1 0
15.861067 -17.684433 -1.5224453 4 3199869320288 1 0
14.6492815 -22.148745 -1.546498 7 3199869322592 1 0
27.6058 -33.992157 2.55021 36 3199869322592 1 0
31.656824 -43.138268 2.1799562 51 3199869324896 1 0
19.68967 -24.251547 -1.4551213 14 3199869324896 1 0
17.964676 -24.48728 -1.5916411 9 3199869327200 1 0
31.550432 -38.87129 6.1470895 38 3199869327200 1 0
0 0 0 8 3199869329504 1 0
18.276176 -20.39985 -1.115868 7 3199869329504 1 0
17.40501 -26.346859 -1.1026845 47 3199869331808 1 0
0 0 0 57 3199869331808 1 0
19.8581 -27.091707 6.1243706 24 3199869334112 1 0
0 0 0 26 3199869334112 1 0
0 0 0 4 3199869354296 1 0
18.237955 -20.426725 -0.4779865 45 3199869354296 1 1
19.07245 -26.105377 -0.94090426 57 3199869356600 1 0
9.46105 -11.703597 -4.2129235 5 3199869356600 1 0
4.950706 -6.778338 -1.678764 2 3199869358904 1 0
0 0 0 7 3199869358904 1 0
25.213076 -38.33219 -0.53413945 16 3199869361208 1 0
6.622006 -8.196491 -1.6393496 4 3199869361208 1 0
0 0 0 15 3199869363512 1 0
29.620785 -40.592945 -0.2920603 113 3199869365816 1 0
7.550152 -9.350882 -1.2945892 69 3199869365816 1 0
9.783194 -14.887826 -1.6629553 2 3199869368120 1 0
29.525217 -36.577938 1.0938329 15 3199869368120 1 0
29.227093 -44.491177 0.6197247 27 3199869370424 1 0
14.05266 -17.414616 -1.5647773 4 3199869370424 1 0
28.462288 -31.915453 0.24854067 36 3199869363512 1 0
11.656084 -15.988389 -1.6152475 3 3199869372728 1 0
28.365671 -31.84439 1.2411186 41 3199869372728 1 0
29.432978 -40.38489 0.8722713 28 3199869375032 1 0
14.633803 -22.29762 -1.5532421 7 3199869377336 1 0
15.800734 -17.743706 -1.5227011 4 3199869375032 1 0
27.59979 -34.23331 2.5609076 37 3199869377336 1 0
31.603771 -43.389942 2.1869578 52 3199869379640 1 0
19.638054 -24.36525 -1.4577271 14 3199869379640 1 0
17.907515 -24.593378 -1.5943626 9 3199869381944 1 0
31.543173 -39.147774 6.172926 39 3199869381944 1 0
0 0 0 8 3199869384248 1 0
18.179016 -20.438368 -1.1144025 10 3199869384248 1 0
17.292715 -26.38247 -1.1015677 47 3199869386552 1 0
0 0 0 140 3199869386552 1 0
19.725725 -27.115284 6.1136084 29 3199869388856 1 0
19.970846 -24.807676 -0.74107057 56 3199869388856 1 0
0 0 0 4 3199869409592 1 0
18.13205 -20.451359 -0.47707897 45 3199869409592 1 1
18.98825 -26.181503 -0.9412533 46 3199869411896 1 0
9.478005 -11.808646 -4.238803 7 3199869411896 1 0
4.927015 -6.7955775 -1.678764 2 3199869414200 1 0
28.918478 -36.040268 0 24 3199869414200 1 0
29.355534 -44.971226 -0.6252193 90 3199869416504 1 0
6.847272 -9.449873 -1.4854194 3 3199869418808 1 0
6.593354 -8.219557 -1.6393496 5 3199869416504 1 0
28.464737 -32.143375 0.24954033 22 3199869418808 1 0
0 0 0 19 3199869421112 1 0
7.507515 -9.364768 -1.2928755 54 3199869421112 1 0
9.7355175 -14.928557 -1.6636988 2 3199869423416 1 0
29.497389 -36.805595 1.0975549 23 3199869423416 1 0
29.204857 -44.79731 0.62256515 27 3199869425720 1 0
13.996776 -17.469791 -1.5653353 4 3199869425720 1 0
28.352354 -32.05402 1.2454239 41 3199869428024 1 0
29.444206 -40.698 0.8768089 19 3199869430328 1 0
11.602541 -16.03221 -1.6155729 3 3199869428024 1 0
15.749277 -17.810713 -1.5237244 4 3199869430328 1 0
27.589926 -34.466614 2.57114 25 3199869432632 1 0
14.501398 -22.264914 -1.5474281 7 3199869432632 1 0
31.770597 -43.940468 2.2091026 37 3199869434936 1 0
19.585339 -24.474209 -1.4601467 19 3199869434936 1 0
17.830917 -24.668686 -1.5952 9 3199869437240 1 0
31.520418 -39.400253 6.19535 27 3199869437240 1 0
18.041418 -20.42681 -1.1103318 3 3199869439544 1 0
0 0 0 8 3199869439544 1 0
17.1809 -26.412512 -1.1003113 47 3199869441848 1 0
19.60331 -27.14569 6.1049986 35 3199869444152 1 0
19.904104 -24.902227 -0.74181503 56 3199869444152 1 0
0 0 0 4 3199869464888 1 0
18.023552 -20.472502 -0.47610164 50 3199869464888 1 1
18.850023 -26.182728 -0.9389261 34 3199869467192 1 0
9.496743 -11.916968 -4.2657604 3 3199869467192 1 0
9.5304365 -11.920071 4.0893407 151 3199869441848 1 0
28.79499 -36.14412 0 24 3199869469496 1 0
4.9009724 -6.8095512 -1.6779796 3 3199869469496 1 0
29.424534 -45.42254 -0.630062 38 3199869471800 1 0
6.804976 -9.460832 -1.4833992 3 3199869474104 1 0
28.452734 -32.35668 0.25042373 22 3199869474104 1 0
6.567085 -8.245613 -1.6399645 5 3199869471800 1 0
29.616894 -41.18845 -0.29485 117 3199869476408 1 0
0 0 0 12 3199869476408 1 0
29.485762 -37.055405 1.1019285 31 3199869478712 1 0
9.694167 -14.979167 -1.6655577 2 3199869478712 1 0
29.176493 -45.097115 0.62531245 27 3199869481016 1 0
11.558138 -16.0888 -1.6172003 3 3199869483320 1 0
14.010232 -17.612225 -1.573706 4 3199869481016 1 0
28.343195 -32.269955 1.2499621 41 3199869483320 1 0
29.40928 -40.949963 0.88002014 19 3199869485624 1 0
15.687011 -17.86558 -1.5237244 4 3199869485624 1 0
14.477781 -22.39924 -1.5532421 7 3199869487928 1 0
27.583736 -34.706512 2.5818377 25 3199869487928 1 0
31.854729 -44.382286 2.2257113 38 3199869490232 1 0
17.751686 -24.740515 -1.5958279 9 3199869492536 1 0
31.508629 -39.668587 6.2202115 27 3199869492536 1 0
19.54453 -24.598736 -1.4634969 9 3199869490232 1 0
0 0 0 8 3199869494840 1 0
17.9621 -20.480648 -1.1098433 7 3199869494840 1 1
17.06475 -26.435379 -1.0987757 47 3199869497144 1 0
9.568043 -12.053127 4.123505 118 3199869497144 1 0
19.474043 -27.165981 6.0942364 29 3199869499448 1 0
19.83446 -24.99348 -0.7424664 54 3199869499448 1 0
0 0 0 4 3199869520184 1 0
17.949347 -20.53228 -0.47603184 47 3199869520184 1 1
18.721317 -26.19632 -0.9370643 46 3199869522488 1 0
3.714157 -4.694229 -1.6756804 1 3199869522488 1 0
4.8862934 -6.839383 -1.6811174 3 3199869524792 1 0
28.666168 -36.241276 0 24 3199869524792 1 0
29.42369 -45.770584 -0.6334612 31 3199869527096 1 0
6.535811 -8.265386 -1.6393496 5 3199869527096 1 0
6.7696047 -9.481298 -1.4828941 8 3199869529400 1 0
28.44748 -32.579338 0.2513769 30 3199869529400 1 0
29.598425 -41.46739 -0.29610538 111 3199869531704 1 0
0 0 0 4 3199869531704 1 0
9.637516 -15.006212 -1.6648141 2 3199869534008 1 0
29.487621 -37.32441 1.1068602 31 3199869534008 1 0
29.16368 -45.42419 0.6284322 28 3199869536312 1 0
13.951142 -17.664154 -1.5739851 4 3199869536312 1 0
11.51348 -16.145277 -1.6188276 3 3199869538616 1 0
28.338129 -32.492237 1.254733 36 3199869538616 1 0
29.414742 -41.26079 0.884488 29 3199869540920 1 0
15.621929 -17.917221 -1.5234686 4 3199869540920 1 0
27.566315 -34.93425 2.591605 25 3199869543224 1 0
31.940796 -44.831738 2.2426455 40 3199869545528 1 0
19.312538 -24.481722 -1.4525156 9 3199869545528 1 0
14.401662 -22.453001 -1.5534747 7 3199869543224 1 0
17.711565 -24.867401 -1.6000148 10 3199869547832 1 0
31.492891 -39.934204 6.244585 28 3199869547832 1 0
0 0 0 8 3199869550136 1 0
17.937746 -20.597473 -1.1127743 10 3199869550136 1 0
9.58331 -12.159282 4.1483517 119 3199869552440 1 0
19.354002 -27.198523 6.0863442 29 3199869554744 1 0
19.771843 -25.093973 -0.7433969 54 3199869554744 1 0
16.957275 -26.471222 -1.0977986 47 3199869552440 1 0
0 0 0 4 3199869575480 1 0
17.948355 -20.676355 -0.4779167 52 3199869575480 1 1
18.58118 -26.193026 -0.9346207 39 3199869577784 1 0
