# .PCD v.7 - Point Cloud Data file format
VERSION .7
FIELDS x y z rgb timestamp_ns device_id active
SIZE 4 4 4 4 8 1 1
TYPE F F F F F U U
COUNT 1 1 1 1 1 1 1
WIDTH 993
HEIGHT 1
VIEWPOINT 0 0 0 1 0 0 0
POINTS 993               
DATA ascii
8.916596 -27.91836 -1.194026 33 3204975915912 1 0
0 0 0 9 3204975918216 1 0
4.656419 -28.419504 -1.0056639 28 3204975918216 1 0
6.4170523 -29.939247 5.5826764 25 3204975920520 1 0
0 0 0 3 3204975920520 1 0
0 0 0 4 3204975941256 1 0
10.580629 -33.293873 -0.6097871 48 3204975941256 1 0
11.662163 -54.76432 -1.6295353 50 3204975943560 1 0
1.5598314 -5.894698 -1.7069511 7 3204975943560 1 0
1.8058532 -8.48616 -1.7352458 4 3204975945864 1 0
7.486039 -28.306847 0 8 3204975945864 1 0
9.094486 -56.12002 -0.6618654 25 3204975948168 1 0
2.6946023 -10.195058 -1.6405793 30 3204975948168 1 0
2.2507825 -10.59213 -1.3783439 2 3204975950472 1 0
10.55906 -33.293095 0.20299852 71 3204975950472 1 0
4.040191 -15.304127 -1.704985 3 3204975952776 1 0
11.643336 -54.83249 -0.32579264 30 3204975952776 1 0
3.0936852 -19.143326 -1.8101786 2 3204975955080 1 0
14.321982 -54.283245 1.3063649 32 3204975955080 1 0
6.299655 -23.891068 -1.7277284 7 3204975957384 1 0
13.906418 -86.13066 1.0157077 28 3204975957384 1 0
4.494755 -21.212902 -1.7701654 4 3204975959688 1 0
10.532993 -33.27808 1.0158415 68 3204975959688 1 0
11.607376 -54.820087 0.9781027 87 3204975961992 1 0
7.8923154 -24.947697 -1.6769667 33 3204975961992 1 0
4.755088 -29.532957 -1.7420776 12 3204975964296 1 0
14.252809 -54.148754 3.2609015 47 3204975964296 1 0
11.567877 -54.71207 2.278305 86 3204975966600 1 0
7.449043 -28.316864 -1.3639203 48 3204975966600 1 0
6.1178546 -28.95615 -1.5510284 41 3204975968904 1 0
0 0 0 8 3204975971208 1 0
9.89186 -37.625256 4.7767906 7 3204975968904 1 0
8.844016 -28.012695 -1.196794 41 3204975971208 1 0
4.5492935 -28.359928 -1.0030116 32 3204975973512 1 0
0 0 0 9 3204975973512 1 0
0 0 0 1 3204975975816 1 0
6.327792 -30.014545 5.592721 20 3204975975816 1 0
10.458357 -33.311527 -0.60943806 53 3204975996552 1 0
11.477481 -54.836002 -1.6304662 50 3204975998856 1 0
1.5411903 -5.9075613 -1.7091078 7 3204975998856 1 0
0 0 0 4 3204975996552 1 0
1.777023 -8.496252 -1.7360302 3 3204976001160 1 0
7.386175 -28.328936 0 8 3204976001160 1 0
4.6677556 -29.454414 -0.34718367 2 3204976003464 1 0
2.658002 -10.200577 -1.6399645 31 3204976003464 1 0
2.2146065 -10.603806 -1.378849 3 3204976005768 1 0
10.437998 -33.314484 0.20290554 71 3204976005768 1 0
11.452682 -54.876713 -0.3258159 20 3204976008072 1 0
3.0305736 -19.177612 -1.8124093 2 3204976010376 1 0
3.9917536 -15.337379 -1.707127 3 3204976008072 1 0
14.132411 -54.332905 1.3063649 32 3204976010376 1 0
6.2212405 -23.932222 -1.7291235 8 3204976012680 1 0
13.606928 -86.186584 1.015801 28 3204976012680 1 0
10.411994 -33.299377 1.015376 63 3204976014984 1 0
11.416762 -54.864185 0.9781725 13 3204976017288 1 0
7.8254256 -25.039865 -1.6813158 52 3204976017288 1 0
4.422306 -21.236269 -1.7708164 4 3204976014984 1 0
4.449521 -28.26342 -1.6662643 15 3204976019592 1 0
14.062705 -54.194313 3.2606688 47 3204976019592 1 0
11.378452 -54.75994 2.2786307 86 3204976021896 1 0
7.34915 -28.338827 -1.3637341 43 3204976021896 1 0
6.023238 -29.00862 -1.5527031 41 3204976024200 1 0
9.762455 -37.66724 4.7777658 7 3204976024200 1 0
0 0 0 8 3204976026504 1 0
8.73904 -28.020502 -1.1958171 45 3204976026504 1 0
4.439122 -28.304548 -1.0004988 32 3204976028808 1 0
0 0 0 9 3204976028808 1 0
6.228572 -30.063423 5.5977435 20 3204976031112 1 0
14.016206 -54.177143 -1.3021775 22 3204976031112 1 0
0 0 0 4 3204976051296 1 0
10.3432 -33.35165 -0.60950786 32 3204976051296 1 0
11.281971 -54.85615 -1.6298845 50 3204976053600 1 0
1.518641 -5.905444 -1.7069511 7 3204976053600 1 0
1.7497234 -8.513929 -1.7383837 5 3204976055904 1 0
4.5649123 -29.470528 -0.34718367 2 3204976058208 1 0
0 0 0 62 3204976055904 1 0
2.6204123 -10.202136 -1.6387346 33 3204976058208 1 0
2.1791742 -10.619246 -1.3798592 4 3204976060512 1 0
10.322827 -33.354538 0.20292878 41 3204976060512 1 0
11.252217 -54.873253 -0.32556015 30 3204976062816 1 0
3.9401681 -15.358925 -1.7079837 3 3204976062816 1 0
2.9623969 -19.180202 -1.8116658 2 3204976065120 1 0
13.942668 -54.38191 1.3063649 21 3204976065120 1 0
12.905263 -83.63647 0.98520815 28 3204976067424 1 0
6.135683 -23.946062 -1.7285655 8 3204976067424 1 0
4.353745 -21.278917 -1.7730947 4 3204976069728 1 0
10.302773 -33.35844 1.0160742 29 3204976069728 1 0
11.222777 -54.89195 0.97796303 18 3204976072032 1 0
7.7532787 -25.116613 -1.6846416 57 3204976072032 1 0
4.327154 -28.124855 -1.6571946 15 3204976074336 1 0
13.870477 -54.231464 3.2599711 47 3204976074336 1 0
11.187235 -54.799328 2.2786307 100 3204976076640 1 0
7.245237 -28.344952 -1.3628036 43 3204976076640 1 0
5.926733 -29.05295 -1.5539593 41 3204976078944 1 0
9.622068 -37.66647 4.7733784 7 3204976078944 1 0
0 0 0 8 3204976081248 1 0
8.627057 -28.005003 -1.1938632 28 3204976081248 1 0
0 0 0 9 3204976083552 1 0
4.328788 -28.244793 -0.9978464 36 3204976083552 1 0
0 0 0 48 3204976085856 1 0
0 0 0 4 3204976106592 1 0
12.397157 -40.473465 -0.7388651 14 3204976106592 1 0
11.0943775 -54.914795 -1.6304662 33 3204976108896 1 0
1.4989642 -5.914443 -1.7080295 5 3204976108896 1 0
6.1369357 -30.150536 5.6099405 15 3204976085856 1 0
1.7192175 -8.51614 -1.7375993 4 3204976111200 1 0
0 0 0 3 3204976111200 1 0
0 0 0 23 3204976113504 1 0
2.5847843 -10.211221 -1.6387346 28 3204976113504 1 0
2.1444452 -10.638456 -1.3813744 7 3204976115808 1 0
12.664087 -41.430984 0.25179535 45 3204976115808 1 0
5.859657 -29.09123 -0.17247435 11 3204976118112 1 0
3.8904307 -15.388008 -1.7096972 3 3204976118112 1 0
2.89721 -19.20224 -1.8127811 2 3204976120416 1 0
13.749816 -54.418613 1.3060857 21 3204976120416 1 0
13.006098 -86.287384 1.015894 28 3204976122720 1 0
6.056943 -23.986677 -1.7299606 8 3204976122720 1 0
4.279441 -21.293985 -1.7730947 4 3204976125024 1 0
12.618514 -41.367966 1.2586893 30 3204976125024 1 0
11.033463 -54.942554 0.9781725 18 3204976127328 1 0
7.6771994 -25.181707 -1.6871998 57 3204976127328 1 0
4.2372622 -28.195072 -1.6604505 15 3204976129632 1 0
13.678162 -54.267933 3.2592735 47 3204976129632 1 0
10.996667 -54.84196 2.2787936 64 3204976131936 1 0
7.1501546 -28.385567 -1.363548 48 3204976131936 1 0
5.815866 -29.02646 -1.551447 32 3204976134240 1 0
9.496345 -37.722927 4.7763033 7 3204976134240 1 0
8.526922 -28.027298 -1.1935375 33 3204976136544 1 0
4.232536 -28.275545 -0.9984048 28 3204976138848 1 0
0 0 0 9 3204976138848 1 0
6.04631 -30.24509 5.6235723 15 3204976141152 1 0
0 0 0 8 3204976136544 1 0
13.660054 -54.362877 -1.3043177 22 3204976141152 1 0
0 0 0 4 3204976161888 1 0
12.541818 -41.462032 -0.75610805 59 3204976161888 1 0
10.900287 -54.94142 -1.6301172 50 3204976164192 1 0
1.4764433 -5.912165 -1.7058729 6 3204976164192 1 0
1.6917684 -8.533631 -1.7399526 4 3204976166496 1 0
13.581579 -54.41879 0 22 3204976166496 1 0
0 0 0 28 3204976168800 1 0
2.5491247 -10.220181 -1.6387346 10 3204976168800 1 0
2.1111493 -10.665339 -1.3838997 8 3204976171104 1 0
12.518233 -41.471107 0.2517721 68 3204976171104 1 0
10.878948 -55.00148 -0.32586238 20 3204976173408 1 0
3.839577 -15.413072 -1.7109824 3 3204976173408 1 0
2.8342268 -19.239817 -1.8153836 2 3204976175712 1 0
13.560741 -54.470158 1.3061788 21 3204976175712 1 0
5.976067 -24.01929 -1.7307976 8 3204976178016 1 0
4.2097163 -21.33226 -1.7750473 4 3204976180320 1 0
12.437528 -84.515945 0.994521 28 3204976178016 1 0
12.484415 -41.446217 1.2597365 60 3204976180320 1 0
7.607664 -25.26951 -1.6912931 52 3204976182624 1 0
10.840063 -54.972885 0.9780328 100 3204976182624 1 0
4.3602495 -29.71895 -1.7492869 8 3204976184928 1 0
13.485761 -54.303722 3.258576 47 3204976184928 1 0
10.80285 -54.868248 2.278305 100 3204976187232 1 0
7.056802 -28.43362 -1.3646648 48 3204976187232 1 0
5.6975455 -28.96036 -1.5468415 32 3204976189536 1 0
9.362698 -37.74814 4.775328 7 3204976189536 1 0
0 0 0 8 3204976191840 1 0
8.362341 -27.834887 -1.1840934 44 3204976191840 1 0
4.149994 -28.400904 -1.0023135 28 3204976194144 1 0
0 0 0 9 3204976194144 1 0
5.958131 -30.354824 5.6400747 15 3204976196448 1 0
13.463482 -54.383057 -1.3036664 33 3204976196448 1 0
0 0 0 4 3204976217184 1 0
5.680235 -29.163391 -0.864687 14 3204976219488 1 0
1.4567171 -5.9210234 -1.7069511 5 3204976219488 1 0
11.973515 -40.087677 -0.7302785 21 3204976217184 1 0
13.39154 -54.465866 0 22 3204976221792 1 0
12.094588 -83.87878 -0.9866051 14 3204976224096 1 0
2.5143774 -10.232856 -1.6393496 8 3204976224096 1 0
2.0716367 -10.660958 -1.3823845 8 3204976226400 1 0
1.6604716 -8.531785 -1.7383837 4 3204976221792 1 0
12.369968 -41.50305 0.25170237 68 3204976226400 1 0
5.666332 -29.182474 -0.17277656 34 3204976228704 1 0
3.7857518 -15.42638 -1.7109824 3 3204976228704 1 0
2.7630835 -19.221998 -1.8127811 2 3204976231008 1 0
13.366713 -54.501625 1.3058066 21 3204976231008 1 0
12.561435 -87.476715 1.0288389 28 3204976233312 1 0
5.8969374 -24.059381 -1.7321928 8 3204976233312 1 0
4.133711 -21.338997 -1.7743964 4 3204976235616 1 0
12.340804 -41.493374 1.2598529 60 3204976235616 1 0
10.651906 -55.03002 0.97838193 75 3204976237920 1 0
7.537609 -25.357132 -1.6953864 41 3204976237920 1 0
4.266104 -29.80119 -1.7532403 12 3204976240224 1 0
13.295174 -54.34659 3.2583432 47 3204976240224 1 0
10.612017 -54.90955 2.278468 86 3204976242528 1 0
6.962251 -28.477488 -1.3655955 48 3204976242528 1 0
5.580515 -28.897707 -1.5424453 32 3204976244832 1 0
9.226164 -37.761307 4.772891 7 3204976244832 1 0
0 0 0 8 3204976247136 1 0
8.337869 -28.109135 -1.1945144 41 3204976247136 1 0
4.066064 -28.52207 -1.0060827 24 3204976249440 1 0
0 0 0 9 3204976249440 1 0
13.273568 -54.42972 -1.3036664 56 3204976251744 1 0
5.872981 -30.483631 5.660164 15 3204976251744 1 0
0 0 0 4 3204976272480 1 0
11.800705 -40.017982 -0.728254 56 3204976272480 1 0
10.519464 -55.031887 -1.6305826 51 3204976274784 1 0
1.4369472 -5.929816 -1.7080295 6 3204976274784 1 0
1.6299441 -8.533676 -1.7375993 3 3204976277088 1 0
13.201337 -54.51228 0 22 3204976277088 1 0
2.4777129 -10.237729 -1.6387346 9 3204976279392 1 0
2.035897 -10.6759205 -1.3833947 9 3204976281696 1 0
12.221633 -41.534466 0.2516326 68 3204976281696 1 0
11.748251 -83.54025 -0.9821349 14 3204976279392 1 0
0 0 0 9 3204976284000 1 0
3.7374868 -15.462695 -1.7135528 2 3204976284000 1 0
2.7009456 -19.267023 -1.8161271 2 3204976286304 1 0
13.179202 -54.559616 1.3060857 21 3204976286304 1 0
12.239921 -87.40516 1.0274886 28 3204976288608 1 0
5.8419456 -24.200064 -1.7408426 8 3204976288608 1 0
4.062921 -21.372879 -1.7760237 4 3204976290912 1 0
12.190258 -41.517017 1.259271 66 3204976290912 1 0
10.459004 -55.06294 0.9783121 50 3204976293216 1 0
7.464787 -25.436913 -1.698968 33 3204976293216 1 0
4.1659174 -29.843582 -1.7548683 12 3204976295520 1 0
13.103518 -54.3849 3.257878 47 3204976295520 1 0
10.420281 -54.946255 2.278468 64 3204976297824 1 0
6.870287 -28.532694 -1.3670844 48 3204976297824 1 0
5.4662223 -28.846367 -1.5386771 31 3204976300128 1 0
9.093368 -37.78942 4.7724037 7 3204976300128 1 0
0 0 0 8 3204976302432 1 0
8.213865 -28.049849 -1.1907693 41 3204976302432 1 0
0 0 0 9 3204976304736 1 0
3.980788 -28.639036 -1.0097122 28 3204976304736 1 0
13.081624 -54.467945 -1.3034803 67 3204976307040 1 0
5.795776 -30.658611 5.688863 10 3204976307040 1 0
11.618467 -39.91301 -0.72560126 56 3204976327776 1 0
10.329514 -55.080063 -1.6309317 51 3204976330080 1 0
1.4162396 -5.9347954 -1.7080295 5 3204976330080 1 0
1.6030357 -8.554735 -1.7407371 3 3204976332384 1 0
13.010973 -54.558025 0 22 3204976332384 1 0
0 0 0 4 3204976327776 1 0
11.226265 -81.90057 -0.9623916 14 3204976334688 1 0
2.4428778 -10.25016 -1.6393496 8 3204976334688 1 0
1.997889 -10.679062 -1.3828896 10 3204976336992 1 0
12.072113 -41.561512 0.25153962 61 3204976336992 1 0
10.300183 -55.100594 -0.32579264 20 3204976339296 1 0
3.685331 -15.483385 -1.7144096 3 3204976339296 1 0
2.6325963 -19.268442 -1.8153836 2 3204976341600 1 0
12.990524 -54.613068 1.3062718 21 3204976341600 1 0
12.747666 -93.40373 1.0974748 28 3204976343904 1 0
5.7592816 -24.228073 -1.7414006 8 3204976343904 1 0
3.9882913 -21.386932 -1.7760237 4 3204976346208 1 0
12.0419235 -41.5478 1.258922 66 3204976346208 1 0
10.268932 -55.11091 0.9785215 37 3204976348512 1 0
7.397053 -25.535666 -1.7038288 22 3204976348512 1 0
0 0 0 98 3204976350816 1 0
10.229151 -54.986225 2.2786307 64 3204976353120 1 0
12.910833 -54.41865 3.2571805 47 3204976350816 1 0
6.7798653 -28.59538 -1.3689456 43 3204976353120 1 0
5.3472466 -28.76709 -1.5334436 31 3204976355424 1 0
8.961402 -37.820934 4.7724037 7 3204976355424 1 0
0 0 0 8 3204976357728 1 0
8.13144 -28.132103 -1.193049 41 3204976357728 1 0
3.8952813 -28.759716 -1.0134814 28 3204976360032 1 0
0 0 0 9 3204976360032 1 0
5.724595 -30.872114 5.7247367 10 3204976362336 1 0
12.889575 -54.505493 -1.3032942 56 3204976362336 1 0
0 0 0 4 3204976383072 1 0
11.466926 -39.91104 -0.72483337 49 3204976383072 1 0
9.978068 -54.250668 -1.605332 32 3204976385376 1 0
1.3963957 -5.943453 -1.7091078 6 3204976385376 1 0
1.5731643 -8.560278 -1.7407371 4 3204976387680 1 0
12.853366 -54.743298 0 22 3204976387680 1 0
10.846618 -81.23754 -0.9541497 14 3204976389984 1 0
2.4043746 -10.247081 -1.6375048 8 3204976389984 1 0
0 0 0 3 3204976392288 1 0
1.9620321 -10.693776 -1.3838997 8 3204976392288 1 0
0 0 0 108 3204976394592 1 0
3.6321688 -15.500027 -1.7148379 3 3204976394592 1 0
2.568473 -19.3012 -1.8176142 2 3204976396896 1 0
12.794339 -54.634716 1.3057135 10 3204976396896 1 0
5.675584 -24.251913 -1.7416797 8 3204976399200 1 0
11.417559 -85.89461 1.0087698 28 3204976399200 1 0
3.9179156 -21.424253 -1.7779765 4 3204976401504 1 0
13.93992 -48.73196 1.4751228 16 3204976401504 1 0
10.073622 -55.13068 0.9782423 50 3204976403808 1 0
3.9039764 -29.468157 -1.7311475 33 3204976406112 1 0
12.718982 -54.455612 3.2567153 47 3204976406112 1 0
7.3232336 -25.615063 -1.7074105 8 3204976403808 1 0
10.04002 -55.037323 2.279282 64 3204976408416 1 0
6.689998 -28.661674 -1.370993 48 3204976408416 1 0
5.234621 -28.718775 -1.5298847 36 3204976410720 1 0
8.828426 -37.848118 4.771916 7 3204976410720 1 0
0 0 0 8 3204976413024 1 0
3.8084579 -28.876183 -1.017111 24 3204976415328 1 0
0 0 0 9 3204976415328 1 0
5.659737 -31.12808 5.7685027 5 3204976417632 1 0
12.696517 -54.53847 -1.303015 56 3204976417632 1 0
0 0 0 4 3204976438368 1 0
7.889565 -27.656834 -1.1717184 100 3204976413024 1 0
9.733634 -34.329315 -0.6228415 61 3204976438368 1 0
9.939458 -55.11928 -1.6300008 33 3204976440672 1 0
1.3765517 -5.9520335 -1.7101861 6 3204976440672 1 0
1.5447894 -8.573416 -1.742306 3 3204976442976 1 0
12.659391 -54.77206 0 22 3204976442976 1 0
0 0 0 17 3204976445280 1 0
1.9278134 -10.7161255 -1.38592 5 3204976447584 1 0
2.3750412 -10.282317 -1.6418092 17 3204976445280 1 0
9.759457 -54.29288 -0.3206084 15 3204976449888 1 0
13.795333 -48.757088 0.2945013 77 3204976447584 1 0
3.5794995 -15.5163555 -1.7152663 3 3204976449888 1 0
2.5024378 -19.31389 -1.817986 2 3204976452192 1 0
12.6095295 -54.694084 1.3060857 10 3204976452192 1 0
10.91668 -84.34672 0.99014395 28 3204976454496 1 0
5.5957136 -24.286846 -1.7427957 8 3204976454496 1 0
3.8626506 -21.539602 -1.7864383 4 3204976456800 1 0
13.763876 -48.748737 1.4741919 64 3204976456800 1 0
9.876969 -55.12156 0.9774744 37 3204976459104 1 0
7.2397904 -25.655363 -1.7084337 5 3204976459104 1 0
12.532782 -54.498764 3.2567153 47 3204976461408 1 0
3.8032336 -29.481329 -1.7311475 37 3204976461408 1 0
9.850137 -55.059444 2.2787936 64 3204976463712 1 0
6.598469 -28.711584 -1.3722959 43 3204976463712 1 0
8.696897 -37.866337 4.7704535 7 3204976466016 1 0
5.1241975 -28.665644 -1.5261165 36 3204976466016 1 0
0 0 0 8 3204976468320 1 0
0 0 0 97 3204976468320 1 0
3.7263668 -29.011837 -1.0214385 20 3204976470624 1 0
0 0 0 9 3204976470624 1 0
0 0 0 29 3204976472928 1 0
0 0 0 4 3204976493664 1 0
11.198232 -39.99972 -0.72504276 42 3204976493664 1 0
12.510232 -54.573296 -1.3028289 56 3204976472928 1 0
9.749952 -55.116577 -1.6289536 50 3204976495968 1 0
1.5141777 -8.566926 -1.7399526 3 3204976498272 1 0
1.3550524 -5.9490643 -1.7080295 6 3204976495968 1 0
12.472455 -54.79442 0 22 3204976498272 1 0
0 0 0 28 3204976500576 1 0
2.341583 -10.294042 -1.6424241 44 3204976500576 1 0
1.8912655 -10.718606 -1.385415 3 3204976502880 1 0
13.628925 -48.791405 0.29443154 55 3204976502880 1 0
0 0 0 28 3204976505184 1 0
3.534509 -15.559295 -1.7186935 3 3204976505184 1 0
2.4370356 -19.318237 -1.8176142 2 3204976507488 1 0
11.7561865 -93.29988 1.094774 28 3204976509792 1 0
12.422158 -54.72054 1.3057135 10 3204976507488 1 0
5.5183215 -24.325006 -1.7441908 8 3204976509792 1 0
3.7913287 -21.560368 -1.7870892 4 3204976512096 1 0
13.595011 -48.7795 1.4737265 72 3204976512096 1 0
9.6759815 -55.071922 0.97600836 37 3204976514400 1 0
7.158349 -25.698925 -1.709713 5 3204976514400 1 0
3.7724552 -30.044783 -1.7634728 8 3204976516704 1 0
12.346259 -54.533134 3.2562504 70 3204976516704 1 0
6.5079765 -28.765005 -1.3737849 43 3204976519008 1 0
9.665163 -55.10439 2.279282 64 3204976519008 1 0
5.012817 -28.604227 -1.5219296 31 3204976521312 1 0
0 0 0 8 3204976523616 1 0
7.6882873 -27.663687 -1.1697644 88 3204976523616 1 0
3.6400733 -29.127539 -1.025068 16 3204976525920 1 0
8.548711 -37.810524 4.759729 7 3204976521312 1 0
0 0 0 9 3204976525920 1 0
0 0 0 29 3204976528224 1 0
12.323234 -54.615826 -1.3028289 56 3204976528224 1 0
0 0 0 4 3204976548960 1 0
9.291046 -33.639183 -0.6091588 100 3204976548960 1 0
9.569669 -55.225266 -1.6311644 17 3204976551264 1 0
1.335876 -5.9612947 -1.7101861 6 3204976551264 1 0
1.4853531 -8.579932 -1.7415216 3 3204976553568 1 0
12.283011 -54.853592 0 22 3204976553568 1 0
6.197148 -50.380848 -0.5909479 92 3204976555872 1 0
2.296556 -10.263682 -1.6362749 40 3204976555872 1 0
1.8538907 -10.72916 -1.38592 4 3204976558176 1 0
13.459937 -48.85489 0.29452455 33 3204976558176 1 0
9.564737 -55.407555 -0.32679227 20 3204976560480 1 0
3.4799101 -15.575672 -1.7191218 3 3204976560480 1 0
2.3712912 -19.354504 -1.8202167 2 3204976562784 1 0
12.227164 -54.76854 1.3058066 10 3204976562784 1 0
11.444252 -93.532074 1.0970091 28 3204976565088 1 0
3.7128594 -21.569973 -1.7867638 4 3204976567392 1 0
5.430899 -24.344673 -1.7441908 8 3204976565088 1 0
13.422153 -48.839783 1.4740756 16 3204976567392 1 0
9.517141 -55.343094 0.98019695 37 3204976569696 1 0
7.068404 -25.736229 -1.7104805 5 3204976569696 1 0
3.6646338 -30.070192 -1.7641704 8 3204976572000 1 0
12.147022 -54.57377 3.2560177 70 3204976572000 1 0
9.464608 -55.14324 2.279445 64 3204976574304 1 0
6.4081273 -28.811974 -1.3749017 43 3204976574304 1 0
8.406626 -37.8261 4.757779 7 3204976576608 1 0
0 0 0 8 3204976578912 1 0
7.734283 -28.231441 -1.1925604 49 3204976578912 1 0
4.895117 -28.547604 -1.5179521 36 3204976576608 1 0
3.5459132 -29.251905 -1.0289768 16 3204976581216 1 0
0 0 0 9 3204976581216 1 0
0 0 0 29 3204976583520 1 0
12.121454 -54.665062 -1.302922 56 3204976583520 1 0
0 0 0 4 3204976604256 1 0
10.970866 -40.32386 -0.7294408 28 3204976604256 1 0
9.462903 -55.876377 -1.6493169 17 3204976606560 1 0
1.3122786 -5.9625897 -1.7091078 5 3204976606560 1 0
1.454081 -8.593244 -1.7430905 3 3204976608864 1 0
12.074695 -54.899826 0 22 3204976608864 1 0
3.4988098 -29.358244 -0.34420356 2 3204976611168 1 0
2.2578018 -10.272277 -1.6362749 38 3204976611168 1 0
1.813617 -10.736042 -1.38592 3 3204976613472 1 0
14.697541 -54.139503 0.32604834 13 3204976613472 1 0
4.811793 -28.508282 -0.16803405 7 3204976615776 1 0
3.4226315 -15.59243 -1.7195503 3 3204976615776 1 0
2.2999623 -19.36712 -1.8205885 2 3204976618080 1 0
12.023954 -54.81351 1.3058066 10 3204976618080 1 0
10.115604 -85.28034 0.9997828 28 3204976620384 1 0
5.344521 -24.380123 -1.745307 8 3204976620384 1 0
3.636424 -21.599163 -1.7880657 6 3204976622688 1 0
14.532027 -53.647076 1.61755 17 3204976622688 1 0
9.359894 -55.641647 0.9848742 12 3204976624992 1 0
6.985022 -25.80034 -1.7130387 5 3204976624992 1 0
11.951008 -54.625202 3.2564828 70 3204976627296 1 0
3.5613337 -30.130856 -1.7669611 12 3204976627296 1 0
0 0 0 14 3204976629600 1 0
6.309491 -28.858276 -1.3760184 48 3204976629600 1 0
4.7784023 -28.478268 -1.5133466 36 3204976631904 1 0
8.269539 -37.84818 4.756804 7 3204976631904 1 0
7.6348825 -28.262625 -1.1927233 74 3204976634208 1 0
0 0 0 8 3204976634208 1 0
3.4546494 -29.36748 -1.0326064 12 3204976636512 1 0
0 0 0 9 3204976636512 1 0
0 0 0 29 3204976638816 1 0
11.929371 -54.7073 -1.302922 56 3204976638816 1 0
0 0 0 4 3204976659552 1 0
10.919022 -40.66516 -0.7349557 21 3204976659552 1 0
9.322722 -56.17961 -1.6573459 17 3204976661856 1 0
1.2941297 -5.9744377 -1.7112644 6 3204976661856 1 0
1.42686 -8.605757 -1.7446594 4 3204976664160 1 0
10.113195 -87.322365 -1.0233909 14 3204976666464 1 0
11.890882 -54.931744 0 33 3204976664160 1 0
2.2237253 -10.279708 -1.6362749 41 3204976666464 1 0
1.778653 -10.745912 -1.3864251 5 3204976668768 1 0
14.5241375 -54.21113 0.32618785 26 3204976668768 1 0
4.702219 -28.433317 -0.16749935 10 3204976671072 1 0
3.3742654 -15.619244 -1.7212638 3 3204976671072 1 0
2.2361825 -19.378597 -1.8209602 2 3204976673376 1 0
11.842964 -54.85699 1.3058996 10 3204976673376 1 0
15.716095 -136.36002 1.5979948 28 3204976675680 1 0
5.269535 -24.425016 -1.7472602 8 3204976675680 1 0
3.5654275 -21.615036 -1.7883911 4 3204976677984 1 0
14.351982 -53.687244 1.6173173 17 3204976677984 1 0
13.7304735 -83.311264 1.4738208 29 3204976680288 1 0
6.9087 -25.858072 -1.7153412 8 3204976680288 1 0
3.4645855 -30.170269 -1.768589 12 3204976682592 1 0
11.768117 -54.656727 3.2560177 70 3204976682592 1 0
14.283423 -86.815865 3.5845203 29 3204976684896 1 0
6.2196426 -28.906384 -1.3773212 45 3204976684896 1 0
4.671628 -28.419065 -1.509369 31 3204976687200 1 0
8.143984 -37.875393 4.756804 7 3204976687200 1 0
0 0 0 8 3204976689504 1 0
3.371314 -29.501898 -1.0369339 12 3204976691808 1 0
0 0 0 9 3204976691808 1 0
0 0 0 29 3204976694112 1 0
11.74705 -54.74265 -1.3028289 56 3204976694112 1 0
7.539059 -28.280064 -1.1923977 49 3204976689504 1 0
0 0 0 4 3204976715296 1 0
14.363883 -54.250084 -0.97956866 10 3204976715296 1 0
9.089631 -55.98692 -1.6507132 35 3204976717600 1 0
1.2732236 -5.978928 -1.7112644 5 3204976717600 1 0
1.3973144 -8.614577 -1.7454439 3 3204976719904 1 0
8.932772 -79.57476 -0.93221796 14 3204976722208 1 0
11.6732855 -54.855717 0 33 3204976719904 1 0
2.1876044 -10.287455 -1.6362749 35 3204976722208 1 0
1.7420875 -10.759939 -1.3874352 9 3204976724512 1 0
14.333239 -54.261913 0.32618785 13 3204976724512 1 0
4.592963 -28.394444 -0.16717389 10 3204976726816 1 0
3.318329 -15.627157 -1.7208353 3 3204976726816 1 0
2.1760876 -19.461582 -1.8280239 2 3204976729120 1 0
11.643199 -54.87112 1.3052483 21 3204976729120 1 0
15.2290745 -136.37904 1.5975757 28 3204976731424 1 0
5.207002 -24.556725 -1.7553519 8 3204976731424 1 0
3.4899669 -21.635426 -1.789042 4 3204976733728 1 0
14.1613655 -53.73784 1.6173173 17 3204976733728 1 0
13.798102 -85.61807 1.513752 29 3204976736032 1 0
6.8197527 -25.894056 -1.7161087 8 3204976736032 1 0
3.3676498 -30.277674 -1.7741704 12 3204976738336 1 0
11.57328 -54.698315 3.2560177 70 3204976738336 1 0
21.32563 -132.57234 5.47057 29 3204976740640 1 0
6.1221743 -28.955772 -1.3786241 49 3204976740640 1 0
4.555339 -28.344889 -1.504554 30 3204976742944 1 0
8.00103 -37.869328 4.752417 7 3204976742944 1 0
0 0 0 8 3204976745248 1 0
7.4406686 -28.318508 -1.1928861 74 3204976745248 1 0
3.2784958 -29.633018 -1.0411218 12 3204976747552 1 0
0 0 0 9 3204976747552 1 0
0 0 0 29 3204976749856 1 0
11.55074 -54.78849 -1.302922 56 3204976749856 1 0
0 0 0 4 3204976770592 1 0
14.177458 -54.311504 -0.9797781 20 3204976770592 1 0
8.828313 -55.60368 -1.6384952 17 3204976772896 1 0
1.365392 -8.60778 -1.7430905 2 3204976775200 1 0
1.2523456 -5.983336 -1.7112644 6 3204976772896 1 0
11.471905 -54.849144 0 33 3204976775200 1 0
3.2293942 -29.702936 -0.34783557 25 3204976777504 1 0
1.7057587 -10.773793 -1.3884454 10 3204976779808 1 0
2.1549156 -10.310504 -1.6387346 13 3204976777504 1 0
14.145758 -54.319355 0.32623434 13 3204976779808 1 0
4.4831963 -28.34314 -0.16677867 14 3204976782112 1 0
3.26701 -15.654218 -1.722549 3 3204976782112 1 0
2.1102846 -19.488857 -1.8298829 2 3204976784416 1 0
14.7396 -136.30809 1.5961322 28 3204976786720 1 0
11.422202 -54.7705 1.3018984 21 3204976784416 1 0
5.1220655 -24.578657 -1.755631 8 3204976786720 1 0
3.415666 -21.655352 -1.789693 6 3204976789024 1 0
13.971688 -53.7792 1.6170846 17 3204976789024 1 0
13.149911 -83.44941 1.4745888 29 3204976791328 1 0
6.7594194 -26.033615 -1.7237836 8 3204976791328 1 0
11.381464 -54.73447 3.2557852 70 3204976793632 1 0
3.2461205 -30.142344 -1.7655658 12 3204976793632 1 0
13.753869 -87.447556 3.6065023 29 3204976795936 1 0
6.0275655 -29.008263 -1.3801131 45 3204976795936 1 0
4.4445877 -28.28564 -1.5005765 30 3204976798240 1 0
7.8696003 -37.900913 4.7529044 7 3204976798240 1 0
0 0 0 8 3204976800544 1 0
7.3387666 -28.3327 -1.1923977 53 3204976800544 1 0
3.1839774 -29.727753 -1.0440533 41 3204976802848 1 0
0 0 0 29 3204976805152 1 0
0 0 0 9 3204976802848 1 0
11.360233 -54.832394 -1.303015 56 3204976805152 1 0
0 0 0 4 3204976825888 1 0
0 0 0 100 3204976825888 1 0
8.578769 -55.27455 -1.6279063 16 3204976828192 1 0
1.2314957 -5.987662 -1.7112644 6 3204976828192 1 0
1.3360631 -8.616351 -1.7438749 3 3204976830496 1 0
11.28198 -54.89261 0 44 3204976830496 1 0
5.4713044 -52.00142 -0.6087355 7 3204976832800 1 0
2.1167517 -10.306302 -1.6368899 8 3204976832800 1 0
1.6678474 -10.775712 -1.3879403 10 3204976835104 1 0
13.956649 -54.364124 0.3262111 13 3204976835104 1 0
4.3724275 -28.275444 -0.16629048 29 3204976837408 1 0
3.2145143 -15.673202 -1.7234057 3 3204976837408 1 0
2.0418482 -19.484133 -1.8287675 2 3204976839712 1 0
11.235748 -54.8213 1.3021775 21 3204976839712 1 0
9.889703 -94.49747 1.1061357 28 3204976842016 1 0
5.0422945 -24.619585 -1.7573051 8 3204976842016 1 0
3.341922 -21.670889 -1.7900184 6 3204976844320 1 0
13.782049 -53.807476 1.6165028 17 3204976844320 1 0
12.927339 -83.905045 1.481849 29 3204976846624 1 0
6.677139 -26.083685 -1.7255744 8 3204976846624 1 0
3.165433 -30.367735 -1.7781239 8 3204976848928 1 0
11.196717 -54.784786 3.2564828 70 3204976848928 1 0
12.874764 -83.71753 3.4508376 29 3204976851232 1 0
5.936589 -29.0678 -1.3819743 45 3204976851232 1 0
4.338589 -28.237432 -1.4972271 35 3204976853536 1 0
7.7389755 -37.919697 4.7519293 7 3204976853536 1 0
0 0 0 8 3204976855840 1 0
7.242503 -28.357462 -1.1923977 45 3204976855840 1 0
3.0848656 -29.754278 -1.0446117 24 3204976858144 1 0
0 0 0 9 3204976858144 1 0
0 0 0 29 3204976860448 1 0
11.176345 -54.878334 -1.3032011 67 3204976860448 1 0
0.5930721 -3.9030752 -1.8409251 0 3204976881184 1 0
0 0 0 7 3204976881184 1 0
4.2869225 -28.24038 -0.8312911 13 3204976883488 1 0
1.2131165 -5.999273 -1.713421 6 3204976883488 1 0
1.3085338 -8.628509 -1.7454439 4 3204976885792 1 0
5.8743567 -29.072453 0 49 3204976885792 1 0
8.00105 -78.564285 -0.9193662 13 3204976888096 1 0
2.0815558 -10.309436 -1.6362749 9 3204976888096 1 0
1.6317911 -10.781231 -1.3879403 10 3204976890400 1 0
13.774712 -54.410507 0.3262111 13 3204976890400 1 0
4.274022 -28.266214 -0.16615099 61 3204976892704 1 0
1.9787856 -19.514658 -1.8309982 2 3204976895008 1 0
11.04755 -54.839138 1.3017123 21 3204976895008 1 0
3.16431 -15.695585 -1.7246909 3 3204976892704 1 0
9.569055 -94.50635 1.1058563 28 3204976897312 1 0
4.960946 -24.644247 -1.7578632 8 3204976897312 1 0
3.2711563 -21.69781 -1.7913202 6 3204976899616 1 0
13.59943 -53.8498 1.6163864 17 3204976899616 1 0
19.95614 -132.5012 2.3389018 29 3204976901920 1 0
6.589874 -26.109985 -1.7258302 8 3204976901920 1 0
3.0641055 -30.39418 -1.779054 8 3204976904224 1 0
11.014142 -54.838078 3.2574131 70 3204976904224 1 0
19.9261 -132.56358 5.4614515 29 3204976906528 1 0
5.8291883 -29.044703 -1.379927 40 3204976906528 1 0
4.2525454 -28.31919 -1.5007858 17 3204976908832 1 0
7.605972 -37.926353 4.749492 7 3204976908832 1 0
0 0 0 8 3204976911136 1 0
7.1535497 -28.413004 -1.1937003 45 3204976911136 1 0
2.9851427 -29.784536 -1.0453098 28 3204976913440 1 0
0 0 0 9 3204976913440 1 0
0 0 0 29 3204976915744 1 0
5.8146634 -29.059954 -0.6896125 16 3204976915744 1 0
0.5565644 -3.7509248 -1.7682348 0 3204976936480 1 0
13.604834 -54.404175 -0.9788706 10 3204976936480 1 0
8.095227 -54.6119 -1.6067284 32 3204976938784 1 0
1.1936682 -6.011027 -1.7155776 6 3204976938784 1 0
1.2789812 -8.636904 -1.7462283 3 3204976941088 1 0
7.6136613 -77.44136 -0.9059091 13 3204976943392 1 0
10.910394 -54.983982 0 44 3204976941088 1 0
2.0463252 -10.320516 -1.6368899 9 3204976943392 1 0
13.585668 -54.46214 0.32623434 13 3204976945696 1 0
1.5935675 -10.782936 -1.3874352 9 3204976945696 1 0
4.188765 -28.371973 -0.16668569 21 3204976948000 1 0
3.1125925 -15.72214 -1.7264044 2 3204976948000 1 0
1.9114306 -19.529373 -1.8317417 2 3204976950304 1 0
10.84985 -54.845985 1.3009678 21 3204976950304 1 0
7.865437 -80.4831 0.94143766 28 3204976952608 1 0
4.875665 -24.665329 -1.7581421 8 3204976952608 1 0
3.196558 -21.716986 -1.7919712 6 3204976954912 1 0
13.412341 -53.90082 1.6165028 17 3204976954912 1 0
6.5063996 -26.16382 -1.7278769 8 3204976957216 1 0
2.9695914 -30.523926 -1.7860308 8 3204976959520 1 0
12.360314 -84.059166 1.4830357 29 3204976957216 1 0
10.81879 -54.8566 3.2562504 70 3204976959520 1 0
19.463243 -132.63232 5.4614515 29 3204976961824 1 0
4.1704693 -28.448477 -1.5068568 13 3204976964128 1 0
7.473538 -37.95267 4.749492 7 3204976964128 1 0
5.7123165 -28.986467 -1.3762045 30 3204976961824 1 0
0 0 0 8 3204976966432 1 0
7.0572133 -28.449438 -1.1941888 41 3204976966432 1 0
2.8826962 -29.81069 -1.0458682 28 3204976968736 1 0
0 0 0 9 3204976968736 1 0
0 0 0 29 3204976971040 1 0
10.796549 -54.954315 -1.3032011 45 3204976971040 1 0
0.5434679 -3.7528448 -1.7682348 0 3204976991776 1 0
13.423454 -54.486282 -0.97949886 10 3204976991776 1 0
7.866765 -54.378654 -1.5990485 15 3204976994080 1 0
1.1719415 -6.0113764 -1.7144994 6 3204976994080 1 0
1.2499471 -8.649079 -1.7477973 3 3204976996384 1 0
5.6873126 -29.195206 0 61 3204976996384 1 0
7.3176274 -77.19669 -0.90274274 13 3204976998688 1 0
2.0095322 -10.323716 -1.6362749 11 3204976998688 1 0
1.5576175 -10.800215 -1.3889505 6 3204977000992 1 0
13.394522 -54.505344 0.3262111 13 3204977000992 1 0
4.102822 -28.47748 -0.16722038 21 3204977003296 1 0
3.0576928 -15.732909 -1.7264044 3 3204977003296 1 0
10.645376 -54.816788 1.2993859 21 3204977005600 1 0
1.8439969 -19.543856 -1.8324852 2 3204977005600 1 0
7.2494564 -76.95405 0.89985573 26 3204977007904 1 0
4.7940984 -24.7057 -1.7598163 8 3204977007904 1 0
3.1281004 -21.779312 -1.7962021 6 3204977010208 1 0
13.224111 -53.94731 1.6165028 17 3204977010208 1 0
11.9350395 -83.18335 1.4668399 29 3204977012512 1 0
6.4188304 -26.201881 -1.7289002 8 3204977012512 1 0
2.864516 -30.550009 -1.786961 8 3204977014816 1 0
10.627239 -54.89403 3.2562504 70 3204977014816 1 0
18.978626 -132.54912 5.455264 29 3204977017120 1 0
5.5944047 -28.919926 -1.3721098 39 3204977017120 1 0
4.08528 -28.561718 -1.5120904 13 3204977019424 1 0
7.3123813 -37.830402 4.730968 7 3204977019424 1 0
0 0 0 8 3204977021728 1 0
6.9635553 -28.497194 -1.1951658 41 3204977021728 1 0
0 0 0 9 3204977024032 1 0
0 0 0 29 3204977026336 1 0
5.626791 -29.17837 -0.6914736 28 3204977026336 1 0
2.7801034 -29.836493 -1.0464265 28 3204977024032 1 0
0.5308717 -3.7583086 -1.7699252 0 3204977047072 1 0
13.229407 -54.517258 -0.9792196 10 3204977047072 1 0
7.642264 -54.16032 -1.5918341 31 3204977049376 1 0
1.1502268 -6.011647 -1.713421 6 3204977049376 1 0
1.2186536 -8.645622 -1.7462283 4 3204977051680 1 0
10.52627 -55.05881 0 22 3204977051680 1 0
7.056841 -77.31737 -0.9038603 13 3204977053984 1 0
1.9734834 -10.330668 -1.6362749 10 3204977053984 1 0
1.5210136 -10.813445 -1.3899606 3 3204977056288 1 0
13.176892 -54.439026 0.3255369 13 3204977056288 1 0
4.021202 -28.618382 -0.16796431 33 3204977058592 1 0
1.7757648 -19.550175 -1.8324852 2 3204977060896 1 0
3.0049915 -15.755207 -1.7276896 3 3204977058592 1 0
10.447975 -54.82219 1.2986416 21 3204977060896 1 0
6.948282 -76.620384 0.89566493 25 3204977063200 1 0
4.7302237 -24.83988 -1.768187 8 3204977063200 1 0
3.0515044 -21.78615 -1.7958766 4 3204977065504 1 0
13.0347805 -53.989258 1.6163864 17 3204977065504 1 0
18.529837 -132.43358 2.3341546 29 3204977067808 1 0
6.3619714 -26.367704 -1.7383659 8 3204977067808 1 0
2.7610893 -30.595615 -1.7890539 8 3204977070112 1 0
10.43705 -54.93864 3.2567153 70 3204977070112 1 0
18.510855 -132.57893 5.453799 29 3204977072416 1 0
5.4807534 -28.872543 -1.3689456 39 3204977072416 1 0
4.0015583 -28.690535 -1.5181614 13 3204977074720 1 0
7.1721454 -37.81279 4.7256055 7 3204977074720 1 0
0 0 0 8 3204977077024 1 0
2.6780796 -29.869904 -1.0472641 29 3204977079328 1 0
6.8733907 -28.560184 -1.196794 41 3204977077024 1 0
0 0 0 9 3204977079328 1 0
0 0 0 29 3204977081632 1 0
10.415609 -55.044064 -1.3035734 45 3204977081632 1 0
0.517255 -3.7565475 -1.7682348 0 3204977102368 1 0
13.039026 -54.563107 -0.9792196 10 3204977102368 1 0
7.412301 -53.88959 -1.5831069 30 3204977104672 1 0
1.1285247 -6.01184 -1.7123427 6 3204977104672 1 0
1.1890012 -8.653709 -1.7470129 5 3204977106976 1 0
10.336227 -55.107014 0 22 3204977106976 1 0
4.4474525 -50.68179 -0.5922983 13 3204977109280 1 0
1.9425071 -10.364688 -1.6405793 46 3204977109280 1 0
1.4848753 -10.830482 -1.3914758 3 3204977111584 1 0
13.012752 -54.59364 0.32618785 13 3204977111584 1 0
2.952903 -15.781237 -1.7294031 3 3204977113888 1 0
3.9353921 -28.73528 -0.16856875 37 3204977113888 1 0
1.7095897 -19.58006 -1.834716 2 3204977116192 1 0
10.251402 -54.83081 1.2979902 21 3204977116192 1 0
6.6766167 -76.59635 0.8951062 51 3204977118496 1 0
4.6456857 -24.868008 -1.7690241 8 3204977118496 1 0
2.9775949 -21.81247 -1.7971785 6 3204977120800 1 0
12.846244 -54.034428 1.6163864 17 3204977120800 1 0
11.531261 -84.564415 1.4897374 29 3204977123104 1 0
6.2735834 -26.405285 -1.7393893 8 3204977123104 1 0
2.657034 -30.636892 -1.7909144 8 3204977125408 1 0
10.245214 -54.974735 3.2567153 70 3204977125408 1 0
18.021551 -132.44868 5.44582 29 3204977127712 1 0
5.365307 -28.812935 -1.3652232 30 3204977127712 1 0
3.9137585 -28.795364 -1.5229763 13 3204977130016 1 0
10.235539 -55.011665 6.8705063 67 3204977130016 1 0
0 0 0 8 3204977132320 1 0
2.5748272 -29.89102 -1.0476829 29 3204977134624 1 0
6.781028 -28.615116 -1.1980966 41 3204977132320 1 0
0 0 0 9 3204977134624 1 0
0 0 0 29 3204977136928 1 0
10.225596 -55.09188 -1.3038524 56 3204977136928 1 0
12.853066 -54.627754 -0.97956866 10 3204977157664 1 0
3.9643862 -29.586946 -0.8687597 14 3204977159968 1 0
1.1089274 -6.0233192 -1.7144994 6 3204977159968 1 0
0.50799483 -3.7870746 -1.7817585 0 3204977157664 1 0
1.1598276 -8.665583 -1.7485818 2 3204977162272 1 0
10.143805 -55.142757 0 22 3204977162272 1 0
4.2634625 -50.613308 -0.59132046 13 3204977164576 1 0
1.8998853 -10.336419 -1.6350452 56 3204977164576 1 0
1.4460104 -10.827733 -1.3904657 3 3204977166880 1 0
12.800173 -54.54527 0.3256299 13 3204977166880 1 0
3.8488147 -28.851927 -0.16917318 30 3204977169184 1 0
2.8985162 -15.79536 -1.7298316 3 3204977169184 1 0
1.6405671 -19.57797 -1.8339723 2 3204977171488 1 0
10.054896 -54.838726 1.2973388 31 3204977171488 1 0
6.407204 -76.595276 0.89482677 51 3204977173792 1 0
2.9045897 -21.846441 -1.7991313 6 3204977176096 1 0
4.563166 -24.907621 -1.7706983 8 3204977173792 1 0
12.65755 -54.07894 1.6163864 17 3204977176096 1 0
11.259173 -84.778595 1.492809 29 3204977178400 1 0
6.1895556 -26.462006 -1.7416917 8 3204977178400 1 0
2.559678 -30.761387 -1.7976586 8 3204977180704 1 0
10.058997 -55.041588 3.258576 70 3204977180704 1 0
17.558584 -132.50682 5.4456573 29 3204977183008 1 0
5.2503433 -28.752874 -1.3615006 35 3204977183008 1 0
3.826324 -28.90785 -1.5282099 13 3204977185312 1 0
10.029911 -54.97285 6.861244 44 3204977185312 1 0
0 0 0 8 3204977187616 1 0
6.6901813 -28.677534 -1.1997249 41 3204977187616 1 0
2.4717891 -29.91576 -1.0482413 29 3204977189920 1 0
0 0 0 29 3204977192224 1 0
9.887154 -54.324646 -1.2848698 46 3204977192224 1 0
0.49477237 -3.7888248 -1.7817585 1 3204977212960 1 0
12.657789 -54.652805 -0.9792196 10 3204977212960 1 0
0 0 0 9 3204977189920 1 0
3.853327 -29.541134 -0.8670143 9 3204977215264 1 0
1.0885795 -6.030944 -1.7155776 6 3204977215264 1 0
1.129572 -8.669579 -1.7485818 3 3204977217568 1 0
0 0 0 34 3204977217568 1 0
6.215909 -77.004295 -0.8993901 13 3204977219872 1 0
1.8644937 -10.346878 -1.63566 53 3204977219872 1 0
1.4092287 -10.840585 -1.3914758 3 3204977222176 1 0
3.7671363 -29.011951 -0.17003335 45 3204977224480 1 0
12.632203 -54.68705 0.3262111 13 3204977222176 1 0
2.8447707 -15.81321 -1.7306883 2 3204977224480 1 0
1.5747669 -19.615337 -1.8369466 2 3204977226784 1 0
9.8719015 -54.92072 1.2984555 31 3204977226784 1 0
6.1417146 -76.6411 0.8951062 51 3204977229088 1 0
4.4776053 -24.931253 -1.7712563 8 3204977229088 1 0
2.8313832 -21.88017 -1.8010839 9 3204977231392 1 0
10.97035 -84.87291 1.4937863 29 3204977233696 1 0
12.467804 -54.118896 1.6162701 17 3204977231392 1 0
6.124016 -26.600151 -1.7493666 9 3204977233696 1 0
2.454506 -30.797998 -1.7992864 8 3204977236000 1 0
9.863988 -55.060642 3.2576456 47 3204977236000 1 0
5.134456 -28.684498 -1.3574059 39 3204977238304 1 0
17.069872 -132.36516 5.4373527 29 3204977238304 1 0
3.7386618 -29.024036 -1.5336529 13 3204977240608 1 0
0 0 0 1 3204977240608 1 0
6.596298 -28.72798 -1.2008648 41 3204977242912 1 0
0 0 0 8 3204977242912 1 0
2.3695552 -29.952103 -1.0492184 29 3204977245216 1 0
0 0 0 9 3204977245216 1 0
0 0 0 29 3204977247520 1 0
9.83582 -55.13437 -1.3032011 56 3204977247520 1 0
0.47606143 -3.7473729 -1.761473 1 3204977268256 1 0
12.470493 -54.712254 -0.97949886 10 3204977268256 1 0
6.7559714 -53.24235 -1.561929 29 3204977270560 1 0
1.067521 -6.034707 -1.7155776 6 3204977270560 1 0
1.1017685 -8.6929245 -1.7525041 3 3204977272864 1 0
9.743972 -55.129513 0 55 3204977272864 1 0
5.980329 -77.45621 -0.904419 13 3204977275168 1 0
1.3718772 -10.849374 -1.3919809 4 3204977277472 1 0
1.8283651 -10.353323 -1.63566 52 3204977275168 1 0
12.413747 -54.609898 0.32549042 13 3204977277472 1 0
3.680378 -29.140007 -0.17070752 33 3204977279776 1 0
2.792317 -15.83871 -1.7324018 2 3204977279776 1 0
1.5056772 -19.612772 -1.836203 2 3204977282080 1 0
9.721062 -55.187202 1.3039455 32 3204977282080 1 0
5.917237 -77.22438 0.90167177 26 3204977284384 1 0
4.391935 -24.95459 -1.7718145 8 3204977284384 1 0
2.7564836 -21.901787 -1.8020604 14 3204977286688 1 0
12.283238 -54.181587 1.6168519 17 3204977286688 1 0
11.022705 -87.684425 1.5425833 29 3204977288992 1 0
6.033773 -26.633045 -1.7501341 9 3204977288992 1 0
0 0 0 10 3204977291296 1 0
9.672421 -55.098675 3.257878 70 3204977291296 1 0
16.605738 -132.40807 5.436702 29 3204977293600 1 0
5.0225625 -28.63534 -1.3542418 35 3204977293600 1 0
3.6512282 -29.14789 -1.5395145 13 3204977295904 1 0
0 0 0 1 3204977295904 1 0
0 0 0 8 3204977298208 1 0
6.5012636 -28.77422 -1.2018417 41 3204977298208 1 0
2.267098 -29.988094 -1.0501957 34 3204977300512 1 0
0 0 0 9 3204977300512 1 0
0 0 0 29 3204977302816 1 0
9.635731 -55.125034 -1.3021775 33 3204977302816 1 0
12.275935 -54.73984 -0.9792196 10 3204977323552 1 0
0.46697658 -3.7813928 -1.7766871 0 3204977323552 1 0
1.0457917 -6.034601 -1.7144994 6 3204977325856 1 0
1.0704587 -8.688931 -1.7509352 2 3204977328160 1 0
6.1990657 -50.25769 -1.4737265 22 3204977325856 1 0
9.558981 -55.206547 0 22 3204977328160 1 0
5.7152114 -77.548416 -0.90525717 13 3204977330464 1 0
1.7935616 -10.367432 -1.6368899 43 3204977330464 1 0
1.3349656 -10.861974 -1.3929911 10 3204977332768 1 0
12.223047 -54.652897 0.32549042 13 3204977332768 1 0
3.5942333 -29.279722 -0.17145145 31 3204977335072 1 0
2.7390428 -15.860117 -1.733687 2 3204977335072 1 0
1.4392437 -19.645712 -1.8388054 2 3204977337376 1 0
9.507964 -55.10258 1.3011539 21 3204977337376 1 0
5.5198917 -75.49735 0.88127655 24 3204977339680 1 0
4.307512 -24.985498 -1.7729305 8 3204977339680 1 0
2.6819513 -21.927105 -1.8033621 19 3204977341984 1 0
12.089683 -54.20462 1.6162701 8 3204977341984 1 0
16.172081 -132.37952 2.3278718 29 3204977344288 1 0
5.9503217 -26.696804 -1.7529483 9 3204977344288 1 0
2.1766276 -29.95013 -1.7488217 51 3204977346592 1 0
9.482062 -55.143906 3.258576 70 3204977346592 1 0
9.217851 -75.63718 3.1043372 29 3204977348896 1 0
4.9110746 -28.585752 -1.3510777 38 3204977348896 1 0
3.5624926 -29.267519 -1.5451667 13 3204977351200 1 0
0 0 0 1 3204977351200 1 0
0 0 0 8 3204977353504 1 0
6.405119 -28.816246 -1.2026559 41 3204977353504 1 0
0 0 0 9 3204977355808 1 0
2.1644182 -30.023737 -1.0511729 38 3204977355808 1 0
0 0 0 29 3204977358112 1 0
9.452697 -55.213516 -1.3034803 22 3204977358112 1 0
12.078665 -54.80009 -0.97949886 10 3204977378296 1 0
0.44966495 -3.754283 -1.7631634 0 3204977378296 1 0
6.017086 -50.29591 -1.4741919 33 3204977380600 1 0
1.0243546 -6.042184 -1.7155776 6 3204977380600 1 0
1.0391967 -8.696676 -1.7517196 3 3204977382904 1 0
9.4188385 -55.603905 0 22 3204977382904 1 0
1.7557774 -10.373898 -1.6368899 24 3204977385208 1 0
1.2945222 -10.858875 -1.3919809 10 3204977387512 1 0
0 0 0 10 3204977385208 1 0
12.021667 -54.68526 0.32542068 13 3204977387512 1 0
3.4974174 -29.37201 -0.17191641 23 3204977389816 1 0
2.683459 -15.881717 -1.7349722 3 3204977389816 1 0
1.3678097 -19.646824 -1.8384336 2 3204977392120 1 0
9.364929 -55.471817 1.3090634 21 3204977392120 1 0
5.6628428 -81.50197 0.95112306 28 3204977394424 1 0
4.2198343 -25.016642 -1.7740467 8 3204977394424 1 0
2.6037822 -21.944553 -1.8040131 21 3204977396728 1 0
11.893231 -54.24397 1.6161537 8 3204977396728 1 0
5.854182 -26.71805 -1.7529483 9 3204977399032 1 0
9.992162 -84.313034 1.4819885 29 3204977399032 1 0
9.291849 -55.22487 3.2613666 23 3204977401336 1 0
2.0684686 -29.94979 -1.7483566 38 3204977401336 1 0
8.978997 -75.943596 3.1155725 29 3204977403640 1 0
4.7946467 -28.520428 -1.347169 38 3204977403640 1 0
3.4713385 -29.39512 -1.5512377 13 3204977405944 1 0
0 0 0 1 3204977405944 1 0
0 0 0 8 3204977408248 1 0
6.306452 -28.858456 -1.20347 41 3204977408248 1 0
2.0606976 -30.079117 -1.052848 21 3204977410552 1 0
0 0 0 9 3204977410552 1 0
0 0 0 29 3204977412856 1 0
4.781449 -28.538387 -0.67332834 3 3204977412856 1 0
11.895179 -54.832027 -0.97935927 10 3204977433592 1 0
0.44014713 -3.7809598 -1.7749968 1 3204977433592 1 0
5.8522086 -50.335487 -1.4747738 33 3204977435896 1 0
1.0042683 -6.045555 -1.7155776 6 3204977435896 1 0
1.0106777 -8.703985 -1.7525041 3 3204977438200 1 0
14.014439 -84.44093 0 28 3204977438200 1 0
0 0 0 28 3204977440504 1 0
1.7198471 -10.3719015 -1.63566 9 3204977440504 1 0
1.2581897 -10.863145 -1.3919809 11 3204977442808 1 0
11.836128 -54.71344 0.32535094 13 3204977442808 1 0
3.410879 -29.486877 -0.17252085 11 3204977445112 1 0
1.3078483 -19.742708 -1.8469845 2 3204977447416 1 0
2.632149 -15.902394 -1.7362573 3 3204977445112 1 0
14.291665 -86.422554 2.0383162 28 3204977447416 1 0
4.940458 -74.74382 0.87205684 47 3204977449720 1 0
4.1550922 -25.148815 -1.7824174 5 3204977449720 1 0
2.531089 -21.965096 -1.8049895 23 3204977452024 1 0
15.699734 -136.41866 2.3969135 29 3204977454328 1 0
11.711814 -54.29161 1.6163864 8 3204977452024 1 0
5.7898765 -26.858662 -1.7608789 9 3204977454328 1 0
2.035248 -30.996622 -1.8090538 8 3204977456632 1 0
21.84687 -132.5885 7.8257446 28 3204977456632 1 0
8.691406 -75.71556 3.1049886 29 3204977458936 1 0
4.6860776 -28.46558 -1.3438189 34 3204977458936 1 0
0 0 0 1 3204977461240 1 0
3.3853793 -29.529789 -1.5577275 13 3204977461240 1 0
0 0 0 8 3204977463544 1 0
6.216388 -28.91887 -1.2050984 42 3204977463544 1 0
1.9604732 -30.125875 -1.054244 17 3204977465848 1 0
0 0 0 9 3204977465848 1 0
0 0 0 29 3204977468152 1 0
9.233356 -56.29233 -1.3273947 23 3204977468152 1 0
0.4257266 -3.771666 -1.7699252 1 3204977488888 1 0
11.702873 -54.8693 -0.9792894 10 3204977488888 1 0
5.677365 -50.363552 -1.4750065 33 3204977491192 1 0
0.9837772 -6.052826 -1.7166559 6 3204977491192 1 0
0.98116654 -8.715256 -1.754073 4 3204977493496 1 0
9.109214 -56.09722 0 33 3204977493496 1 0
1.6855308 -10.389546 -1.6375048 8 3204977495800 1 0
4.6993103 -74.38265 -0.8676798 25 3204977495800 1 0
1.2211481 -10.875358 -1.3929911 11 3204977498104 1 0
11.645071 -54.754425 0.32535094 26 3204977498104 1 0
3.3199651 -29.60593 -0.17314853 19 3204977500408 1 0
2.5778947 -15.919337 -1.7371141 3 3204977500408 1 0
1.2389255 -19.747154 -1.8469845 2 3204977502712 1 0
13.538372 -83.68097 1.9725282 28 3204977502712 1 0
4.6695285 -74.60094 0.87019426 47 3204977505016 1 0
2.4548438 -21.97776 -1.8053149 23 3204977507320 1 0
4.0691915 -25.174984 -1.7832545 8 3204977505016 1 0
11.5214 -54.328247 1.6162701 8 3204977507320 1 0
15.212363 -136.37326 2.3951683 29 3204977509624 1 0
5.6985693 -26.890423 -1.7616465 9 3204977509624 1 0
1.9319917 -31.083248 -1.8137048 4 3204977511928 1 0
21.379469 -132.63635 7.8241167 28 3204977511928 1 0
8.427499 -75.74941 3.1051514 29 3204977514232 1 0
4.5727096 -28.394978 -1.3397241 29 3204977514232 1 0
3.296837 -29.672438 -1.5646358 23 3204977516536 1 0
0 0 0 1 3204977516536 1 0
0 0 0 8 3204977518840 1 0
6.1228414 -28.975586 -1.2065638 42 3204977518840 1 0
1.857022 -30.160465 -1.0552212 17 3204977521144 1 0
0 0 0 9 3204977521144 1 0
0 0 0 29 3204977523448 1 0
9.002594 -56.111004 -1.3223699 34 3204977523448 1 0
0.41295248 -3.776733 -1.7716157 1 3204977544184 1 0
11.510451 -54.905903 -0.9792196 10 3204977544184 1 0
5.5045667 -50.41089 -1.475821 22 3204977546488 1 0
0.9638523 -6.0638313 -1.7188125 6 3204977546488 1 0
0.95073867 -8.718627 -1.754073 3 3204977548792 1 0
8.878211 -55.90745 0 11 3204977548792 1 0
4.4899096 -75.24104 -0.8775048 25 3204977551096 1 0
1.6486349 -10.391462 -1.6368899 8 3204977551096 1 0
1.1840366 -10.887444 -1.3940012 9 3204977553400 1 0
11.453872 -54.79474 0.32535094 26 3204977553400 1 0
3.226966 -29.712776 -0.17370647 23 3204977555704 1 0
2.5229323 -15.932167 -1.7375425 2 3204977555704 1 0
1.170223 -19.755335 -1.8473563 2 3204977558008 1 0
13.361166 -84.45448 1.9896499 28 3204977558008 1 0
4.763464 -80.613914 0.94013387 28 3204977560312 1 0
3.985027 -25.212683 -1.7849287 8 3204977560312 1 0
2.3806844 -22.009977 -1.8072677 23 3204977562616 1 0
11.334137 -54.37988 1.6166191 8 3204977562616 1 0
8.639018 -79.97852 1.4041508 58 3204977564920 1 0
5.6111813 -26.941414 -1.7636931 9 3204977564920 1 0
20.919458 -132.72989 7.8252797 28 3204977567224 1 0
1.2108986 -20.64548 -1.2044079 2 3204977567224 1 1
8.308572 -77.129425 3.1605132 29 3204977569528 1 0
4.4592705 -28.319984 -1.3354433 34 3204977569528 1 0
3.2009313 -29.755255 -1.568404 46 3204977571832 1 0
0 0 0 1 3204977571832 1 0
0 0 0 8 3204977574136 1 0
6.027349 -29.024176 -1.2077036 42 3204977574136 1 0
1.7540485 -30.206673 -1.0566171 21 3204977576440 1 0
0 0 0 9 3204977576440 1 0
0 0 0 29 3204977578744 1 0
8.746564 -55.75888 -1.3133439 22 3204977578744 1 0
11.3195305 -54.949665 -0.9792894 10 3204977599480 1 0
0.39824086 -3.763731 -1.7648538 1 3204977599480 1 0
5.3294067 -50.437748 -1.4760537 34 3204977601784 1 0
0.9420883 -6.0633526 -1.7177342 5 3204977601784 1 0
0.9198876 -8.717992 -1.7532886 5 3204977604088 1 0
8.614285 -55.495403 0 11 3204977604088 1 0
1.6141689 -10.408872 -1.6387346 8 3204977606392 1 0
1.1464404 -10.895456 -1.3945062 7 3204977608696 1 0
4.155012 -73.970375 -0.86251116 25 3204977606392 1 0
11.279432 -54.916668 0.32583913 39 3204977608696 1 0
3.1257372 -29.747728 -0.17384596 19 3204977611000 1 0
2.46852 -15.948737 -1.7383993 2 3204977611000 1 0
1.1019218 -19.771229 -1.8484716 2 3204977613304 1 0
12.919622 -83.55214 1.9673172 28 3204977613304 1 0
3.896994 -25.226439 -1.7849287 8 3204977615608 1 0
4.113087 -73.992744 0.862744 46 3204977615608 1 0
2.3055003 -22.034014 -1.8085696 23 3204977617912 1 0
11.151465 -54.45436 1.6176664 8 3204977617912 1 0
8.087142 -77.398796 1.3583556 27 3204977620216 1 0
5.5203047 -26.97648 -1.7647164 9 3204977620216 1 0
1.1245321 -20.390413 -1.1892918 2 3204977622520 1 1
12.883722 -83.64216 4.928561 28 3204977622520 1 0
7.8939104 -75.76267 3.1033602 29 3204977624824 1 0
4.3470182 -28.248495 -1.3313485 34 3204977624824 1 0
3.0982866 -29.778166 -1.569032 41 3204977627128 1 0
0 0 0 1 3204977627128 1 0
0 0 0 8 3204977629432 1 0
5.927597 -29.05287 -1.2080293 42 3204977629432 1 0
