# .PCD v.7 - Point Cloud Data file format
VERSION .7
FIELDS x y z rgb timestamp_ns device_id active
SIZE 4 4 4 4 8 1 1
TYPE F F F F F U U
COUNT 1 1 1 1 1 1 1
WIDTH 1017
HEIGHT 1
VIEWPOINT 0 0 0 1 0 0 0
POINTS 1017               
DATA ascii
55.708084 -23.463299 1.4065825 25 3205461509192 1 0
18.91901 -7.9716063 -1.4355882 5 3205461511496 1 0
83.379326 -30.441013 2.5832393 37 3205461513800 1 0
16.430233 -7.8920383 -1.4879935 4 3205461513800 1 0
51.64262 -24.815073 1.0000927 26 3205461516104 1 0
20.4649 -7.4749174 -1.396321 5 3205461516104 1 0
21.391212 -11.601593 -1.4171968 6 3205461518408 1 0
55.83234 -23.553888 3.5290387 56 3205461518408 1 0
0 0 0 29 3205461520712 1 0
25.971203 -10.960874 -1.3131083 4 3205461520712 1 0
24.682943 -11.873793 -1.4354706 4 3205461523016 1 0
55.387745 -26.654337 5.01791 57 3205461525320 1 0
29.440912 -10.772873 -1.2772316 4 3205461525320 1 0
31.212162 -16.951523 -1.2403281 6 3205461527624 1 0
0 0 0 9 3205461527624 1 0
43.076683 -20.7453 8.717327 18 3205461529928 1 0
41.28284 -17.451292 -1.0429331 7 3205461529928 1 0
0 0 0 1 3205461523016 1 0
0 0 0 4 3205461550664 1 0
49.063847 -18.04226 -0.9124816 9 3205461550664 1 0
38.341488 -18.533623 -1.2393731 9 3205461552968 1 0
0 0 0 1 3205461552968 1 0
7.376554 -3.5670245 -1.638756 21 3205461555272 1 0
43.990593 -18.67894 0 68 3205461555272 1 1
43.981197 -23.994267 -0.5832648 19 3205461557576 1 0
9.41475 -3.9992337 -1.5913866 3 3205461557576 1 0
11.290294 -5.4636145 -1.5965354 3 3205461559880 1 0
65.413315 -24.097662 0.40516013 28 3205461559880 1 0
45.129154 -21.847065 -0.29140934 9 3205461562184 1 0
14.362591 -7.8437514 -1.5276287 3 3205461564488 1 0
12.89412 -5.481642 -1.5092117 3 3205461562184 1 0
49.565804 -27.07842 0.65753496 9 3205461566792 1 0
75.94274 -32.29837 1.9203256 28 3205461564488 1 0
18.839664 -8.015726 -1.4316819 4 3205461566792 1 0
16.39182 -7.944126 -1.4870172 4 3205461569096 1 0
83.51637 -30.821857 2.590803 37 3205461569096 1 0
51.469315 -24.953314 0.99841726 26 3205461571400 1 0
20.423704 -7.540777 -1.3952976 5 3205461571400 1 0
21.3646 -11.683856 -1.418127 6 3205461573704 1 0
55.775497 -23.75959 3.5306664 28 3205461573704 1 0
51.434425 -24.95488 2.3291078 23 3205461576008 1 0
25.951162 -11.059296 -1.3140389 4 3205461576008 1 0
0 0 0 1 3205461578312 1 0
24.673687 -11.975577 -1.4373547 4 3205461578312 1 0
55.35175 -26.875376 5.023117 28 3205461580616 1 0
29.429367 -10.885281 -1.2783715 4 3205461580616 1 0
31.159813 -17.06421 -1.2406073 6 3205461582920 1 0
0 0 0 9 3205461582920 1 0
42.466015 -20.63413 8.608271 18 3205461585224 1 0
41.24374 -17.60471 -1.0434914 7 3205461585224 1 0
0 0 0 4 3205461605960 1 0
49.02306 -18.221773 -0.91290045 9 3205461605960 1 0
0 0 0 1 3205461608264 1 0
38.237026 -18.648067 -1.2380931 9 3205461608264 1 0
7.371108 -3.5961914 -1.6403251 7 3205461610568 1 0
43.884686 -18.815044 0 76 3205461610568 1 1
45.10272 -24.810808 -0.599283 20 3205461612872 1 0
9.407998 -4.0351887 -1.5926164 2 3205461612872 1 0
11.267588 -5.5012507 -1.5960304 3 3205461615176 1 0
63.342094 -23.586082 0.39283887 25 3205461615176 1 0
45.11372 -22.034304 -0.29180455 9 3205461617480 1 0
12.878562 -5.5281863 -1.50964 3 3205461617480 1 0
14.356055 -7.905365 -1.5298594 3 3205461619784 1 0
75.726654 -32.51908 1.9177202 28 3205461619784 1 0
45.396572 -25.006868 0.6033806 8 3205461622088 1 0
18.829903 -8.089315 -1.433077 5 3205461622088 1 0
16.356829 -7.9977937 -1.4863662 4 3205461624392 1 0
83.47571 -31.13835 2.5928974 74 3205461624392 1 0
20.408476 -7.6162105 -1.3960651 5 3205461626696 1 0
51.407047 -25.145124 0.99890596 26 3205461626696 1 0
21.313194 -11.752576 -1.4174293 6 3205461629000 1 0
56.73402 -24.402233 3.5967124 28 3205461629000 1 0
51.49777 -25.208067 2.3359466 24 3205461631304 1 0
24.628147 -12.0598755 -1.4371454 4 3205461633608 1 0
25.927082 -11.156133 -1.3147835 4 3205461631304 1 0
0 0 0 1 3205461633608 1 0
55.375748 -27.1263 5.0338573 57 3205461635912 1 0
29.372473 -10.980944 -1.2775573 4 3205461635912 1 0
31.107056 -17.17674 -1.2408864 6 3205461638216 1 0
0 0 0 9 3205461638216 1 0
42.171127 -20.673113 8.563069 18 3205461640520 1 0
41.160004 -17.739073 -1.0429331 7 3205461640520 1 0
0 0 0 4 3205461661256 1 0
48.93669 -18.384346 -0.9124816 9 3205461661256 1 0
38.315205 -18.852034 -1.2427477 9 3205461663560 1 0
0 0 0 1 3205461663560 1 0
0 0 0 12 3205461665864 1 0
43.862793 -18.987185 0 85 3205461665864 1 1
44.81297 -24.855574 -0.59658223 20 3205461668168 1 0
9.393855 -4.068004 -1.5926164 3 3205461668168 1 0
11.262554 -5.547562 -1.5980506 3 3205461670472 1 0
63.195736 -23.783092 0.39244366 50 3205461670472 1 0
44.035477 -21.69838 -0.28531846 9 3205461672776 1 0
14.324891 -7.9534955 -1.5294876 3 3205461675080 1 0
12.855537 -5.5715256 -1.5092117 3 3205461672776 1 0
55.734493 -24.16468 1.4135615 12 3205461675080 1 0
49.55738 -27.52478 0.6599563 19 3205461677384 1 0
18.816193 -8.161346 -1.4341931 5 3205461677384 1 0
16.321661 -8.051313 -1.4857153 4 3205461679688 1 0
83.403915 -31.44365 2.5940611 74 3205461679688 1 0
51.56643 -25.446533 1.0037228 26 3205461681992 1 0
20.385502 -7.688812 -1.396321 5 3205461681992 1 0
21.286001 -11.834663 -1.4183595 6 3205461684296 1 0
55.740128 -24.205656 3.5390384 84 3205461684296 1 0
51.531303 -25.447844 2.3414829 24 3205461686600 1 0
25.876987 -11.241791 -1.3142251 4 3205461686600 1 0
24.66827 -12.186462 -1.4419602 4 3205461688904 1 0
0 0 0 1 3205461688904 1 0
29.367613 -11.09612 -1.2790228 4 3205461691208 1 0
55.41654 -27.386553 5.0462246 57 3205461691208 1 0
31.067865 -17.296886 -1.2417241 6 3205461693512 1 0
41.04756 -20.30034 8.349262 18 3205461695816 1 0
0 0 0 9 3205461693512 1 0
41.090496 -17.87945 -1.042747 7 3205461695816 1 0
0 0 0 4 3205461716552 1 0
48.864742 -18.552216 -0.912342 9 3205461716552 1 0
38.120235 -18.921667 -1.2385585 9 3205461718856 1 0
0 0 0 1 3205461718856 1 0
7.345823 -3.6475635 -1.6403251 1 3205461721160 1 0
43.9172 -19.193039 0 25 3205461721160 1 1
44.68404 -24.98842 -0.59602344 27 3205461723464 1 0
9.375977 -4.099187 -1.5920014 4 3205461723464 1 0
11.236014 -5.58331 -1.5970405 3 3205461725768 1 0
62.970264 -23.949509 0.39156026 50 3205461725768 1 0
42.820454 -21.285765 -0.2779257 8 3205461728072 1 0
14.300516 -8.005396 -1.5298594 3 3205461730376 1 0
12.836011 -5.616366 -1.5092117 3 3205461728072 1 0
0 0 0 8 3205461730376 1 0
49.509853 -27.724958 0.6606082 10 3205461732680 1 0
18.798555 -8.231779 -1.4350302 5 3205461732680 1 0
16.289888 -8.106462 -1.4853898 4 3205461734984 1 0
83.428154 -31.785837 2.5982502 37 3205461734984 1 0
20.369728 -7.764189 -1.3970885 5 3205461737288 1 0
51.051235 -25.414282 0.99541545 26 3205461737288 1 0
55.50535 -24.33434 3.5295036 84 3205461739592 1 0
21.25501 -11.914751 -1.4190573 6 3205461739592 1 0
51.47078 -25.641823 2.3427854 24 3205461741896 1 0
25.874182 -11.348098 -1.3160863 4 3205461741896 1 0
24.564804 -12.242208 -1.4384015 4 3205461744200 1 0
0 0 0 1 3205461744200 1 0
55.370556 -27.604729 5.0507813 57 3205461746504 1 0
29.332434 -11.199989 -1.2791855 4 3205461746504 1 0
31.021242 -17.413055 -1.2422825 6 3205461748808 1 0
0 0 0 9 3205461748808 1 0
40.987015 -20.44877 8.351415 18 3205461751112 1 0
41.2109 -18.10319 -1.0473996 7 3205461751112 1 0
0 0 0 4 3205461771296 1 0
48.792217 -18.719807 -0.91220236 9 3205461771296 1 0
38.193386 -19.124434 -1.2430967 9 3205461773600 1 0
7.329539 -3.6714263 -1.6395406 1 3205461775904 1 0
0 0 0 1 3205461773600 1 0
55.999977 -24.706717 0 13 3205461775904 1 0
44.777718 -25.246393 -0.5984448 13 3205461778208 1 0
9.357995 -4.1302943 -1.5913866 5 3205461778208 1 0
11.227098 -5.627832 -1.5985557 3 3205461780512 1 0
42.66008 -21.392075 -0.27736777 25 3205461782816 1 0
12.819966 -5.6627445 -1.50964 3 3205461782816 1 0
14.334916 -8.090501 -1.5365514 3 3205461785120 1 0
62.901215 -24.17491 0.39165324 25 3205461780512 1 0
0 0 0 1 3205461785120 1 0
18.780655 -8.302188 -1.4358673 5 3205461787424 1 0
51.258743 -28.939816 0.6852873 10 3205461787424 1 0
16.265055 -8.165063 -1.4857153 4 3205461789728 1 0
42.641853 -21.41399 0.8328986 27 3205461792032 1 0
83.376396 -32.09985 2.600112 74 3205461789728 1 0
20.346228 -7.83668 -1.3973444 5 3205461792032 1 0
21.216766 -11.990837 -1.4192898 6 3205461794336 1 0
55.427372 -24.531174 3.5299687 56 3205461794336 1 0
42.656765 -21.43702 1.9449939 20 3205461796640 1 0
25.830757 -11.436729 -1.3159002 4 3205461796640 1 0
24.589731 -12.361969 -1.442379 4 3205461798944 1 0
0 0 0 1 3205461798944 1 0
43.146305 -21.69876 3.942597 15 3205461801248 1 0
29.28943 -11.300872 -1.2790228 4 3205461801248 1 0
31.015936 -17.552736 -1.244516 6 3205461803552 1 0
0 0 0 9 3205461803552 1 0
41.03413 -18.196678 -1.044515 7 3205461805856 1 0
40.93999 -20.604101 8.356437 18 3205461805856 1 0
0 0 0 4 3205461826592 1 0
48.771324 -18.907358 -0.9130401 9 3205461826592 1 0
38.097843 -19.243216 -1.2421658 9 3205461828896 1 0
7.320179 -3.6987576 -1.6403251 2 3205461831200 1 0
0 0 0 1 3205461828896 1 0
56.12167 -24.994802 0 13 3205461831200 1 0
45.82985 -26.05085 -0.6137179 14 3205461833504 1 0
9.35074 -4.1661515 -1.5926164 2 3205461833504 1 0
11.200303 -5.6634064 -1.5975456 3 3205461835808 1 0
41.924828 -21.206846 -0.27306694 24 3205461838112 1 0
0 0 0 1 3205461835808 1 0
14.320435 -8.148368 -1.5380385 3 3205461840416 1 0
12.803754 -5.7090797 -1.5100684 3 3205461838112 1 0
51.199127 -29.142307 0.68584603 10 3205461842720 1 0
18.762493 -8.372572 -1.4367043 5 3205461842720 1 0
16.232897 -8.219988 -1.4853898 4 3205461845024 1 0
83.204216 -32.367496 2.5982502 37 3205461845024 1 0
75.69983 -33.76708 1.9287934 28 3205461840416 1 0
41.892536 -21.22113 0.81970465 26 3205461847328 1 0
20.322468 -7.9091015 -1.3976002 5 3205461847328 1 0
21.18866 -12.072732 -1.42022 6 3205461849632 1 0
55.421616 -24.760336 3.535085 56 3205461849632 1 0
42.553158 -21.571331 1.9436913 20 3205461851936 1 0
25.801622 -11.531717 -1.3164586 4 3205461851936 1 0
0 0 0 1 3205461854240 1 0
24.553555 -12.451342 -1.4427977 4 3205461854240 1 0
55.36137 -28.084402 5.0677047 57 3205461856544 1 0
29.257254 -11.405946 -1.2793484 4 3205461856544 1 0
30.91281 -17.637123 -1.2428409 6 3205461858848 1 0
0 0 0 9 3205461858848 1 0
40.95905 -20.793196 8.375091 18 3205461861152 1 0
0 0 0 4 3205461881888 1 0
48.853985 -19.135832 -0.91583246 9 3205461881888 1 0
38.23707 -19.48136 -1.2489148 9 3205461884192 1 0
40.98131 -18.344704 -1.0447942 7 3205461861152 1 0
0 0 0 1 3205461884192 1 0
7.3072233 -3.7242873 -1.6403251 2 3205461886496 1 0
56.085155 -25.213512 0 13 3205461886496 1 0
44.884937 -25.721455 -0.6022631 13 3205461888800 1 0
9.328932 -4.195524 -1.5913866 3 3205461888800 1 0
11.17693 -5.7006655 -1.5970405 3 3205461891104 1 0
41.800667 -21.327612 -0.2727415 24 3205461893408 1 0
0 0 0 1 3205461891104 1 0
12.783747 -5.7537384 -1.5100684 3 3205461893408 1 0
14.319541 -8.21416 -1.5410126 3 3205461895712 1 0
75.607025 -34.042606 1.9294448 28 3205461895712 1 0
45.931526 -26.356714 0.61651176 27 3205461898016 1 0
18.740429 -8.441292 -1.4372624 5 3205461898016 1 0
16.200556 -8.274788 -1.4850644 4 3205461900320 1 0
41.786156 -21.350855 0.81907636 26 3205461902624 1 0
0 0 0 251 3205461900320 1 0
20.331886 -7.9945993 -1.4001584 5 3205461902624 1 0
21.229492 -12.194356 -1.4258014 6 3205461904928 1 0
42.49539 -21.728836 1.9445053 30 3205461907232 1 0
55.40037 -24.983192 3.539271 56 3205461904928 1 0
25.848625 -11.661146 -1.3209256 4 3205461907232 1 0
24.52061 -12.542431 -1.4434257 4 3205461909536 1 0
0 0 0 1 3205461909536 1 0
55.397865 -28.346487 5.0800724 57 3205461911840 1 0
29.213541 -11.506538 -1.2791855 4 3205461911840 1 0
30.9065 -17.776812 -1.2450744 6 3205461914144 1 0
0 0 0 9 3205461914144 1 0
38.8652 -19.901169 7.9611077 17 3205461916448 1 0
0 0 0 8 3205461937184 1 0
41.011776 -18.530455 -1.0472136 7 3205461916448 1 0
48.734825 -19.285645 -0.9148551 9 3205461937184 1 0
38.218906 -19.639742 -1.2505438 9 3205461939488 1 0
0 0 0 1 3205461939488 1 0
7.2942877 -3.7495594 -1.6403251 2 3205461941792 1 0
56.099537 -25.453781 0 13 3205461941792 1 0
45.578747 -26.328161 -0.6127866 7 3205461944096 1 0
9.318013 -4.22929 -1.5920014 4 3205461944096 1 0
0 0 0 142 3205461946400 1 0
11.160826 -5.7408113 -1.5975456 3 3205461946400 1 0
41.805775 -21.51062 -0.27325293 24 3205461948704 1 0
12.749522 -5.79082 -1.5083548 3 3205461948704 1 0
14.277711 -8.254873 -1.5395255 3 3205461951008 1 0
45.596115 -26.370045 0.6132057 27 3205461953312 1 0
18.726246 -8.511356 -1.4383785 5 3205461953312 1 0
16.176085 -8.331231 -1.4853898 4 3205461955616 1 0
75.55262 -34.32785 1.9310267 28 3205461951008 1 0
0 0 0 222 3205461955616 1 0
41.803066 -21.536919 0.8208216 26 3205461957920 1 0
20.308622 -8.064338 -1.4004142 5 3205461957920 1 0
21.18167 -12.261303 -1.4253362 6 3205461960224 1 0
55.385548 -25.199799 3.5436895 56 3205461960224 1 0
51.4672 -26.532928 2.3590684 25 3205461962528 1 0
25.806005 -11.745519 -1.3207394 4 3205461962528 1 0
24.468233 -12.618182 -1.4427977 4 3205461964832 1 0
0 0 0 1 3205461964832 1 0
42.07765 -21.70627 3.8651378 15 3205461967136 1 0
29.164251 -11.5984955 -1.2786971 4 3205461967136 1 0
30.854818 -17.882315 -1.2453537 6 3205461969440 1 0
0 0 0 9 3205461969440 1 0
38.82434 -20.040882 7.96613 17 3205461971744 1 0
40.965473 -18.6712 -1.0475857 7 3205461971744 1 0
0 0 0 8 3205461992480 1 0
48.80028 -19.489086 -0.9172287 9 3205461992480 1 0
38.09623 -19.729288 -1.2485657 9 3205461994784 1 0
0 0 0 1 3205461994784 1 0
7.2857904 -3.7745786 -1.6411095 2 3205461997088 1 0
56.06182 -25.652313 0 13 3205461997088 1 0
45.37308 -26.403788 -0.6111569 14 3205461999392 1 0
9.307996 -4.2607965 -1.5926164 4 3205461999392 1 0
11.138709 -5.7749915 -1.5970405 3 3205462001696 1 0
50.84125 -20.340197 0.3182604 107 3205462001696 1 0
41.8386 -21.699812 -0.27392712 24 3205462004000 1 0
12.734247 -5.8338904 -1.5087832 3 3205462004000 1 0
14.2575035 -8.305562 -1.5402691 3 3205462006304 1 0
75.56711 -34.633224 1.9342836 28 3205462006304 1 0
45.388046 -26.449625 0.61157596 54 3205462008608 1 0
18.763395 -8.602935 -1.443401 5 3205462008608 1 0
16.155445 -8.388502 -1.4860407 4 3205462010912 1 0
50.789604 -20.355536 1.5924158 218 3205462010912 1 0
41.830322 -21.727953 0.82277626 26 3205462013216 1 0
20.285295 -8.133567 -1.4006702 5 3205462013216 1 0
21.150703 -12.338436 -1.4260339 6 3205462015520 1 0
51.49421 -26.767647 2.3644416 25 3205462017824 1 0
55.398556 -25.43072 3.5499687 56 3205462015520 1 0
25.76977 -11.834384 -1.3209256 4 3205462017824 1 0
24.442867 -12.710599 -1.4438443 4 3205462020128 1 0
0 0 0 1 3205462020128 1 0
29.142897 -11.70577 -1.2795112 4 3205462022432 1 0
30.803349 -17.994616 -1.2457725 6 3205462024736 1 0
0 0 0 9 3205462024736 1 0
40.57661 -21.123972 8.340652 27 3205462027040 1 0
42.00659 -21.852108 3.8654635 15 3205462022432 1 0
40.91499 -18.819874 -1.0479579 7 3205462027040 1 0
48.769318 -19.684282 -0.9179966 9 3205462047776 1 0
0 0 0 8 3205462047776 1 0
38.059242 -19.887026 -1.2497294 9 3205462050080 1 0
0 0 0 1 3205462050080 1 0
7.271962 -3.8011513 -1.6411095 2 3205462052384 1 0
56.109417 -25.92223 0 13 3205462052384 1 0
42.75834 -25.091185 -0.5771649 6 3205462054688 1 0
9.281647 -4.2897058 -1.5907717 5 3205462054688 1 0
0 0 0 3 3205462056992 1 0
41.86236 -21.905273 -0.2746013 25 3205462059296 1 0
11.128185 -5.8209724 -1.5985557 3 3205462056992 1 0
12.716602 -5.881732 -1.5092117 3 3205462059296 1 0
14.244501 -8.367228 -1.542128 3 3205462061600 1 0
75.59362 -34.9772 1.9381918 28 3205462061600 1 0
18.695967 -8.653934 -1.4406106 5 3205462063904 1 0
16.121552 -8.44487 -1.4857153 4 3205462066208 1 0
45.361122 -26.654022 0.6125072 27 3205462063904 1 0
50.771442 -20.561113 1.5941613 138 3205462066208 1 0
41.840397 -21.924799 0.8245215 26 3205462068512 1 0
20.270683 -8.212532 -1.4016935 5 3205462068512 1 0
21.109682 -12.416364 -1.4262664 6 3205462070816 1 0
55.3793 -25.663153 3.5546198 56 3205462070816 1 0
51.57135 -27.04304 2.3724203 25 3205462073120 1 0
25.748926 -11.936781 -1.3220422 4 3205462073120 1 0
24.40077 -12.799828 -1.4440536 4 3205462075424 1 0
0 0 0 1 3205462075424 1 0
42.415466 -22.2576 3.9103765 15 3205462077728 1 0
29.093508 -11.806748 -1.2791855 4 3205462077728 1 0
30.773478 -18.124552 -1.2471684 6 3205462080032 1 0
40.69634 -21.370586 8.380831 18 3205462082336 1 0
0 0 0 9 3205462080032 1 0
40.833298 -18.958517 -1.0475857 7 3205462082336 1 0
48.67809 -19.84534 -0.91757774 9 3205462103072 1 0
37.964977 -20.006432 -1.2489148 9 3205462105376 1 0
0 0 0 1 3205462105376 1 0
7.2656446 -3.8300645 -1.6426784 2 3205462107680 1 0
56.087852 -26.14923 0 13 3205462107680 1 0
0 0 0 8 3205462103072 1 0
42.285477 -25.011295 -0.5719497 6 3205462109984 1 0
9.270293 -4.3235474 -1.5913866 3 3205462109984 1 0
11.100949 -5.855756 -1.5975456 3 3205462112288 1 0
0 0 0 1 3205462112288 1 0
41.86781 -22.092682 -0.275136 25 3205462114592 1 0
12.696209 -5.9256234 -1.5092117 3 3205462114592 1 0
14.20872 -8.412221 -1.5413845 3 3205462116896 1 0
45.086773 -26.701874 0.6100393 27 3205462119200 1 0
75.54507 -35.271397 1.9400529 28 3205462116896 1 0
18.68055 -8.724946 -1.4417268 5 3205462119200 1 0
0 0 0 6 3205462121504 1 0
16.103045 -8.505743 -1.4866916 4 3205462121504 1 0
41.84285 -22.109087 0.8260573 17 3205462123808 1 0
20.249825 -8.284938 -1.4022051 5 3205462123808 1 0
21.080862 -12.496588 -1.4271967 6 3205462126112 1 0
55.370846 -25.889494 3.559736 56 3205462126112 1 0
51.514145 -27.237455 2.3740487 25 3205462128416 1 0
25.708065 -12.024532 -1.3220422 4 3205462128416 1 0
24.353535 -12.880931 -1.4438443 4 3205462130720 1 0
45.521713 -24.08513 4.204265 19 3205462133024 1 0
0 0 0 1 3205462130720 1 0
29.07913 -11.916093 -1.2803254 4 3205462133024 1 0
30.729067 -18.238935 -1.2478664 6 3205462135328 1 0
0 0 0 9 3205462135328 1 0
40.89163 -21.64986 8.436076 18 3205462137632 1 0
40.76171 -19.093098 -1.0473996 7 3205462137632 1 0
0 0 0 8 3205462158368 1 0
48.423393 -19.929026 -0.91401744 18 3205462158368 1 0
37.90887 -20.13812 -1.2492639 9 3205462160672 1 0
0 0 0 1 3205462160672 1 0
56.127136 -26.395473 0 27 3205462162976 1 0
7.2424564 -3.8487208 -1.6403251 1 3205462162976 1 0
41.954376 -25.004866 -0.5685971 6 3205462165280 1 0
11.081299 -5.892858 -1.5975456 3 3205462167584 1 0
9.259386 -4.356149 -1.5920014 4 3205462165280 1 0
58.50288 -24.11713 0.36777788 38 3205462167584 1 0
49.664883 -26.42026 -0.32695502 10 3205462169888 1 0
12.679871 -5.969848 -1.50964 4 3205462169888 1 0
14.183797 -8.461952 -1.5417562 3 3205462172192 1 0
44.86953 -26.77769 0.6083164 18 3205462174496 1 0
18.669115 -8.796298 -1.4431219 5 3205462174496 1 0
16.084808 -8.565653 -1.487668 4 3205462176800 1 0
0 0 0 6 3205462176800 1 0
49.582775 -26.4136 0.9806158 37 3205462179104 1 0
0 0 0 109 3205462172192 1 0
20.24014 -8.360987 -1.4034842 5 3205462179104 1 0
21.052103 -12.576147 -1.4281269 3 3205462181408 1 0
55.365856 -26.11617 3.5650847 56 3205462181408 1 0
51.46367 -27.434809 2.3760026 25 3205462183712 1 0
25.663465 -12.1100645 -1.3218561 4 3205462183712 1 0
24.348326 -12.984417 -1.4461471 4 3205462186016 1 0
0 0 0 1 3205462186016 1 0
45.601105 -24.326567 4.219236 19 3205462188320 1 0
29.030933 -12.012146 -1.2799997 4 3205462188320 1 0
21.0676 -12.60204 -0.85727125 3 3205462190624 1 1
40.59786 -19.178963 12.030945 9 3205462190624 1 0
40.772102 -21.765703 8.426749 18 3205462192928 1 0
40.73946 -19.253105 -1.0485163 7 3205462192928 1 0
0 0 0 8 3205462213664 1 0
45.170094 -18.774752 -0.85384154 8 3205462213664 1 0
37.993275 -20.353676 -1.2543838 9 3205462215968 1 0
0 0 0 1 3205462215968 1 0
7.235836 -3.877789 -1.641894 1 3205462218272 1 0
0 0 0 118 3205462218272 1 0
9.247599 -4.390341 -1.5926164 5 3205462220576 1 0
41.643433 -25.018188 -0.5655704 6 3205462220576 1 0
58.42502 -24.32597 0.3678244 19 3205462222880 1 0
49.684177 -26.655777 -0.32769895 10 3205462225184 1 0
12.651551 -6.0111194 -1.5087832 4 3205462225184 1 0
14.160627 -8.516134 -1.5424998 3 3205462227488 1 0
0 0 0 232 3205462227488 1 0
11.063986 -5.9337 -1.5980506 3 3205462222880 1 0
42.49868 -25.56734 0.5773977 8 3205462229792 1 0
18.65226 -8.869215 -1.4442381 5 3205462229792 1 0
16.064846 -8.628341 -1.4886444 4 3205462232096 1 0
77.11789 -32.164265 2.431736 41 3205462232096 1 0
49.587177 -26.642757 0.98257047 37 3205462234400 1 0
20.225016 -8.439058 -1.4045075 5 3205462234400 1 0
21.007156 -12.651084 -1.4281269 3 3205462236704 1 0
55.35537 -26.352774 3.5704336 56 3205462236704 1 0
45.497364 -24.463247 2.1045663 27 3205462239008 1 0
25.620062 -12.201623 -1.3218561 4 3205462239008 1 0
24.284124 -13.061989 -1.4451004 4 3205462241312 1 0
0 0 0 1 3205462241312 1 0
51.299343 -27.603086 4.755591 26 3205462243616 1 0
28.976618 -12.1115265 -1.2795112 4 3205462243616 1 0
0 0 0 15 3205462245920 1 0
40.42058 -19.273134 11.998851 9 3205462245920 1 0
40.828613 -21.985092 8.454731 18 3205462248224 1 0
40.691547 -19.409962 -1.0490745 7 3205462248224 1 0
44.64005 -18.746616 -0.8451153 8 3205462268960 1 0
37.880024 -20.471329 -1.2531039 9 3205462271264 1 0
0 0 0 8 3205462268960 1 0
0 0 0 1 3205462271264 1 0
7.218238 -3.902208 -1.6411095 2 3205462273568 1 0
43.437374 -20.80782 0 108 3205462273568 1 0
9.231638 -4.423803 -1.5926164 5 3205462275872 1 0
41.32334 -25.030003 -0.5624506 6 3205462275872 1 0
11.0460005 -5.975457 -1.5985557 3 3205462278176 1 0
44.48087 -18.708694 0.2804597 10 3205462278176 1 1
12.629875 -6.056531 -1.5087832 4 3205462280480 1 0
49.73233 -26.912144 -0.32865208 10 3205462280480 1 0
14.126661 -8.56468 -1.542128 3 3205462282784 1 0
43.37806 -20.80889 1.1195153 221 3205462282784 1 0
44.749966 -27.139362 0.6092943 9 3205462285088 1 0
18.624136 -8.937349 -1.444517 5 3205462285088 1 0
16.041136 -8.6890955 -1.4892954 4 3205462287392 1 0
76.247894 -32.11954 2.4078817 41 3205462287392 1 0
49.57358 -26.86167 0.9841761 37 3205462289696 1 0
20.213455 -8.518238 -1.4057868 5 3205462289696 1 0
20.959084 -12.722873 -1.4278944 3 3205462292000 1 0
55.34866 -26.588945 3.576015 56 3205462292000 1 0
25.595142 -12.300005 -1.3227868 4 3205462294304 1 0
51.535282 -27.94305 2.3883777 26 3205462294304 1 0
24.245403 -13.150486 -1.4455191 4 3205462296608 1 0
0 0 0 1 3205462296608 1 0
51.371284 -27.872501 4.7712126 26 3205462298912 1 0
28.93066 -12.210626 -1.2793484 4 3205462298912 1 0
20.749304 -12.611228 -0.84791815 57 3205462301216 1 1
0 0 0 9 3205462301216 1 0
40.292633 -21.875978 8.359306 18 3205462303520 1 0
40.501884 -19.491152 -1.0459108 7 3205462303520 1 0
0 0 0 8 3205462324256 1 0
44.168903 -18.7213 -0.83736646 8 3205462324256 1 0
37.583553 -20.472786 -1.2455403 9 3205462326560 1 0
0 0 0 1 3205462326560 1 0
0 0 0 7 3205462328864 1 0
7.2017565 -3.9243512 -1.6403251 2 3205462328864 1 0
41.044956 -25.049032 -0.5597964 12 3205462331168 1 0
11.022466 -6.0104756 -1.5980506 3 3205462333472 1 0
9.206144 -4.449433 -1.5907717 5 3205462331168 1 0
55.53727 -23.577986 0.35066763 14 3205462333472 1 0
49.659386 -27.088297 -0.32876834 10 3205462335776 1 0
12.61308 -6.10057 -1.5092117 5 3205462335776 1 0
14.104604 -8.616246 -1.5428715 3 3205462338080 1 0
43.3475 -20.973671 1.120539 203 3205462338080 1 0
44.61738 -27.264856 0.6087355 9 3205462340384 1 0
18.597528 -9.001745 -1.4447961 5 3205462340384 1 0
16.022223 -8.748905 -1.4902717 4 3205462342688 1 0
75.77481 -32.221745 2.3963618 84 3205462342688 1 0
49.57372 -27.079 0.9859912 38 3205462344992 1 0
20.195555 -8.59123 -1.4065542 5 3205462344992 1 0
20.912441 -12.791743 -1.4276618 6 3205462347296 1 0
55.348076 -26.819895 3.5818288 56 3205462347296 1 0
51.257725 -28.018229 2.3799105 26 3205462349600 1 0
25.546032 -12.383372 -1.3224145 4 3205462349600 1 0
24.211021 -13.238675 -1.4461471 4 3205462351904 1 0
0 0 0 1 3205462351904 1 0
51.300404 -28.060942 4.773491 27 3205462354208 1 0
28.91826 -12.32176 -1.2806511 4 3205462354208 1 0
0 0 0 21 3205462356512 1 0
0 0 0 9 3205462356512 1 0
40.53921 -19.680412 -1.0486093 7 3205462358816 1 0
0 0 0 8 3205462379552 1 0
40.203663 -22.006302 8.356437 18 3205462358816 1 0
43.76502 -18.730593 -0.830944 8 3205462379552 1 0
37.809742 -20.767466 -1.255431 9 3205462381856 1 0
0 0 0 1 3205462381856 1 0
7.198327 -3.9551325 -1.6426784 2 3205462384160 1 0
0 0 0 3 3205462384160 1 0
9.197662 -4.485006 -1.5920014 5 3205462386464 1 0
11.001418 -6.0489144 -1.5980506 3 3205462388768 1 0
0 0 0 8 3205462388768 1 0
40.87891 -25.143955 -0.5587254 6 3205462386464 1 0
45.0679 -24.78824 -0.29894158 28 3205462391072 1 0
12.595283 -6.1463046 -1.50964 5 3205462391072 1 0
14.091398 -8.675868 -1.5447304 3 3205462393376 1 0
0 0 0 3 3205462393376 1 0
41.11629 -25.322948 0.56217116 15 3205462395680 1 0
18.580336 -9.073612 -1.4459122 5 3205462395680 1 0
16.002062 -8.810549 -1.491248 4 3205462397984 1 0
45.422215 -25.01755 0.9051516 21 3205462400288 1 0
20.183783 -8.669551 -1.4078333 5 3205462400288 1 0
75.794136 -32.54284 2.4005508 42 3205462397984 1 0
20.558336 -12.673967 -1.4064991 6 3205462402592 1 0
55.343807 -27.056778 3.5876427 56 3205462402592 1 0
45.415703 -25.031185 2.1127079 14 3205462404896 1 0
25.506239 -12.474224 -1.3226006 4 3205462404896 1 0
0 0 0 1 3205462407200 1 0
45.46996 -25.078337 4.239089 19 3205462409504 1 0
28.867731 -12.41947 -1.2803254 4 3205462409504 1 0
20.53242 -12.674481 -0.84261346 3 3205462411808 1 1
24.17166 -13.326964 -1.4465659 4 3205462407200 1 0
0 0 0 9 3205462411808 1 0
39.93022 -22.03812 8.31554 18 3205462414112 1 0
40.495407 -19.834112 -1.0492606 7 3205462414112 1 0
0 0 0 8 3205462435296 1 0
43.61126 -18.845173 -0.8292685 8 3205462435296 1 0
37.642582 -20.84702 -1.2522893 9 3205462437600 1 0
0 0 0 1 3205462437600 1 0
50.621933 -24.89445 0 11 3205462439904 1 0
7.181046 -3.9783344 -1.641894 2 3205462439904 1 0
9.181951 -4.5170846 -1.5920014 5 3205462442208 1 0
40.86568 -25.332859 -0.55974984 12 3205462442208 1 0
10.980237 -6.08728 -1.5980506 3 3205462444512 1 0
43.918217 -19.008144 0.27813494 19 3205462444512 1 1
44.970608 -24.939587 -0.29887185 9 3205462446816 1 0
12.580887 -6.193746 -1.5104967 4 3205462446816 1 0
14.067797 -8.729203 -1.5454739 3 3205462449120 1 0
0 0 0 1 3205462449120 1 0
43.24674 -26.843729 0.5925777 8 3205462451424 1 0
18.562868 -9.145468 -1.4470283 5 3205462451424 1 0
15.992125 -8.877963 -1.4932008 4 3205462453728 1 0
0 0 0 10 3205462453728 1 0
49.55479 -27.51957 0.98941183 63 3205462456032 1 0
20.168045 -8.746305 -1.4088566 5 3205462456032 1 0
51.00158 -25.154884 3.3118312 24 3205462458336 1 0
20.354553 -12.646604 -1.3955691 5 3205462458336 1 0
45.362988 -25.208977 2.1143363 14 3205462460640 1 0
25.505539 -12.584397 -1.3248341 4 3205462460640 1 0
24.138956 -13.419021 -1.4474032 4 3205462462944 1 0
0 0 0 1 3205462462944 1 0
45.357754 -25.223341 4.2368107 19 3205462465248 1 0
20.359068 -12.665832 -0.8373087 3 3205462467552 1 1
28.820536 -12.518569 -1.2801626 4 3205462465248 1 0
0 0 0 9 3205462467552 1 0
39.880558 -22.192677 8.3212805 27 3205462469856 1 0
40.278934 -19.902716 -1.0454456 7 3205462469856 1 0
0 0 0 8 3205462490592 1 0
43.394917 -18.93172 -0.82640636 8 3205462490592 1 0
37.573074 -20.980238 -1.2524056 9 3205462492896 1 0
0 0 0 1 3205462492896 1 0
7.180813 -4.011028 -1.6450318 2 3205462495200 1 0
50.51323 -25.060333 0 11 3205462495200 1 0
40.65828 -25.40118 -0.5581201 12 3205462497504 1 0
9.169667 -4.550865 -1.5926164 5 3205462497504 1 0
55.81146 -24.387295 0.35399204 47 3205462499808 1 0
10.965848 -6.1294427 -1.5990608 3 3205462499808 1 0
44.680786 -24.983189 -0.2975235 19 3205462502112 1 0
12.562752 -6.239393 -1.5109252 5 3205462502112 1 0
14.047371 -8.784591 -1.5465893 3 3205462504416 1 0
51.523537 -25.598927 1.3387471 11 3205462504416 1 0
40.857124 -25.558466 0.56105363 23 3205462506720 1 0
18.548697 -9.219089 -1.4484234 5 3205462506720 1 0
15.967995 -8.937626 -1.4938518 4 3205462509024 1 0
55.78924 -24.41625 1.7723117 22 3205462509024 1 0
0 0 0 21 3205462511328 1 0
20.144705 -8.819854 -1.4093684 3 3205462511328 1 0
20.296745 -12.7091 -1.3946388 2 3205462513632 1 0
50.73113 -25.242037 3.2999709 24 3205462513632 1 0
45.365368 -25.417963 2.1185696 14 3205462515936 1 0
25.45788 -12.671571 -1.324648 4 3205462515936 1 0
24.098938 -13.507106 -1.4478219 4 3205462518240 1 0
50.13438 -28.109179 4.6921263 25 3205462520544 1 0
28.798624 -12.628725 -1.2811395 4 3205462520544 1 0
0 0 0 1 3205462518240 1 0
20.26393 -12.704968 -0.83521473 3 3205462522848 1 1
41.456444 -20.657377 12.410891 20 3205462522848 1 0
39.593506 -22.214296 8.277514 18 3205462525152 1 0
40.345215 -20.110987 -1.0489815 7 3205462525152 1 0
0 0 0 8 3205462545888 1 0
37.443863 -21.079882 -1.2505438 9 3205462548192 1 0
46.780067 -20.603216 -0.8922368 9 3205462545888 1 0
0 0 0 1 3205462548192 1 0
7.1496797 -4.026446 -1.6411095 2 3205462550496 1 0
40.31551 -25.38312 -0.5546278 5 3205462552800 1 0
42.684742 -21.362505 0 25 3205462550496 1 0
9.160794 -4.5863843 -1.5938462 6 3205462552800 1 0
10.940929 -6.1657352 -1.5985557 3 3205462555104 1 0
0 0 0 1 3205462555104 1 0
44.380756 -25.01918 -0.29610538 19 3205462557408 1 0
12.540896 -6.2832074 -1.5109252 4 3205462557408 1 0
51.480343 -25.801916 1.3399569 11 3205462559712 1 0
43.335728 -27.3199 0.59639597 35 3205462562016 1 0
14.013251 -8.831449 -1.5462176 3 3205462559712 1 0
18.527105 -9.289145 -1.4492605 5 3205462562016 1 0
15.950587 -9.001147 -1.4951535 4 3205462564320 1 0
75.88076 -33.525425 2.4142816 41 3205462564320 1 0
51.17599 -28.889168 1.0257826 27 3205462566624 1 0
20.153957 -8.907869 -1.4121825 5 3205462566624 1 0
20.279276 -12.79692 -1.3964993 2 3205462568928 1 0
43.09805 -21.632097 2.8083472 46 3205462568928 1 0
45.48864 -25.696074 2.1285024 14 3205462571232 1 0
25.417063 -12.762152 -1.3248341 4 3205462571232 1 0
24.089897 -13.6127615 -1.4501246 4 3205462573536 1 0
43.21554 -21.70681 5.937962 34 3205462573536 1 0
51.16391 -28.921612 4.7979 27 3205462575840 1 0
28.76533 -12.734028 -1.281628 4 3205462575840 1 0
41.377182 -20.79849 12.40882 20 3205462578144 1 0
0 0 0 23 3205462578144 1 0
39.347893 -22.257433 8.242358 18 3205462580448 1 0
40.26048 -20.244509 -1.0486093 7 3205462580448 1 0
46.532448 -20.688395 -0.888886 8 3205462601184 1 0
0 0 0 8 3205462601184 1 0
37.338913 -21.192423 -1.2494966 18 3205462603488 1 0
0 0 0 1 3205462603488 1 0
7.142462 -4.0551476 -1.6426784 2 3205462605792 1 0
42.592373 -21.50174 0 25 3205462605792 1 0
40.04822 -25.409246 -0.55215985 5 3205462608096 1 0
9.134246 -4.612789 -1.5920014 7 3205462608096 1 0
10.954021 -6.2231717 -1.6036065 3 3205462610400 1 0
43.98804 -24.998419 -0.29405957 28 3205462612704 1 0
12.515568 -6.324696 -1.5104967 4 3205462612704 1 0
13.992812 -8.886106 -1.5473329 3 3205462615008 1 0
42.56539 -21.517647 1.1098379 23 3205462615008 1 0
43.312393 -27.513842 0.59737384 35 3205462617312 1 0
56.013283 -24.940672 0.3563633 16 3205462610400 1 0
18.505726 -9.358221 -1.4500976 3 3205462617312 1 0
75.717766 -33.764515 2.4127688 41 3205462619616 1 0
15.926528 -9.059787 -1.4958044 4 3205462619616 1 0
46.126877 -26.247658 0.9263737 22 3205462621920 1 0
20.13062 -8.980101 -1.4126941 3 3205462621920 1 0
20.710554 -13.168262 -1.4292897 3 3205462624224 1 0
45.400734 -25.85107 2.1285024 14 3205462626528 1 0
49.785976 -25.202353 3.2497387 23 3205462624224 1 0
25.387646 -12.855987 -1.3255787 4 3205462626528 1 0
24.095491 -13.724325 -1.4532648 4 3205462628832 1 0
43.059956 -21.8125 5.9267497 11 3205462628832 1 0
0 0 0 8 3205462631136 1 0
28.729216 -12.834906 -1.2819537 4 3205462631136 1 0
19.990574 -12.726001 -0.8275369 65 3205462633440 1 1
41.216858 -20.893171 12.381903 10 3205462633440 1 0
40.195354 -20.382345 -1.0487024 7 3205462635744 1 0
0 0 0 8 3205462656480 1 0
46.131523 -20.69363 -0.8825333 26 3205462656480 1 0
37.164154 -21.256844 -1.2460058 18 3205462658784 1 0
39.13224 -22.310453 8.212941 18 3205462635744 1 0
0 0 0 1 3205462658784 1 0
7.135725 -4.08281 -1.6442474 2 3205462661088 1 0
41.82539 -21.28965 0 24 3205462661088 1 0
39.67335 -25.357534 -0.5481553 5 3205462663392 1 0
9.115275 -4.6414595 -1.5913866 7 3205462663392 1 0
10.905594 -6.2440076 -1.5995659 3 3205462665696 1 0
43.702675 -25.030445 -0.29271123 19 3205462668000 1 0
56.11197 -25.209871 0.35752568 16 3205462665696 1 0
12.512012 -6.3756466 -1.5126387 4 3205462668000 1 0
13.966233 -8.935214 -1.5477046 3 3205462670304 1 0
41.790997 -21.302763 1.0915065 23 3205462670304 1 0
44.321136 -28.364536 0.6126004 18 3205462672608 1 0
18.502548 -9.4349785 -1.4523298 3 3205462672608 1 0
15.895866 -9.113476 -1.4958044 4 3205462674912 1 0
75.6581 -34.04443 2.4145143 83 3205462674912 1 0
45.788063 -26.26023 0.92134744 32 3205462677216 1 0
20.114697 -9.054677 -1.4137175 3 3205462677216 1 0
20.706161 -13.264218 -1.4320804 3 3205462679520 1 0
42.56925 -21.730686 2.7834637 15 3205462679520 1 0
45.350807 -26.026989 2.1302934 15 3205462681824 1 0
25.326048 -12.933045 -1.324648 4 3205462681824 1 0
24.065964 -13.8161955 -1.4543116 4 3205462684128 1 0
0 0 0 1 3205462684128 1 0
51.13872 -29.368471 4.814173 27 3205462686432 1 0
28.787292 -12.978811 -1.2865129 4 3205462686432 1 0
19.862839 -12.740295 -0.8240469 61 3205462688736 1 1
0 0 0 9 3205462688736 1 0
39.50596 -22.703173 8.307649 18 3205462691040 1 0
40.65224 -20.789375 -1.0624741 16 3205462691040 1 0
0 0 0 8 3205462711776 1 0
45.97157 -20.814941 -0.8808579 26 3205462711776 1 0
37.089725 -21.38644 -1.2460058 18 3205462714080 1 0
0 0 0 1 3205462714080 1 0
7.1248274 -4.109653 -1.6450318 2 3205462716384 1 0
41.789967 -21.455616 0 24 3205462716384 1 0
38.9726 -25.101688 -0.5396806 11 3205462718688 1 0
9.10605 -4.676861 -1.5926164 6 3205462718688 1 0
10.887169 -6.284021 -1.600071 3 3205462720992 1 0
56.019985 -25.403933 0.35750243 16 3205462720992 1 0
43.31713 -25.010838 -0.2907119 19 3205462723296 1 0
13.991863 -9.020597 -1.5540248 3 3205462725600 1 0
41.74483 -21.46314 1.092251 23 3205462725600 1 0
44.342865 -28.597113 0.61427665 9 3205462727904 1 0
18.480148 -9.504982 -1.4531668 5 3205462727904 1 0
15.881216 -9.178883 -1.4974318 4 3205462730208 1 0
75.68441 -34.374454 2.4191687 83 3205462730208 1 0
12.48968 -6.419283 -1.5126387 4 3205462723296 1 0
45.46068 -26.283775 0.9166004 64 3205462732512 1 0
20.09387 -9.129788 -1.414485 3 3205462732512 1 0
20.64967 -13.329918 -1.4313827 3 3205462734816 1 0
45.228546 -26.167122 2.128828 15 3205462737120 1 0
42.379528 -21.820652 2.776022 45 3205462734816 1 0
25.373104 -13.068941 -1.3294873 4 3205462737120 1 0
24.024506 -13.9041195 -1.4547303 4 3205462739424 1 0
0 0 0 1 3205462739424 1 0
28.749086 -13.082529 -1.2868385 4 3205462741728 1 0
51.177353 -29.628696 4.827517 55 3205462741728 1 0
19.734312 -12.755302 -0.82055694 61 3205462744032 1 1
38.24153 -22.154465 8.057967 17 3205462746336 1 0
40.405277 -20.841326 -1.0579146 16 3205462746336 1 0
0 0 0 8 3205462767072 1 0
45.178394 -20.646145 -0.86703557 17 3205462767072 1 0
36.997566 -21.505732 -1.2454239 18 3205462769376 1 0
0 0 0 1 3205462769376 1 0
7.107048 -4.132527 -1.6442474 2 3205462771680 1 0
41.814274 -21.65286 0 24 3205462771680 1 0
0 0 0 14 3205462773984 1 0
9.079141 -4.7031646 -1.5907717 6 3205462773984 1 0
10.868597 -6.3239813 -1.600576 3 3205462776288 1 0
56.094635 -25.674234 0.35854858 16 3205462776288 1 0
43.0256 -25.043173 -0.28934032 18 3205462778592 1 0
12.467196 -6.462841 -1.5126387 4 3205462778592 1 0
13.95695 -9.067213 -1.553653 3 3205462780896 1 0
40.147766 -20.701107 12.103414 28 3205462744032 1 0
41.751305 -21.651068 1.0943911 23 3205462780896 1 0
38.943836 -25.308142 0.540705 7 3205462783200 1 0
15.862858 -9.2422905 -1.4987336 4 3205462785504 1 0
18.450397 -9.571269 -1.4534459 5 3205462783200 1 0
75.723885 -34.711742 2.4242887 83 3205462785504 1 0
45.420486 -26.472511 0.91764754 75 3205462787808 1 0
20.072765 -9.204865 -1.4152524 5 3205462787808 1 0
20.61975 -13.412805 -1.4325454 3 3205462790112 1 0
48.320583 -25.093393 3.1709023 22 3205462790112 1 0
44.91943 -26.197987 2.1185696 14 3205462792416 1 0
25.263508 -13.124274 -1.3261371 4 3205462792416 1 0
24.04138 -14.026141 -1.4587078 4 3205462794720 1 0
0 0 0 1 3205462794720 1 0
51.173473 -29.865435 4.836955 27 3205462797024 1 0
28.71051 -13.186139 -1.2871642 4 3205462797024 1 0
19.612625 -12.773931 -0.8173462 61 3205462799328 1 1
40.09583 -20.851818 12.109626 19 3205462799328 1 0
38.04503 -22.21836 8.032855 17 3205462801632 1 0
0 0 0 8 3205462822368 1 0
44.975307 -20.74342 -0.8645224 25 3205462822368 1 0
40.197475 -20.912107 -1.0543785 15 3205462801632 1 0
36.880558 -21.611025 -1.2440276 18 3205462824672 1 0
0 0 0 1 3205462824672 1 0
7.099226 -4.1614833 -1.6458163 2 3205462826976 1 0
41.840622 -21.853605 0 33 3205462826976 1 0
9.07297 -4.7407146 -1.5926164 6 3205462829280 1 0
19.745771 -12.915119 -0.274683 12 3205462829280 1 1
10.846086 -6.3625126 -1.600576 4 3205462831584 1 0
56.188354 -25.958698 0.3597342 17 3205462831584 1 0
42.670456 -25.040447 -0.28755024 18 3205462833888 1 0
12.447612 -6.509068 -1.5130671 4 3205462833888 1 0
13.931084 -9.121455 -1.5543966 3 3205462836192 1 0
41.77279 -21.852213 1.0969967 23 3205462836192 1 0
38.7021 -25.349264 0.5386096 7 3205462838496 1 0
18.43357 -9.646741 -1.454841 3 3205462838496 1 0
15.836293 -9.303487 -1.4993845 4 3205462840800 1 0
75.645355 -35.00648 2.4258015 83 3205462840800 1 0
45.40362 -26.683437 0.9192532 32 3205462843104 1 0
20.046543 -9.280854 -1.4157641 3 3205462843104 1 0
20.540789 -13.467985 -1.4304525 3 3205462845408 1 0
48.172424 -25.239273 3.1671813 21 3205462845408 1 0
45.391922 -26.696106 2.1454365 15 3205462847712 1 0
25.303902 -13.262788 -1.3307902 4 3205462847712 1 0
23.976038 -14.106061 -1.4578704 4 3205462850016 1 0
45.319553 -23.763037 6.283096 14 3205462850016 1 0
46.51076 -27.374157 4.4057236 21 3205462852320 1 0
28.679922 -13.300103 -1.2879784 4 3205462852320 1 0
19.488443 -12.795835 -0.81413543 62 3205462854624 1 1
40.151955 -21.069818 12.150002 9 3205462854624 1 0
39.953228 -20.97369 -1.0500051 15 3205462856928 1 0
37.636856 -22.167591 7.9639773 26 3205462856928 1 0
0 0 0 8 3205462877664 1 0
44.797447 -20.870358 -0.8626375 25 3205462877664 1 0
36.70845 -21.69851 -1.2410022 18 3205462879968 1 0
0 0 0 1 3205462879968 1 0
41.842606 -22.056437 0 25 3205462882272 1 0
19.623709 -12.9406805 -0.27365857 34 3205462884576 1 1
7.080062 -4.186303 -1.6450318 2 3205462882272 1 0
9.051621 -4.7728834 -1.5920014 7 3205462884576 1 0
10.82232 -6.402852 -1.600576 3 3205462886880 1 0
56.080437 -26.162655 0.35966447 17 3205462886880 1 0
42.512257 -25.159206 -0.28710854 9 3205462889184 1 0
12.426998 -6.5568643 -1.5134954 3 3205462889184 1 0
13.894234 -9.17026 -1.5540248 3 3205462891488 1 0
41.784363 -22.053701 1.099416 23 3205462891488 1 0
38.439438 -25.377436 0.53623486 7 3205462893792 1 0
18.40896 -9.719292 -1.4556781 5 3205462893792 1 0
15.819782 -9.370707 -1.5010118 4 3205462896096 1 0
0 0 0 74 3205462896096 1 0
42.2972 -25.061846 0.85816973 9 3205462898400 1 0
20.034906 -9.362659 -1.417299 3 3205462898400 1 0
20.496195 -13.542997 -1.430685 3 3205462900704 1 0
47.591805 -25.150726 3.134856 21 3205462900704 1 0
44.063473 -26.123985 2.0869808 13 3205462903008 1 0
25.264128 -13.355504 -1.3311623 4 3205462903008 1 0
23.93696 -14.19578 -1.4584985 4 3205462905312 1 0
41.43183 -21.909258 5.7546706 32 3205462905312 1 0
46.21343 -27.414984 4.3865213 21 3205462907616 1 0
28.67353 -13.417935 -1.2897695 4 3205462907616 1 0
19.367722 -12.811925 -0.8109247 62 3205462909920 1 1
0 0 0 9 3205462909920 1 0
37.53074 -22.277477 7.95752 26 3205462912224 1 0
39.704895 -21.016006 -1.0453525 15 3205462912224 1 0
0 0 0 8 3205462932960 1 0
44.71356 -21.00249 -0.8622885 17 3205462932960 1 0
36.615734 -21.799938 -1.2401876 18 3205462935264 1 0
0 0 0 1 3205462935264 1 0
7.066753 -4.2087307 -1.6450318 2 3205462937568 1 0
49.642994 -26.36972 0 11 3205462937568 1 0
0 0 0 28 3205462939872 1 0
9.029392 -4.7979813 -1.5907717 6 3205462939872 1 0
10.801777 -6.437448 -1.600576 3 3205462942176 1 0
56.04349 -26.3641 0.3599667 17 3205462942176 1 0
42.269688 -25.199457 -0.2860159 9 3205462944480 1 0
12.419904 -6.6042433 -1.5152091 4 3205462944480 1 0
13.867869 -9.217279 -1.5543966 3 3205462946784 1 0
49.550663 -26.357649 1.3059927 21 3205462946784 1 0
38.06049 -25.304886 0.5320906 7 3205462949088 1 0
18.40552 -9.793944 -1.4579103 3 3205462949088 1 0
15.796017 -9.426283 -1.5016627 4 3205462951392 1 0
0 0 0 248 3205462951392 1 0
41.97801 -25.058681 0.85335284 9 3205462953696 1 0
20.018604 -9.43498 -1.4183224 3 3205462953696 1 0
20.5513 -13.676666 -1.4376618 6 3205462956000 1 0
55.59032 -29.611849 3.668107 56 3205462956000 1 0
25.237528 -13.448237 -1.332093 4 3205462958304 1 0
45.294544 -27.056356 2.1495073 15 3205462958304 1 0
23.90004 -14.281226 -1.4591265 4 3205462960608 1 0
41.306396 -22.018517 5.7473583 21 3205462960608 1 0
45.78308 -27.366253 4.354301 21 3205462962912 1 0
28.722652 -13.557719 -1.294003 4 3205462962912 1 0
19.244915 -12.823442 -0.80757433 62 3205462965216 1 1
0 0 0 9 3205462965216 1 0
37.91159 -22.676142 8.054379 26 3205462967520 1 0
39.577614 -21.119165 -1.0438637 15 3205462967520 1 0
0 0 0 8 3205462988256 1 0
43.516026 -20.62571 -0.8405777 16 3205462988256 1 0
36.51199 -21.91116 -1.2392567 18 3205462990560 1 0
0 0 0 1 3205462990560 1 0
7.0520186 -4.2333727 -1.6450318 2 3205462992864 1 0
49.716366 -26.631618 0 22 3205462992864 1 0
19.324127 -12.92905 -0.27067846 1 3205462995168 1 1
10.786043 -6.479201 -1.6015861 3 3205462997472 1 0
0 0 0 142 3205462997472 1 0
41.79747 -25.116108 -0.28341216 8 3205462999776 1 0
9.019557 -4.8332043 -1.5920014 6 3205462995168 1 0
12.3932705 -6.6456776 -1.5147806 3 3205462999776 1 0
13.842229 -9.270063 -1.5551401 3 3205463002080 1 0
49.54998 -26.579601 1.3084121 10 3205463002080 1 0
37.78584 -25.312927 0.529483 7 3205463004384 1 0
18.3888 -9.867565 -1.4593054 3 3205463004384 1 0
15.790347 -9.497803 -1.5042664 4 3205463006688 1 0
43.415215 -20.639826 1.399022 223 3205463006688 1 0
41.698376 -25.089592 0.84944355 9 3205463008992 1 0
19.999968 -9.511659 -1.4193457 3 3205463008992 1 0
20.503433 -13.748321 -1.4376618 6 3205463011296 1 0
51.420013 -27.621262 3.3992722 26 3205463011296 1 0
45.422382 -27.348297 2.1600912 16 3205463013600 1 0
25.19747 -13.540034 -1.3324653 4 3205463013600 1 0
21.01336 -12.656069 -1.2855804 10 3205463015904 1 0
41.96365 -22.557322 5.8497286 33 3205463015904 1 0
45.45848 -27.388054 4.3324957 41 3205463018208 1 0
28.664328 -13.652741 -1.2935145 4 3205463018208 1 0
19.127018 -12.841519 -0.8045032 62 3205463020512 1 1
0 0 0 9 3205463020512 1 0
39.51723 -23.824211 8.413117 18 3205463022816 1 0
39.37336 -21.187077 -1.0404207 15 3205463022816 1 0
0 0 0 8 3205463043552 1 0
43.404076 -20.758503 -0.8398098 16 3205463043552 1 0
20.923773 -12.656087 -0.7116708 10 3205463045856 1 1
0 0 0 1 3205463045856 1 0
7.0371985 -4.257963 -1.6450318 2 3205463048160 1 0
0 0 0 11 3205463048160 1 0
19.209232 -12.949475 -0.26970062 1 3205463050464 1 1
9.009585 -4.868417 -1.5932313 6 3205463050464 1 0
10.780333 -6.527087 -1.6041116 4 3205463052768 1 0
43.426727 -20.800388 0.27985528 63 3205463052768 1 0
41.44268 -25.100225 -0.28159884 8 3205463055072 1 0
12.373495 -6.690789 -1.5152091 3 3205463055072 1 0
13.81969 -9.325008 -1.5562555 3 3205463057376 1 0
49.53076 -26.792355 1.3103662 21 3205463057376 1 0
18.361263 -9.935492 -1.4598634 3 3205463059680 1 0
37.534805 -25.335024 0.52720135 7 3205463059680 1 0
15.770734 -9.5611315 -1.5055683 4 3205463061984 1 0
41.41562 -25.116783 0.84546435 9 3205463064288 1 0
19.98104 -9.588322 -1.420369 3 3205463064288 1 0
20.382524 -13.770626 -1.4325454 3 3205463066592 1 0
43.418606 -20.827564 1.4014655 219 3205463061984 1 0
51.379463 -27.831013 3.4029932 26 3205463066592 1 0
45.46673 -27.591698 2.1667671 16 3205463068896 1 0
25.15708 -13.631714 -1.3328375 4 3205463068896 1 0
0 0 0 93 3205463071200 1 0
45.137695 -24.466984 6.3040576 15 3205463071200 1 0
45.42394 -27.583815 4.3383536 62 3205463073504 1 0
28.533644 -13.712897 -1.2897695 4 3205463073504 1 0
19.009232 -12.858931 -0.801432 62 3205463075808 1 1
0 0 0 9 3205463075808 1 0
40.449436 -24.579142 8.629795 9 3205463078112 1 0
39.249958 -21.297684 -1.0391179 15 3205463078112 1 0
0 0 0 8 3205463099296 1 0
43.284523 -20.88729 -0.8389023 24 3205463099296 1 0
20.76681 -12.660365 -0.70783085 43 3205463101600 1 1
0 0 0 1 3205463101600 1 0
7.018944 -4.2804594 -1.6442474 2 3205463103904 1 0
0 0 0 3 3205463103904 1 0
19.101048 -12.97375 -0.2688159 1 3205463106208 1 1
8.992537 -4.8998365 -1.5932313 6 3205463106208 1 0
10.7574835 -6.5646777 -1.6041116 4 3205463108512 1 0
0 0 0 3 3205463108512 1 0
41.14314 -25.11552 -0.28015748 8 3205463110816 1 0
12.360539 -6.7396517 -1.5164942 3 3205463110816 1 0
13.783762 -9.370952 -1.5558836 3 3205463113120 1 0
0 0 0 7 3205463113120 1 0
37.221237 -25.312943 0.524035 6 3205463115424 1 0
18.322968 -9.997613 -1.4595845 3 3205463115424 1 0
15.761077 -9.630674 -1.5078465 4 3205463117728 1 0
0 0 0 20 3205463117728 1 0
41.04105 -25.085989 0.8396004 9 3205463120032 1 0
19.99056 -9.6788845 -1.423439 3 3205463120032 1 0
20.40035 -13.886631 -1.4371966 6 3205463122336 1 0
45.571297 -27.873276 2.176374 17 3205463124640 1 0
51.42569 -28.088673 3.412528 26 3205463122336 1 0
25.144407 -13.738605 -1.3346988 4 3205463124640 1 0
12.182775 -2.4752922 -1.5823934 3 3205457578880 1 0
0 0 0 1 3205457578880 1 0
13.747757 -2.1021676 -1.4980735 3 3205457581184 1 0
15.62607 -3.9837615 -1.5053221 3 3205457583488 1 0
0 0 0 1 3205457583488 1 0
39.61257 -10.105401 0.47593406 16 3205457585792 1 1
0 0 0 9 3205457581184 1 0
19.88284 -3.0464976 -1.4065695 4 3205457585792 1 0
17.508596 -3.5685294 -1.4587023 4 3205457588096 1 0
192.63159 -39.29201 3.4316318 29 3205457590400 1 0
0 0 0 6 3205457588096 1 0
21.38092 -2.220347 -1.3776454 3 3205457590400 1 0
22.621225 -5.7818484 -1.3597554 5 3205457592704 1 0
0 0 0 3 3205457592704 1 0
0 0 0 14 3205457595008 1 0
27.091537 -4.167971 -1.276814 3 3205457595008 1 0
26.009525 -5.3177037 -1.391299 4 3205457597312 1 0
0 0 0 1 3205457597312 1 0
102.31285 -20.93436 8.52537 28 3205457599616 1 0
30.285934 -3.163808 -1.2405951 4 3205457599616 1 0
0 0 0 9 3205457601920 1 0
0 0 0 29 3205457604224 1 0
42.54375 -6.571865 -1.0017108 42 3205457604224 1 0
33.059097 -8.471223 -1.191748 5 3205457601920 1 0
0 0 0 4 3205457624960 1 0
47.883583 -5.0834703 -0.84050786 24 3205457624960 1 0
40.265007 -8.314972 -1.1965518 8 3205457627264 1 0
0 0 0 1 3205457627264 1 0
8.047235 -1.6629627 -1.6434629 1 3205457629568 1 0
0 0 0 3 3205457629568 1 0
41.15812 -10.631761 -0.49488574 4 3205457631872 1 1
10.067189 -1.5735546 -1.5852375 6 3205457631872 1 0
12.177652 -2.5200233 -1.5828985 3 3205457634176 1 0
110.03329 -11.74298 0.6431464 3 3205457634176 1 0
0 0 0 9 3205457636480 1 0
15.627139 -4.0436354 -1.5068092 3 3205457638784 1 0
13.747974 -2.152773 -1.4989303 3 3205457636480 1 0
0 0 0 1 3205457638784 1 0
39.192978 -10.147244 0.47132418 16 3205457641088 1 1
19.879742 -3.1185648 -1.4071276 4 3205457641088 1 0
17.507534 -3.6330721 -1.4596786 4 3205457643392 1 0
0 0 0 3 3205457643392 1 0
0 0 0 21 3205457645696 1 0
21.380877 -2.296752 -1.378157 3 3205457645696 1 0
22.6046 -5.862436 -1.359988 5 3205457648000 1 0
0 0 0 3 3205457648000 1 0
0 0 0 14 3205457650304 1 0
27.084656 -4.2641497 -1.2771863 3 3205457650304 1 0
26.010357 -5.4125304 -1.3923458 4 3205457652608 1 0
0 0 0 1 3205457652608 1 0
103.47282 -21.546713 8.628214 28 3205457654912 1 0
33.068268 -8.595665 -1.193144 5 3205457657216 1 0
0 0 0 9 3205457657216 1 0
0 0 0 29 3205457659520 1 0
30.282701 -3.2699244 -1.2409208 4 3205457654912 1 0
42.481346 -6.7122345 -1.0007803 14 3205457659520 1 0
0 0 0 4 3205457680256 1 0
47.88634 -5.244407 -0.84085697 8 3205457680256 1 0
40.23709 -8.449035 -1.1965518 8 3205457682560 1 0
0 0 0 1 3205457682560 1 0
8.049304 -1.6914864 -1.6450318 1 3205457684864 1 0
0 0 0 3 3205457684864 1 0
10.061846 -1.607369 -1.5852375 5 3205457687168 1 0
12.16908 -2.5611 -1.5828985 3 3205457689472 1 0
39.04826 -10.226821 -0.46992725 21 3205457687168 1 1
110.04472 -12.11989 0.6434486 4 3205457689472 1 0
0 0 0 9 3205457691776 1 0
13.728819 -2.1974645 -1.4976451 3 3205457691776 1 0
15.617139 -4.097808 -1.507181 3 3205457694080 1 0
38.798283 -10.186682 0.4669937 16 3205457696384 1 1
0 0 0 1 3205457694080 1 0
19.865026 -3.1858625 -1.4068485 4 3205457696384 1 0
17.494959 -3.6931448 -1.4596786 4 3205457698688 1 0
0 0 0 3 3205457698688 1 0
114.20947 -24.127571 2.0375335 29 3205457700992 1 0
21.281582 -2.360318 -1.372273 3 3205457700992 1 0
22.588034 -5.9416637 -1.3602206 5 3205457703296 1 0
0 0 0 3 3205457703296 1 0
0 0 0 14 3205457705600 1 0
