# .PCD v.7 - Point Cloud Data file format
VERSION .7
FIELDS x y z rgb timestamp_ns device_id active
SIZE 4 4 4 4 8 1 1
TYPE F F F F F U U
COUNT 1 1 1 1 1 1 1
WIDTH 998
HEIGHT 1
VIEWPOINT 0 0 0 1 0 0 0
POINTS 998               
DATA ascii
9.85676 -9.092372 -0.23407167 21 3206667833368 1 0
12.392492 -13.90801 -0.5421312 2 3206667835672 1 1
5.5335817 -6.212029 -1.6638591 3 3206667837976 1 0
0 0 0 1 3206667835672 1 0
9.1305 -9.293157 0 115 3206667837976 1 0
0 0 0 28 3206667840280 1 0
7.303526 -7.4356904 -1.6215172 6 3206667840280 1 0
8.163529 -9.169523 -1.5626955 37 3206667842584 1 0
9.841313 -9.088196 0.0778564 15 3206667842584 1 0
28.468172 -31.98521 -0.24886614 39 3206667844888 1 0
8.906993 -9.073188 -1.369557 3 3206667844888 1 0
10.985385 -13.632585 -1.6343285 3 3206667847192 1 0
9.094883 -9.267144 0.30214167 203 3206667847192 1 0
29.515882 -36.638824 0.5477362 52 3206667849496 1 0
9.1130295 -9.288202 -0.90990347 7 3206667849496 1 0
12.963157 -14.576824 -1.5924655 5 3206667851800 1 0
9.849908 -9.106224 0.39039496 12 3206667851800 1 0
28.459923 -32.01155 0.7476611 63 3206667854104 1 0
12.156192 -15.102603 -1.1290598 2 3206667856408 1 1
0 0 0 114 3206667854104 1 0
27.879066 -28.438534 2.3192818 18 3206667856408 1 0
27.7124 -31.188093 1.6997732 27 3206667858712 1 0
0 0 0 2 3206667858712 1 0
12.232279 -13.770284 -0.96528435 7 3206667861016 1 1
0 0 0 19 3206667861016 1 0
32.31785 -36.391407 3.97319 32 3206667863320 1 0
0 0 0 10 3206667865624 1 0
0 0 0 101 3206667863320 1 0
9.047783 -9.23956 3.4650693 11 3206667865624 1 0
0 0 0 29 3206667867928 1 0
9.153288 -9.349886 -0.30446798 11 3206667867928 1 0
0 0 0 4 3206667888664 1 0
9.870515 -9.16583 -0.23511882 5 3206667888664 1 0
12.354152 -13.9581 -0.5424803 4 3206667890968 1 1
0 0 0 1 3206667890968 1 0
5.51546 -6.2333627 -1.6646435 3 3206667893272 1 0
0 0 0 42 3206667893272 1 0
14.147991 -17.662739 -0.263461 1 3206667895576 1 1
7.2814255 -7.462857 -1.6221321 6 3206667895576 1 0
8.122295 -9.184891 -1.5606753 48 3206667897880 1 0
29.001936 -26.962841 0.23015179 18 3206667897880 1 0
28.477352 -32.212326 -0.24988905 47 3206667900184 1 0
8.859866 -9.085914 -1.3669868 10 3206667900184 1 0
10.934544 -13.663197 -1.633585 3 3206667902488 1 0
0 0 0 8 3206667902488 1 0
29.504793 -36.87854 0.5498316 37 3206667904792 1 0
13.320391 -13.668194 -1.3345809 4 3206667904792 1 0
12.919175 -14.626459 -1.5931164 5 3206667907096 1 0
9.96546 -9.275614 0.39621308 8 3206667907096 1 0
28.462694 -32.23352 0.7505931 63 3206667909400 1 0
0 0 0 40 3206667909400 1 0
12.284459 -15.368295 -1.1458038 2 3206667911704 1 1
27.771389 -28.521404 2.3183515 27 3206667911704 1 0
27.70946 -31.398897 1.7061236 27 3206667914008 1 0
13.179988 -13.539876 -0.88018274 2 3206667914008 1 1
12.177414 -13.802849 -0.96465635 7 3206667916312 1 1
0 0 0 1 3206667916312 1 0
32.25947 -36.57617 3.9813263 32 3206667918616 1 0
0 0 0 10 3206667920920 1 0
0 0 0 7 3206667918616 1 0
0 0 0 19 3206667920920 1 0
0 0 0 29 3206667923224 1 0
0 0 0 1 3206667923224 1 0
0 0 0 4 3206667943960 1 0
0 0 0 7 3206667943960 1 0
12.305353 -14.001139 -0.5424803 4 3206667946264 1 1
0 0 0 1 3206667946264 1 0
5.5040236 -6.2643633 -1.6677815 4 3206667948568 1 0
28.42 -29.323751 0 52 3206667948568 1 0
14.024011 -17.633757 -0.2622969 1 3206667950872 1 1
7.2635818 -7.496744 -1.6239768 5 3206667950872 1 0
8.074475 -9.195297 -1.5576448 12 3206667953176 1 0
26.919146 -25.202244 0.21432012 16 3206667953176 1 0
28.462372 -32.422756 -0.2507492 40 3206667955480 1 0
8.814263 -9.102499 -1.3648448 45 3206667955480 1 0
10.889261 -13.7044 -1.6339567 33 3206667957784 1 0
0 0 0 10 3206667957784 1 0
29.497786 -37.13477 0.5521133 22 3206667960088 1 0
13.14495 -13.582708 -1.3217456 4 3206667960088 1 0
12.875927 -14.680458 -1.5940927 5 3206667962392 1 0
28.935577 -27.121674 1.154196 25 3206667962392 1 0
28.452837 -32.449955 0.7533157 63 3206667964696 1 0
0 0 0 9 3206667964696 1 0
13.84181 -17.441078 -1.2967328 2 3206667967000 1 0
27.760487 -28.710033 2.3257935 28 3206667967000 1 0
27.699781 -31.609653 1.712311 27 3206667969304 1 0
13.088212 -13.539835 -0.8772047 2 3206667969304 1 1
12.131791 -13.848277 -0.9648657 12 3206667971608 1 1
0 0 0 1 3206667971608 1 0
32.252426 -36.826515 3.9962974 49 3206667973912 1 0
0 0 0 1 3206667973912 1 0
13.903771 -17.540098 -0.7816091 3 3206667976216 1 1
0 0 0 9 3206667976216 1 0
0 0 0 29 3206667978520 1 0
13.260407 -13.7339525 -0.4442329 1 3206667978520 1 1
0 0 0 4 3206667999256 1 0
14.176604 -13.350017 -0.33990306 1 3206667999256 1 1
12.3247595 -14.122331 -0.5455057 4 3206668001560 1 1
4.143483 -4.3039618 -1.6724455 0 3206668001560 1 0
5.474387 -6.274671 -1.665428 3 3206668003864 1 0
28.39791 -29.506357 0 47 3206668003864 1 0
13.962372 -17.682602 -0.2622969 1 3206668006168 1 1
7.24285 -7.5277495 -1.6252066 6 3206668006168 1 0
8.029289 -9.208472 -1.5551194 2 3206668008472 1 0
28.914858 -27.26069 0.23096545 18 3206668008472 1 0
28.464668 -32.654583 -0.2517721 41 3206668010776 1 0
8.749357 -9.098811 -1.3597041 48 3206668010776 1 0
10.851225 -13.754834 -1.6354438 31 3206668013080 1 0
28.367514 -29.509117 0.95248604 37 3206668013080 1 0
29.501732 -37.407097 0.5546278 22 3206668015384 1 0
13.116813 -13.648649 -1.3236989 4 3206668015384 1 0
12.821986 -14.722307 -1.5937673 5 3206668017688 1 0
28.893066 -27.271914 1.1562905 20 3206668017688 1 0
28.447065 -32.672745 0.75617784 56 3206668019992 1 0
14.1758175 -13.38433 -1.2494745 2 3206668019992 1 1
27.754135 -28.904696 2.3337004 28 3206668022296 1 0
27.694218 -31.826752 1.7188243 27 3206668024600 1 0
13.785788 -17.495562 -1.2971978 2 3206668022296 1 0
13.024267 -13.568143 -0.876088 2 3206668024600 1 1
12.072891 -13.878486 -0.9640283 5 3206668026904 1 1
0 0 0 1 3206668026904 1 0
32.249256 -37.08327 4.0119195 16 3206668029208 1 0
14.170806 -13.3952 -0.7944433 1 3206668029208 1 1
13.59523 -17.274387 -0.76764935 3 3206668031512 1 1
0 0 0 9 3206668031512 1 0
0 0 0 29 3206668033816 1 0
13.217922 -13.78593 -0.44441903 1 3206668033816 1 1
0 0 0 4 3206668054552 1 0
14.3475685 -13.60582 -0.3451388 1 3206668054552 1 1
12.283243 -14.174332 -0.5458548 4 3206668056856 1 1
4.1257725 -4.3156147 -1.6713673 0 3206668056856 1 0
5.4550195 -6.2967067 -1.6662126 2 3206668059160 1 0
28.394232 -29.709406 0 48 3206668059160 1 0
13.777178 -17.573845 -0.25996867 1 3206668061464 1 1
7.208338 -7.5444126 -1.6233618 5 3206668061464 1 0
7.9815135 -9.218445 -1.552089 3 3206668063768 1 0
28.871738 -27.41103 0.2313839 18 3206668063768 1 0
28.4081 -32.82028 -0.25228354 48 3206668066072 1 0
8.692824 -9.103411 -1.3558487 50 3206668066072 1 0
10.803145 -13.792628 -1.6354438 32 3206668068376 1 0
28.366503 -29.714983 0.955929 38 3206668068376 1 0
29.504133 -37.679905 0.55714226 23 3206668070680 1 0
13.044296 -13.668372 -1.3211876 3 3206668070680 1 0
12.780949 -14.7790365 -1.5950692 3 3206668072984 1 0
28.838266 -27.411167 1.1579196 30 3206668072984 1 0
28.387772 -32.835377 0.7576439 56 3206668075288 1 0
14.140583 -13.444734 -1.2504978 2 3206668075288 1 1
13.729554 -17.549866 -1.297663 2 3206668077592 1 0
27.75503 -29.10833 2.342305 28 3206668077592 1 0
27.682247 -32.038147 1.7250117 27 3206668079896 1 0
0 0 0 8 3206668079896 1 0
12.045261 -13.944726 -0.96570307 2 3206668082200 1 1
0 0 0 1 3206668082200 1 0
14.048696 -13.372938 -0.7902097 1 3206668084504 1 1
32.249893 -37.346485 4.0281925 33 3206668084504 1 0
13.657914 -17.479237 -0.77462924 3 3206668086808 1 1
0 0 0 9 3206668086808 1 0
0 0 0 29 3206668089112 1 0
13.139387 -13.800127 -0.44339547 1 3206668089112 1 1
0 0 0 4 3206668109296 1 0
14.23005 -13.584283 -0.34339353 1 3206668109296 1 1
4.1140914 -4.3320656 -1.6724455 0 3206668111600 1 0
5.4417844 -6.3236804 -1.6685659 3 3206668113904 1 0
12.25704 -14.239228 -0.54678565 4 3206668111600 1 1
28.397457 -29.910732 0 42 3206668113904 1 0
0 0 0 28 3206668116208 1 0
7.9302015 -9.220795 -1.5480484 3 3206668118512 1 0
7.191443 -7.576875 -1.6252066 5 3206668116208 1 0
28.847189 -27.570185 0.2319186 36 3206668118512 1 0
28.398201 -33.029556 -0.25316697 27 3206668120816 1 0
8.659851 -9.129301 -1.3554202 14 3206668120816 1 0
10.764684 -13.837808 -1.6365591 31 3206668123120 1 0
28.364117 -29.910444 0.9591858 38 3206668123120 1 0
29.491968 -37.922775 0.5592842 15 3206668125424 1 0
12.91654 -13.6246805 -1.3128169 4 3206668125424 1 0
12.724075 -14.812266 -1.5940927 5 3206668127728 1 0
28.802097 -27.559168 1.1601305 30 3206668127728 1 0
28.375137 -33.0416 0.76022685 40 3206668130032 1 0
14.000756 -13.400467 -1.2420554 2 3206668130032 1 1
13.683532 -17.611065 -1.2988257 2 3206668132336 1 0
27.751717 -29.29878 2.3502119 28 3206668132336 1 0
27.690382 -32.263214 1.7321762 27 3206668134640 1 0
13.022272 -13.752225 -0.8822301 4 3206668134640 1 1
0 0 0 1 3206668136944 1 0
12.009357 -13.996719 -0.96654046 2 3206668136944 1 1
32.255653 -37.604527 4.044465 50 3206668139248 1 0
13.975415 -13.3918 -0.78858143 1 3206668139248 1 1
13.599876 -17.524433 -0.77462924 3 3206668141552 1 1
0 0 0 9 3206668141552 1 0
0 0 0 29 3206668143856 1 0
13.090804 -13.840717 -0.4433024 1 3206668143856 1 1
0 0 0 4 3206668164592 1 0
14.254625 -13.703164 -0.3451388 1 3206668164592 1 1
12.220146 -14.297212 -0.5473675 4 3206668166896 1 1
4.085699 -4.3324184 -1.667054 0 3206668166896 1 0
28.385733 -30.109045 0 49 3206668169200 1 0
5.419585 -6.342716 -1.6685659 3 3206668169200 1 0
15.060943 -19.483948 -0.28669658 2 3206668171504 1 1
7.884814 -9.233562 -1.545523 30 3206668173808 1 0
7.162074 -7.5992117 -1.6245917 5 3206668171504 1 0
28.790318 -27.710382 0.23224407 36 3206668173808 1 0
0 0 0 4 3206668176112 1 0
28.395798 -33.26337 -0.25418985 21 3206668176112 1 0
28.3624 -30.121138 0.96272177 44 3206668178416 1 0
10.723013 -13.885223 -1.6376745 31 3206668178416 1 0
29.750998 -38.536713 0.56678104 16 3206668180720 1 0
12.840857 -13.641285 -1.3100265 3 3206668180720 1 0
12.676603 -14.863395 -1.5947437 5 3206668183024 1 0
28.758814 -27.713923 1.1623414 35 3206668183024 1 0
28.371632 -33.276203 0.76329845 56 3206668185328 1 0
13.941519 -13.439089 -1.2410321 2 3206668185328 1 1
13.506066 -17.511099 -1.2878956 2 3206668187632 1 0
27.737417 -29.493477 2.357886 29 3206668187632 1 0
27.681282 -32.486607 1.7388521 27 3206668189936 1 0
12.806132 -13.6210575 -0.8708765 4 3206668189936 1 1
12.062812 -14.161232 -0.9749142 2 3206668192240 1 1
32.242107 -37.862587 4.0597615 33 3206668194544 1 0
0 0 0 1 3206668192240 1 0
13.855419 -13.372431 -0.78451073 1 3206668194544 1 1
13.414857 -17.414831 -0.76764935 3 3206668196848 1 1
0 0 0 9 3206668196848 1 0
0 0 0 29 3206668199152 1 0
12.969725 -13.811957 -0.44088304 1 3206668199152 1 1
14.017557 -13.574473 -0.34060118 1 3206668219888 1 1
0 0 0 4 3206668219888 1 0
12.191047 -14.369256 -0.54841477 4 3206668222192 1 1
4.0645595 -4.3417106 -1.6648974 0 3206668222192 1 0
5.398931 -6.3654504 -1.6693504 3 3206668224496 1 0
28.43689 -30.384779 0 42 3206668224496 1 0
7.142441 -7.633914 -1.6264365 6 3206668226800 1 0
0 0 0 28 3206668226800 1 0
7.84349 -9.253091 -1.5440079 40 3206668229104 1 0
28.75255 -27.876137 0.23275551 18 3206668229104 1 0
28.393858 -33.506565 -0.25525925 35 3206668231408 1 0
10.677502 -13.930288 -1.6384181 27 3206668233712 1 0
28.386938 -30.366798 0.96728134 44 3206668233712 1 0
8.553558 -9.147463 -1.3489944 3 3206668231408 1 0
29.475286 -38.466198 0.56417346 23 3206668236016 1 0
12.840509 -13.740083 -1.315049 3 3206668236016 1 0
12.622909 -14.909023 -1.5947437 5 3206668238320 1 0
28.718912 -27.875956 1.164785 35 3206668238320 1 0
28.367935 -33.515488 0.76643986 48 3206668240624 1 0
13.864411 -13.461381 -1.2384738 2 3206668240624 1 1
13.3605385 -17.451702 -1.2799886 2 3206668242928 1 0
27.732119 -29.700926 2.3664906 29 3206668242928 1 0
27.670464 -32.710747 1.7455282 27 3206668245232 1 0
12.738131 -13.646437 -0.86957365 4 3206668245232 1 1
12.094606 -14.301905 -0.9816132 2 3206668247536 1 1
0 0 0 1 3206668247536 1 0
32.23283 -38.12665 4.0757093 34 3206668249840 1 0
13.796119 -13.410675 -0.7838594 1 3206668249840 1 1
13.352716 -17.462523 -0.76764935 3 3206668252144 1 1
0 0 0 9 3206668252144 1 0
0 0 0 29 3206668254448 1 0
12.882348 -13.817044 -0.4395803 1 3206668254448 1 1
0 0 0 4 3206668275184 1 0
14.001585 -13.654036 -0.34136906 1 3206668275184 1 1
12.213049 -14.497255 -0.5516729 4 3206668277488 1 1
4.0782604 -4.386875 -1.6767588 0 3206668277488 1 0
5.371718 -6.378179 -1.6677815 3 3206668279792 1 0
0 0 0 28 3206668282096 1 0
28.42096 -30.580133 0 43 3206668279792 1 0
7.113227 -7.6557484 -1.6258215 6 3206668282096 1 0
7.793526 -9.258936 -1.5404724 34 3206668284400 1 0
26.03415 -25.416014 0.21146066 10 3206668284400 1 0
28.339758 -33.6779 -0.2558172 64 3206668286704 1 0
8.497553 -9.150726 -1.3451389 3 3206668286704 1 0
10.639069 -13.979688 -1.6399051 30 3206668289008 1 0
28.390924 -30.581696 0.9710035 39 3206668289008 1 0
29.442093 -38.69787 0.5660826 24 3206668291312 1 0
12.690022 -13.67303 -1.3044461 4 3206668291312 1 0
12.587053 -14.9705715 -1.5966964 5 3206668293616 1 0
28.68311 -28.033056 1.1672286 30 3206668293616 1 0
28.327599 -33.70124 0.7684644 65 3206668295920 1 0
13.815368 -13.506 -1.238218 2 3206668295920 1 1
13.247647 -17.427326 -1.2748724 2 3206668298224 1 0
27.72276 -29.895092 2.3743975 20 3206668298224 1 0
27.661568 -32.927338 1.7520413 27 3206668300528 1 0
12.645332 -13.639989 -0.86640954 3 3206668300528 1 1
12.102379 -14.410279 -0.98621875 2 3206668302832 1 1
0 0 0 1 3206668302832 1 0
32.241592 -38.400776 4.093284 34 3206668305136 1 0
13.713363 -13.421109 -0.78174263 1 3206668305136 1 1
13.2330265 -17.428078 -0.7641594 3 3206668307440 1 1
0 0 0 9 3206668307440 1 0
0 0 0 29 3206668309744 1 0
0 0 0 4 3206668330480 1 0
12.838268 -13.8634615 -0.43967336 3 3206668309744 1 1
13.896295 -13.641556 -0.33990306 1 3206668330480 1 1
12.200617 -14.580782 -0.55330193 4 3206668332784 1 1
4.0584 -4.3947744 -1.6746022 0 3206668332784 1 0
5.3528686 -6.3991213 -1.6685659 2 3206668335088 1 0
28.416182 -30.780844 0 43 3206668335088 1 0
13.410771 -17.729807 -0.25880456 1 3206668337392 1 1
7.0928264 -7.685413 -1.6270514 6 3206668337392 1 0
7.7469697 -9.266915 -1.5374418 29 3206668339696 1 0
28.669725 -28.17858 0.23363893 18 3206668339696 1 0
21.610283 -25.858215 -0.19586149 27 3206668342000 1 0
8.4557085 -9.167777 -1.3434254 34 3206668342000 1 0
10.605835 -14.034881 -1.6421359 25 3206668344304 1 0
28.389688 -30.789862 0.97453946 39 3206668344304 1 0
29.437433 -38.967422 0.5685505 24 3206668346608 1 0
12.637806 -13.710456 -1.303888 3 3206668346608 1 0
12.538148 -15.016748 -1.5970219 5 3206668348912 1 0
28.635164 -28.17902 1.1692067 25 3206668348912 1 0
28.316336 -33.924572 0.77132654 56 3206668351216 1 0
9.367857 -9.221449 -0.8424487 2 3206668351216 1 0
13.324359 -17.654758 -1.2881281 2 3206668353520 1 0
27.716494 -30.096622 2.3827696 30 3206668353520 1 0
27.657028 -33.155262 1.759043 27 3206668355824 1 0
12.164567 -14.5874195 -0.9954299 2 3206668358128 1 1
12.597841 -13.683864 -0.86640954 3 3206668355824 1 1
0 0 0 1 3206668358128 1 0
32.22167 -38.651352 4.1079297 35 3206668360432 1 0
13.669082 -13.471901 -0.7819055 1 3206668360432 1 1
13.171602 -17.474546 -0.7641594 3 3206668362736 1 1
0 0 0 9 3206668362736 1 0
0 0 0 29 3206668365040 1 0
0 0 0 4 3206668385776 1 0
0 0 0 65 3206668385776 1 0
12.78107 -13.899918 -0.4393942 3 3206668365040 1 1
12.241721 -14.739117 -0.55760735 4 3206668388080 1 1
4.0370913 -4.4039116 -1.6724455 1 3206668388080 1 0
5.334483 -6.4246554 -1.6701349 3 3206668390384 1 0
28.411722 -31.002335 0 51 3206668390384 1 0
13.389309 -17.836126 -0.25964272 1 3206668392688 1 1
0 0 0 53 3206668394992 1 0
7.0674486 -7.714118 -1.6276662 5 3206668392688 1 0
0 0 0 235 3206668394992 1 0
28.33257 -34.153015 -0.25790948 36 3206668397296 1 0
8.411642 -9.186668 -1.3417119 67 3206668397296 1 0
10.574055 -14.098687 -1.64511 7 3206668399600 1 0
28.380598 -31.004564 0.97807544 45 3206668399600 1 0
29.425968 -39.24637 0.57106495 24 3206668401904 1 0
12.572007 -13.73838 -1.3022139 4 3206668401904 1 0
12.486445 -15.064945 -1.5973474 5 3206668404208 1 0
0 0 0 247 3206668404208 1 0
28.301205 -34.155624 0.77425855 57 3206668406512 1 0
0 0 0 100 3206668406512 1 0
13.169873 -17.581066 -1.279291 7 3206668408816 1 0
27.650143 -33.38965 1.7662075 28 3206668411120 1 0
27.707891 -30.305042 2.391374 20 3206668408816 1 0
12.537918 -13.717144 -0.865665 3 3206668411120 1 1
12.18362 -14.717005 -1.0012915 2 3206668413424 1 1
0 0 0 1 3206668413424 1 0
32.21563 -38.92587 4.124853 17 3206668415728 1 0
0 0 0 28 3206668415728 1 0
0 0 0 9 3206668418032 1 0
13.169121 -17.601393 -0.76764935 3 3206668418032 1 1
12.65337 -13.859636 -0.43669567 1 3206668420336 1 1
0 0 0 29 3206668420336 1 0
0 0 0 4 3206668441072 1 0
9.213052 -9.1745405 -0.22695109 25 3206668441072 1 0
12.241075 -14.843452 -0.5599346 5 3206668443376 1 1
4.034659 -4.432219 -1.677837 0 3206668443376 1 0
5.312024 -6.443237 -1.6701349 3 3206668445680 1 0
28.44602 -31.258114 0 38 3206668445680 1 0
13.2241955 -17.74485 -0.25764045 1 3206668447984 1 1
7.0511174 -7.7504354 -1.6301259 11 3206668447984 1 0
7.647928 -9.282079 -1.5308759 3 3206668450288 1 0
0 0 0 253 3206668450288 1 0
21.285769 -25.841606 -0.19458286 13 3206668452592 1 0
8.336716 -9.168894 -1.3348576 62 3206668452592 1 0
10.517641 -14.125928 -1.6439947 2 3206668454896 1 0
28.417446 -31.263235 0.9831003 46 3206668454896 1 0
29.41298 -39.515686 0.5734863 24 3206668457200 1 0
12.4703045 -13.723119 -1.2966334 4 3206668457200 1 0
12.43125 -15.105361 -1.5970219 5 3206668459504 1 0
9.185727 -9.168642 0.3777115 250 3206668459504 1 0
28.301233 -34.399364 0.7775396 57 3206668461808 1 0
9.203369 -9.188924 -0.83349466 31 3206668461808 1 0
13.110806 -17.630135 -1.2795236 7 3206668464112 1 0
27.706623 -30.516878 2.4004438 20 3206668464112 1 0
27.64511 -33.621796 1.7733719 28 3206668466416 1 0
12.471162 -13.740115 -0.8643622 5 3206668466416 1 1
12.182905 -14.82116 -1.0054784 2 3206668468720 1 1
32.213707 -39.201332 4.1421027 36 3206668471024 1 0
0 0 0 1 3206668468720 1 0
9.186639 -9.1828985 -0.52919465 23 3206668471024 1 0
12.988419 -17.486795 -0.7606694 3 3206668473328 1 1
0 0 0 9 3206668473328 1 0
12.682804 -13.989637 -0.4393942 1 3206668475632 1 1
0 0 0 29 3206668475632 1 0
9.16685 -9.192485 -0.22660205 37 3206668496368 1 0
0 0 0 4 3206668496368 1 0
12.300642 -15.022206 -0.56505454 5 3206668498672 1 1
4.008831 -4.4348454 -1.6735239 0 3206668498672 1 0
5.2870164 -6.458705 -1.6693504 3 3206668500976 1 0
28.454737 -31.487799 0 13 3206668500976 1 0
13.162173 -17.790903 -0.25764045 1 3206668503280 1 1
7.034619 -7.7867327 -1.6325855 27 3206668503280 1 0
7.6029186 -9.293363 -1.5283506 3 3206668505584 1 0
9.154273 -9.190559 0.07539214 245 3206668505584 1 0
20.20277 -24.702013 -0.18546979 12 3206668507888 1 0
8.291334 -9.18318 -1.3327156 61 3206668507888 1 0
10.489574 -14.1913805 -1.6473407 2 3206668510192 1 0
28.401924 -31.466137 0.98635715 39 3206668510192 1 0
29.405598 -39.79504 0.57604736 24 3206668512496 1 0
12.406286 -13.74879 -1.2949592 2 3206668512496 1 1
12.386014 -15.157924 -1.5979983 5 3206668514800 1 0
9.148026 -9.194982 0.37747878 227 3206668514800 1 0
28.294842 -34.637325 0.7806811 49 3206668517104 1 0
9.165607 -9.215333 -0.832983 16 3206668517104 1 0
13.032584 -17.653303 -1.2778957 2 3206668519408 1 0
27.693516 -30.71721 2.4085834 20 3206668519408 1 0
27.628681 -33.84193 1.7798852 28 3206668521712 1 0
12.417774 -13.777628 -0.8639899 5 3206668521712 1 1
12.247279 -15.00595 -1.0151082 5 3206668524016 1 1
31.851357 -35.349693 5.8424163 11 3206668524016 1 0
9.154529 -9.21491 -0.52919465 20 3206668526320 1 0
32.21025 -39.477257 4.159352 55 3206668526320 1 0
0 0 0 9 3206668528624 1 0
0 0 0 29 3206668530928 1 0
12.631219 -14.030851 -0.43930113 1 3206668530928 1 1
0 0 0 4 3206668551664 1 0
9.1628475 -9.252845 -0.22730014 15 3206668551664 1 0
14.144876 -17.398026 -0.65255886 3 3206668553968 1 1
12.986609 -17.612463 -0.7641594 3 3206668528624 1 1
3.9933262 -4.448812 -1.6735239 0 3206668553968 1 0
5.269387 -6.483208 -1.6709193 2 3206668556272 1 0
23.316881 -25.984049 0 14 3206668556272 1 0
6.9968376 -7.7994723 -1.6301259 58 3206668558576 1 0
13.076315 -17.804502 -0.25717482 1 3206668558576 1 1
7.5604253 -9.307526 -1.5263302 3 3206668560880 1 0
9.130574 -9.230989 0.07546189 220 3206668560880 1 0
20.060947 -24.704071 -0.18495834 12 3206668563184 1 0
8.253919 -9.206143 -1.3318589 14 3206668563184 1 0
10.442329 -14.23112 -1.6477125 2 3206668565488 1 0
28.382662 -31.666334 0.9895209 33 3206668565488 1 0
29.394258 -40.071598 0.57856184 25 3206668567792 1 0
12.342242 -13.774181 -1.293285 2 3206668567792 1 1
12.4008465 -15.2846575 -1.6067857 5 3206668570096 1 0
29.602228 -36.49706 0.8202631 44 3206668572400 1 0
9.124305 -9.235392 0.37782785 40 3206668570096 1 0
0 0 0 13 3206668572400 1 0
0 0 0 15 3206668574704 1 0
27.697992 -30.938648 2.4183507 21 3206668574704 1 0
27.633703 -34.090298 1.7878637 18 3206668577008 1 0
12.334965 -13.782185 -0.8615703 5 3206668577008 1 1
12.197339 -15.051713 -1.0153176 5 3206668579312 1 1
0 0 0 5 3206668579312 1 0
32.192715 -39.738144 4.174974 55 3206668581616 1 0
0 0 0 7 3206668581616 1 0
12.866022 -17.577044 -0.7606694 3 3206668583920 1 1
0 0 0 9 3206668583920 1 0
0 0 0 29 3206668586224 1 0
12.603486 -14.098708 -0.44004557 1 3206668586224 1 1
0 0 0 4 3206668606960 1 0
9.169752 -9.324695 -0.22827747 6 3206668606960 1 0
14.13931 -17.51574 -0.6551188 3 3206668609264 1 1
3.9803355 -4.4655995 -1.6746022 1 3206668609264 1 0
5.244261 -6.49851 -1.6701349 3 3206668611568 1 0
28.42582 -31.900703 0 72 3206668611568 1 0
13.120122 -17.995476 -0.2592702 1 3206668613872 1 1
6.961683 -7.8149943 -1.6282811 54 3206668613872 1 0
7.5104523 -9.31224 -1.5227947 21 3206668616176 1 0
0 0 0 8 3206668616176 1 0
28.962656 -35.9216 -0.26818496 23 3206668618480 1 0
0 0 0 4 3206668618480 1 0
10.404314 -14.28358 -1.6495713 2 3206668620784 1 0
28.399567 -31.908598 0.99398744 40 3206668620784 1 0
29.381344 -40.348557 0.5810763 25 3206668623088 1 0
12.315306 -13.841028 -1.2955172 4 3206668623088 1 1
12.292396 -15.259548 -1.5996256 5 3206668625392 1 0
0 0 0 16 3206668625392 1 0
29.582514 -36.734108 0.8232649 62 3206668627696 1 0
13.341311 -13.60231 -1.2210773 3 3206668627696 1 1
12.824452 -17.62761 -1.2695236 20 3206668630000 1 0
27.629807 -34.329773 1.7953539 28 3206668632304 1 0
12.254929 -13.789318 -0.8593368 5 3206668632304 1 1
12.239879 -15.212461 -1.0232726 2 3206668634608 1 1
31.537872 -35.496994 5.8302293 22 3206668634608 1 0
27.690647 -31.148554 2.427188 21 3206668630000 1 0
32.18124 -40.00871 4.191572 37 3206668636912 1 0
13.271361 -13.546749 -0.7726242 1 3206668636912 1 1
12.745841 -17.540998 -0.7571795 3 3206668639216 1 1
0 0 0 9 3206668639216 1 0
21.691454 -26.98355 6.312349 12 3206668641520 1 0
12.548886 -14.136635 -0.43985945 1 3206668641520 1 1
0 0 0 4 3206668662256 1 0
0 0 0 7 3206668662256 1 0
14.085584 -17.574348 -0.6554679 3 3206668664560 1 1
3.9621706 -4.476582 -1.6735239 1 3206668664560 1 0
5.231355 -6.5290203 -1.6732727 4 3206668666864 1 0
13.061916 -18.047646 -0.25936332 1 3206668669168 1 1
28.438871 -32.14053 0 33 3206668666864 1 0
0 0 0 19 3206668669168 1 0
7.477901 -9.338399 -1.5227947 42 3206668671472 1 0
28.448965 -29.166313 0.23680061 44 3206668671472 1 0
28.84459 -36.03185 -0.2682547 23 3206668673776 1 0
8.16574 -9.236726 -1.3280034 2 3206668673776 1 0
10.354392 -14.319811 -1.6495713 2 3206668676080 1 0
28.399237 -32.133385 0.99789566 33 3206668676080 1 0
29.37154 -40.632397 0.5836839 25 3206668678384 1 0
12.227285 -13.839078 -1.2913319 4 3206668678384 1 1
12.301309 -15.3801985 -1.607762 5 3206668680688 1 0
28.42323 -29.173864 1.185381 31 3206668680688 1 0
29.568996 -36.980835 0.82647616 62 3206668682992 1 0
13.190697 -13.542993 -1.2116116 3 3206668682992 1 1
12.732449 -17.630184 -1.2665005 20 3206668685296 1 0
27.614595 -34.557144 1.8021927 28 3206668687600 1 0
27.687456 -31.364769 2.43649 21 3206668685296 1 0
12.193501 -13.817032 -0.8584062 5 3206668687600 1 1
13.77237 -17.240004 -1.1564153 3 3206668689904 1 1
31.53722 -35.74679 5.853141 22 3206668689904 1 0
32.178223 -40.292133 4.209472 38 3206668692208 1 0
13.137599 -13.504187 -0.76757646 1 3206668692208 1 1
12.742998 -17.666437 -0.7606694 3 3206668694512 1 1
0 0 0 9 3206668694512 1 0
21.506306 -26.945305 6.2858024 18 3206668696816 1 0
12.515329 -14.198352 -0.44041777 1 3206668696816 1 1
0 0 0 4 3206668717552 1 0
13.300264 -13.715225 -0.3334806 1 3206668717552 1 1
14.009214 -17.604637 -0.6547697 3 3206668719856 1 1
3.949063 -4.4932785 -1.6746022 1 3206668719856 1 0
5.206091 -6.544172 -1.6724882 4 3206668722160 1 0
28.424194 -32.350784 0 47 3206668722160 1 0
13.029177 -18.135357 -0.25996867 1 3206668724464 1 1
6.93043 -7.8901315 -1.6338153 4 3206668724464 1 0
29.31798 -43.345917 1.5229477 25 3206671501024 1 0
9.693447 -17.872942 -1.6598352 3 3206671501024 1 0
30.297094 -55.881683 1.1095542 51 3206671503328 1 0
13.612433 -20.13196 -1.557494 4 3206671503328 1 0
11.90403 -24.782696 -1.6011486 7 3206671505632 1 0
39.52924 -65.125084 4.436705 28 3206671505632 1 0
27.89001 -51.477654 2.3852837 78 3206671507936 1 0
14.932062 -24.60889 -1.3408408 4 3206671507936 1 0
14.31132 -26.424124 -1.5748936 33 3206671510240 1 0
20.78594 -34.267654 4.921084 7 3206671510240 1 0
0 0 0 8 3206671512544 1 0
12.163439 -18.011559 -0.8854648 2 3206671512544 1 1
12.822199 -26.734049 -1.0353982 45 3206671514848 1 0
0 0 0 9 3206671514848 1 0
15.18262 -28.062105 5.817291 26 3206671517152 1 0
15.773361 -26.029533 -0.70822304 61 3206671517152 1 0
0 0 0 4 3206671537888 1 0
29.524164 -43.870403 -0.92302287 18 3206671537888 1 0
14.326285 -26.571144 -0.87853414 45 3206671540192 1 0
3.1226566 -5.1699395 -1.6907767 2 3206671540192 1 0
4.0178623 -7.454446 -1.693669 4 3206671542496 1 0
29.322388 -48.561954 0 33 3206671542496 1 0
15.320485 -32.096634 -0.41405004 33 3206671544800 1 0
5.5066705 -9.122662 -1.6577969 11 3206671544800 1 0
5.2649484 -9.774664 -1.413194 3 3206671547104 1 0
17.663965 -26.278496 0.18402843 36 3206671547104 1 0
18.113901 -33.64058 -0.2220616 42 3206671549408 1 0
6.0046453 -9.953851 -1.2521787 3 3206671549408 1 0
7.8438115 -16.450434 -1.7012482 2 3206671551712 1 0
29.02328 -48.126682 1.3077607 32 3206671551712 1 0
15.29758 -32.094265 0.41391036 13 3206671554016 1 0
11.786295 -19.550257 -1.5963072 29 3206671554016 1 0
9.645262 -17.930685 -1.6621134 3 3206671556320 1 0
29.304974 -43.64879 1.5300457 25 3206671556320 1 0
30.090357 -55.95695 1.1089957 51 3206671558624 1 0
13.58344 -20.238127 -1.562099 4 3206671558624 1 0
11.815822 -24.816027 -1.6006836 7 3206671560928 1 0
39.224003 -65.122986 4.4274025 28 3206671560928 1 0
27.680222 -51.50911 2.3823528 52 3206671563232 1 0
14.734683 -24.471409 -1.330604 4 3206671563232 1 0
20.71219 -34.40963 4.931321 7 3206671565536 1 0
0 0 0 8 3206671567840 1 0
14.134348 -26.310808 -1.5652637 41 3206671565536 1 0
12.102199 -18.052763 -0.8854648 2 3206671567840 1 1
12.9460945 -27.228632 -1.052848 38 3206671570144 1 0
0 0 0 9 3206671570144 1 0
15.080195 -28.099417 5.814421 26 3206671572448 1 0
0 0 0 1 3206671572448 1 0
25.632328 -38.361492 -0.80532384 7 3206671593184 1 0
0 0 0 4 3206671593184 1 0
14.077606 -26.31893 -0.86864334 53 3206671595488 1 0
3.107438 -5.1835923 -1.691855 2 3206671595488 1 0
3.989313 -7.460869 -1.6920999 4 3206671597792 1 0
0 0 0 69 3206671597792 1 0
15.0404625 -31.782446 -0.40934706 38 3206671600096 1 0
5.47822 -9.1443815 -1.6584117 14 3206671600096 1 0
5.224741 -9.778223 -1.4111737 3 3206671602400 1 0
17.551537 -26.30084 0.18377271 40 3206671602400 1 0
14.3978 -26.955248 -0.17761208 32 3206671604704 1 0
7.797008 -16.494698 -1.7031071 2 3206671607008 1 0
18.90758 -31.592262 0.85673493 37 3206671607008 1 0
5.9753275 -9.98075 -1.2530354 7 3206671604704 1 0
0 0 0 7 3206671609312 1 0
11.7245 -19.596678 -1.5968652 29 3206671609312 1 0
9.58658 -17.966646 -1.6624389 5 3206671611616 1 0
29.303875 -43.96701 1.5377257 25 3206671611616 1 0
29.978134 -56.203064 1.1118579 51 3206671613920 1 0
13.52378 -20.297232 -1.5631223 6 3206671613920 1 0
11.750404 -24.895649 -1.6032417 7 3206671616224 1 0
0 0 0 27 3206671616224 1 0
27.476933 -51.54991 2.3799105 52 3206671618528 1 0
14.663787 -24.541887 -1.3317207 4 3206671618528 1 0
14.007153 -26.288254 -1.5610769 27 3206671620832 1 0
18.907217 -31.654312 4.5272026 20 3206671620832 1 0
31.08018 -58.350906 5.397068 28 3206671623136 1 0
12.082625 -18.157152 -0.8885585 2 3206671623136 1 1
12.861475 -27.290802 -1.053546 38 3206671625440 1 0
14.957976 -28.102274 5.8043766 26 3206671627744 1 0
0 0 0 9 3206671625440 1 0
15.616311 -26.170635 -0.7091536 4 3206671627744 1 0
25.381119 -38.274075 -0.80162394 7 3206671648480 1 0
13.963168 -26.325523 -0.867247 48 3206671650784 1 0
0 0 0 4 3206671648480 1 0
3.0893252 -5.194408 -1.691855 2 3206671650784 1 0
18.814562 -31.64538 0 100 3206671653088 1 0
3.96692 -7.4816794 -1.693669 3 3206671653088 1 0
15.06529 -32.124454 -0.4130722 58 3206671655392 1 0
5.4563637 -9.180437 -1.6614863 17 3206671655392 1 0
5.186861 -9.789389 -1.4101635 3 3206671657696 1 0
17.433117 -26.321928 0.18349373 36 3206671657696 1 0
17.8477 -33.696587 -0.22161989 42 3206671660000 1 0
5.9506063 -10.018643 -1.2551774 11 3206671660000 1 0
7.7444515 -16.532635 -1.7042224 2 3206671662304 1 0
18.784937 -31.63744 0.8561766 86 3206671662304 1 0
15.043206 -32.12597 0.41297907 23 3206671664608 1 0
11.674353 -19.668367 -1.5993764 27 3206671664608 1 0
9.527535 -18.007048 -1.6630899 3 3206671666912 1 0
29.28478 -44.272453 1.5448238 17 3206671666912 1 0
29.819164 -56.37807 1.1132541 51 3206671669216 1 0
13.510093 -20.430887 -1.5697738 7 3206671669216 1 0
11.666815 -24.943748 -1.6037067 7 3206671671520 1 0
18.750038 -31.620556 2.1409113 63 3206671671520 1 0
27.268808 -51.59251 2.377468 51 3206671673824 1 0
14.547469 -24.541367 -1.328929 4 3206671673824 1 0
13.933965 -26.372307 -1.5631703 41 3206671676128 1 0
0 0 0 21 3206671676128 1 0
30.658463 -58.04659 5.3589897 28 3206671678432 1 0
12.098463 -18.319279 -0.8944204 2 3206671678432 1 1
12.71877 -27.234114 -1.0496373 38 3206671680736 1 0
0 0 0 9 3206671680736 1 0
14.848769 -28.133434 5.8000717 21 3206671683040 1 0
0 0 0 29 3206671683040 1 0
29.473211 -44.783463 -0.93579805 28 3206671703776 1 0
0 0 0 4 3206671703776 1 0
13.861884 -26.35641 -0.8666652 58 3206671706080 1 0
3.079004 -5.21843 -1.6961682 2 3206671706080 1 0
3.9444304 -7.5024247 -1.6952379 4 3206671708384 1 0
18.669437 -31.652292 0 87 3206671708384 1 0
14.951378 -32.17322 -0.41302562 32 3206671710688 1 0
5.4142475 -9.182404 -1.6584117 21 3206671710688 1 0
17.314766 -26.34251 0.18321477 31 3206671712992 1 0
17.71881 -33.737434 -0.22148041 52 3206671715296 1 0
5.145276 -9.793384 -1.4081433 15 3206671712992 1 0
5.9115605 -10.032501 -1.2543206 10 3206671715296 1 0
7.6934023 -16.574017 -1.7057096 2 3206671717600 1 0
18.645973 -31.65458 0.8548739 69 3206671717600 1 0
14.915823 -32.14563 0.41256 23 3206671719904 1 0
11.6319475 -19.753698 -1.6030037 6 3206671719904 1 0
9.470178 -18.050787 -1.6640662 3 3206671722208 1 0
29.277073 -44.59835 1.5526199 25 3206671722208 1 0
29.989979 -57.1831 1.1270764 53 3206671724512 1 0
11.583032 -24.991568 -1.6041719 7 3206671726816 1 0
13.456214 -20.50462 -1.5718205 4 3206671724512 1 0
18.613228 -31.641068 2.1378882 55 3206671726816 1 0
14.411078 -24.505892 -1.3242757 4 3206671729120 1 0
13.851092 -26.438477 -1.5642171 41 3206671731424 1 0
27.069998 -51.65198 2.3758397 77 3206671729120 1 0
18.591204 -31.624676 4.504291 54 3206671731424 1 0
12.183422 -18.588703 -0.9054927 2 3206671733728 1 1
12.420482 -26.839365 -1.032746 45 3206671736032 1 0
30.451956 -58.14619 5.358339 28 3206671733728 1 0
0 0 0 9 3206671736032 1 0
14.732228 -28.15023 5.7928967 21 3206671738336 1 0
14.416631 -24.548004 -0.6624412 54 3206671738336 1 1
0 0 0 4 3206671759072 1 0
29.54197 -45.23096 -0.9429884 28 3206671759072 1 0
13.7624035 -26.390455 -0.86619973 48 3206671761376 1 0
3.045203 -5.2025514 -1.6875417 2 3206671761376 1 0
3.9182181 -7.5161476 -1.6952379 4 3206671763680 1 0
18.536615 -31.67929 0 92 3206671763680 1 0
12.582185 -27.32422 -0.35021034 36 3206671765984 1 0
5.116559 -9.821842 -1.4096584 60 3206671768288 1 0
5.380166 -9.197836 -1.6577969 33 3206671765984 1 0
17.205225 -26.375988 0.18302879 22 3206671768288 1 0
14.092572 -27.061968 -0.17733312 20 3206671770592 1 0
5.8805184 -10.059942 -1.2551774 14 3206671770592 1 0
7.648815 -16.629717 -1.7086837 2 3206671772896 1 0
18.515188 -31.684946 0.85394335 69 3206671772896 1 0
14.790156 -32.16843 0.4121875 23 3206671775200 1 0
11.562923 -19.79418 -1.6030037 4 3206671775200 1 0
9.407111 -18.083735 -1.6640662 3 3206671777504 1 0
29.249985 -44.89793 1.5594853 25 3206671777504 1 0
29.563234 -56.850998 1.1184899 34 3206671779808 1 0
13.384558 -20.551466 -1.5718205 4 3206671779808 1 0
11.500724 -25.042734 -1.6048695 7 3206671782112 1 0
18.482538 -31.671358 2.1355624 55 3206671782112 1 0
26.852676 -51.67523 2.3725832 77 3206671784416 1 0
14.303302 -24.518082 -1.3222284 8 3206671784416 1 0
13.725575 -26.422857 -1.5604489 41 3206671786720 1 0
18.458698 -31.651653 4.4989285 54 3206671786720 1 0
30.2635 -58.280437 5.3609424 28 3206671789024 1 0
12.203449 -18.76178 -0.91184306 2 3206671789024 1 1
12.301725 -26.82805 -1.0306519 37 3206671791328 1 0
0 0 0 9 3206671791328 1 0
14.619375 -28.17354 5.787157 21 3206671793632 1 0
14.296632 -24.539438 -0.6608593 83 3206671793632 1 1
0 0 0 4 3206671814368 1 0
29.436111 -45.414352 -0.9446639 19 3206671814368 1 0
13.642653 -26.38506 -0.8644543 53 3206671816672 1 0
3.0231557 -5.206487 -1.6853851 2 3206671816672 1 0
3.891958 -7.529779 -1.6952379 5 3206671818976 1 0
14.684897 -32.185844 -0.4118615 61 3206671821280 1 0
5.3440595 -9.2097225 -1.656567 27 3206671821280 1 0
18.40584 -31.70921 0 97 3206671818976 1 0
5.064034 -9.804387 -1.4046078 52 3206671823584 1 0
17.091314 -26.402308 0.18279631 13 3206671823584 1 0
5.845367 -10.080407 -1.2551774 7 3206671825888 1 0
17.44798 -33.79278 -0.2210387 15 3206671825888 1 0
18.380407 -31.707869 0.8528267 69 3206671828192 1 0
7.5841136 -16.641819 -1.7071966 2 3206671828192 1 0
14.664513 -32.190742 0.41181496 32 3206671830496 1 0
11.503761 -19.851685 -1.6043988 4 3206671830496 1 0
9.393272 -18.212128 -1.6728536 4 3206671832800 1 0
29.223331 -45.201218 1.566467 25 3206671832800 1 0
0 0 0 12 3206671835104 1 0
13.317072 -20.604767 -1.5723321 4 3206671835104 1 0
11.457892 -25.180862 -1.6111486 11 3206671837408 1 0
18.353867 -31.704578 2.1334696 63 3206671837408 1 0
20.518011 -39.823948 1.8251517 77 3206671839712 1 0
13.662523 -26.527428 -1.5637984 46 3206671842016 1 0
14.205623 -24.54711 -1.3211117 4 3206671839712 1 0
18.32822 -31.681528 4.494054 47 3206671842016 1 0
0 0 0 34 3206671844320 1 0
12.239756 -18.962084 -0.91949606 2 3206671844320 1 1
12.305561 -27.085562 -1.0388882 41 3206671846624 1 0
0 0 0 9 3206671846624 1 0
14.50654 -28.196405 5.7814174 21 3206671848928 1 0
14.19888 -24.56842 -0.66030097 100 3206671848928 1 1
0 0 0 4 3206671869664 1 0
29.480782 -45.833008 -0.95122594 29 3206671869664 1 0
13.552101 -26.436178 -0.8645707 43 3206671871968 1 0
3.0049255 -5.21703 -1.6853851 2 3206671871968 1 0
3.8673294 -7.5468655 -1.6960223 4 3206671874272 1 0
18.272625 -31.7354 0 92 3206671874272 1 0
14.561871 -32.21536 -0.41158214 61 3206671876576 1 0
5.315621 -9.235288 -1.6577969 20 3206671876576 1 0
5.0258765 -9.815087 -1.4035976 51 3206671878880 1 0
16.978825 -26.432013 0.18258709 13 3206671878880 1 0
17.31046 -33.818504 -0.22080623 36 3206671881184 1 0
5.807794 -10.097514 -1.2547491 6 3206671881184 1 0
7.5236106 -16.664888 -1.7068249 2 3206671883488 1 0
18.252283 -31.744898 0.8520823 75 3206671883488 1 0
14.538898 -32.216957 0.411489 41 3206671885792 1 0
9.328581 -18.245348 -1.6728536 4 3206671888096 1 0
29.205221 -45.526756 1.574147 25 3206671888096 1 0
11.441338 -19.90614 -1.605515 4 3206671885792 1 0
20.270624 -39.661335 0.7774698 74 3206671890400 1 0
13.254489 -20.668795 -1.5736113 7 3206671890400 1 0
11.327069 -25.130518 -1.6053346 7 3206671892704 1 0
18.218903 -31.731686 2.1309114 63 3206671892704 1 0
20.35205 -39.850685 1.8230349 57 3206671895008 1 0
14.105948 -24.576885 -1.3199949 4 3206671895008 1 0
13.551176 -26.54412 -1.5619143 18 3206671897312 1 0
18.19104 -31.705578 4.488204 54 3206671897312 1 0
20.338186 -39.853584 3.6526139 39 3206671899616 1 0
0 0 0 17 3206671899616 1 0
12.32629 -27.392069 -1.0489392 38 3206671901920 1 0
0 0 0 9 3206671901920 1 0
14.399584 -28.237926 5.779265 21 3206671904224 1 0
14.146142 -24.681824 -0.6619759 94 3206671904224 1 1
0 0 0 4 3206671924960 1 0
29.454578 -46.163277 -0.9558334 29 3206671924960 1 0
13.536995 -26.645885 -0.86980695 39 3206671927264 1 0
2.9858599 -5.2279654 -1.6853851 2 3206671927264 1 0
3.8363106 -7.553883 -1.6944534 4 3206671929568 1 0
18.147196 -31.784262 0 61 3206671929568 1 0
14.428763 -32.231377 -0.41111648 65 3206671931872 1 0
5.2840996 -9.257911 -1.6584117 20 3206671931872 1 0
4.9868493 -9.826075 -1.4025874 50 3206671934176 1 0
16.859726 -26.455978 0.18233135 9 3206671934176 1 0
17.177998 -33.859074 -0.22066674 47 3206671936480 1 0
5.7636 -10.104495 -1.2530354 6 3206671936480 1 0
7.5045815 -16.782595 -1.7161193 2 3206671938784 1 0
18.118776 -31.77526 0.85115176 64 3206671938784 1 0
11.370332 -19.946783 -1.605515 4 3206671941088 1 0
9.2619705 -18.274782 -1.6725281 4 3206671943392 1 0
29.165846 -45.822376 1.5807797 26 3206671943392 1 0
14.41258 -32.242996 0.41116306 27 3206671941088 1 0
20.11225 -39.697056 0.7767717 74 3206671945696 1 0
11.284132 -25.272327 -1.6118462 7 3206671948000 1 0
13.1835 -20.718878 -1.5738671 7 3206671945696 1 0
18.0992 -31.781734 2.1299813 31 3206671948000 1 0
20.1978 -39.893253 1.8217322 67 3206671950304 1 0
13.964364 -24.52895 -1.3147835 4 3206671950304 1 0
13.406126 -26.487906 -1.5558434 9 3206671952608 1 0
18.060617 -31.734379 4.4833293 47 3206671952608 1 0
20.172531 -39.87068 3.647732 39 3206671954912 1 0
16.830301 -26.482409 -1.2783715 38 3206671954912 1 0
12.22163 -27.412666 -1.0481017 38 3206671957216 1 0
0 0 0 9 3206671957216 1 0
14.280855 -28.245253 5.770655 21 3206671959520 1 0
14.09458 -24.789536 -0.6635578 26 3206671959520 1 1
0 0 0 4 3206671980256 1 0
29.461836 -46.514095 -0.9610691 29 3206671980256 1 0
13.35841 -26.512194 -0.8639889 48 3206671982560 1 0
2.9703681 -5.241211 -1.6864635 2 3206671982560 1 0
3.8128943 -7.570122 -1.6952379 5 3206671984864 1 0
18.218687 -32.157753 0 20 3206671984864 1 0
14.312986 -32.261078 -0.41088367 65 3206671987168 1 0
5.2551155 -9.278936 -1.6590266 18 3206671987168 1 0
4.950383 -9.835613 -1.4015772 43 3206671989472 1 0
29.387436 -46.4564 0.31949252 25 3206671989472 1 0
17.050007 -33.887886 -0.22048075 47 3206671991776 1 0
5.7238154 -10.113378 -1.2517503 1 3206671991776 1 0
7.449767 -16.811356 -1.7164911 2 3206671994080 1 0
18.151728 -32.08307 0.8577585 16 3206671994080 1 0
14.290976 -32.262085 0.41079053 23 3206671996384 1 0
11.308999 -19.995373 -1.6063521 4 3206671996384 1 0
9.205625 -18.316618 -1.6735045 4 3206671998688 1 0
29.1456 -46.133484 1.5881104 26 3206671998688 1 0
19.959942 -39.729103 0.77607363 74 3206672000992 1 0
13.124021 -20.780216 -1.5751463 7 3206672000992 1 0
11.209733 -25.335983 -1.6134741 7 3206672003296 1 0
18.162289 -32.14536 2.1502135 16 3206672003296 1 0
20.047855 -39.933044 1.8204296 67 3206672005600 1 0
13.930106 -24.66321 -1.3194366 12 3206672005600 1 0
18.052061 -31.971977 4.5081906 20 3206672007904 1 0
13.3374 -26.57622 -1.5583555 13 3206672007904 1 0
20.016764 -39.900055 3.644152 39 3206672010208 1 0
16.72069 -26.509233 -1.276906 38 3206672010208 1 0
11.882335 -26.898464 -1.0268828 37 3206672012512 1 0
0 0 0 9 3206672012512 1 0
14.175208 -28.276413 5.7670674 21 3206672014816 1 0
14.8032875 -26.244822 -0.7011511 70 3206672014816 1 0
0 0 0 4 3206672035552 1 0
29.350368 -46.69792 -0.96274453 29 3206672035552 1 0
13.240771 -26.508585 -0.86235976 48 3206672037856 1 0
2.9558296 -5.258263 -1.6886201 2 3206672037856 1 0
3.7899508 -7.5904036 -1.6968068 5 3206672040160 1 0
18.268967 -32.510586 0 10 3206672040160 1 0
13.79153 -31.380772 -0.39905635 35 3206672042464 1 0
5.2285013 -9.307561 -1.6608714 16 3206672042464 1 0
0 0 0 30 3206672044768 1 0
29.359066 -46.772133 0.32095712 38 3206672044768 1 0
7.4386296 -13.250966 -1.6368713 2 3206672047072 1 0
16.91733 -33.91856 -0.22029477 42 3206672047072 1 0
7.4006443 -16.859138 -1.7187217 2 3206672049376 1 0
18.217714 -32.463585 0.8662263 16 3206672049376 1 0
14.167023 -32.286137 0.41046458 23 3206672051680 1 0
11.241086 -20.038208 -1.6066312 4 3206672051680 1 0
9.148743 -18.362913 -1.6748064 4 3206672053984 1 0
29.130922 -46.46869 1.5961394 26 3206672053984 1 0
19.858582 -39.87371 0.7775396 24 3206672056288 1 0
13.057763 -20.836048 -1.5759138 7 3206672056288 1 0
11.11802 -25.367643 -1.613009 7 3206672058592 1 0
18.186625 -32.452408 2.1664925 16 3206672058592 1 0
19.890533 -39.967 1.8188013 57 3206672060896 1 0
0 0 0 12 3206672060896 1 0
0 0 0 16 3206672063200 1 0
18.13628 -32.38466 4.557426 13 3206672063200 1 0
19.861387 -39.937553 3.641223 39 3206672065504 1 0
16.286673 -26.021996 -1.2506905 31 3206672065504 1 0
11.761126 -26.87752 -1.0245097 45 3206672067808 1 0
0 0 0 9 3206672067808 1 0
14.057155 -28.286957 5.7591753 21 3206672070112 1 0
0 0 0 4 3206672090296 1 0
14.686205 -26.250967 -0.69994134 70 3206672070112 1 0
29.436918 -47.200523 -0.9709821 30 3206672090296 1 0
2.9299538 -5.255091 -1.6843069 2 3206672092600 1 0
13.121546 -26.500895 -0.86061436 48 3206672092600 1 0
3.7634323 -7.6035867 -1.6968068 4 3206672094904 1 0
29.078197 -52.17176 0 24 3206672094904 1 0
11.959295 -27.47171 -0.3488134 25 3206672097208 1 0
5.1979036 -9.329208 -1.6614863 15 3206672097208 1 0
4.8763204 -9.859263 -1.4000621 3 3206672099512 1 0
29.366913 -47.14934 0.32284018 25 3206672099512 1 0
16.816557 -34.01326 -0.22052725 15 3206672101816 1 0
7.390395 -13.273376 -1.6364429 3 3206672101816 1 0
7.336985 -16.87391 -1.7176064 2 3206672104120 1 0
31.49628 -56.587646 1.5069863 16 3206672104120 1 0
14.04467 -32.31338 0.41018522 18 3206672106424 1 0
11.235094 -20.19239 -1.615839 6 3206672106424 1 0
9.089885 -18.40546 -1.6757827 4 3206672108728 1 0
29.120592 -46.814537 1.6045175 26 3206672108728 1 0
19.846746 -40.200993 0.7825659 16 3206672111032 1 0
13.039759 -20.969639 -1.5825653 7 3206672111032 1 0
11.042124 -25.435602 -1.6148695 7 3206672113336 1 0
28.553225 -51.370327 3.4227605 80 3206672113336 1 0
19.779194 -40.093536 1.8214066 19 3206672115640 1 0
13.776994 -24.794786 -1.3212978 8 3206672115640 1 0
19.362955 -34.859917 4.8962226 7 3206672117944 1 0
19.758877 -40.081734 3.6480575 26 3206672120248 1 0
13.135639 -26.63644 -1.5564713 55 3206672117944 1 0
0 0 0 3 3206672120248 1 0
11.657695 -26.896402 -1.023672 41 3206672122552 1 0
0 0 0 9 3206672122552 1 0
13.944418 -28.307613 5.7534356 26 3206672124856 1 0
0 0 0 4 3206672145592 1 0
14.561498 -26.242626 -0.6983595 70 3206672124856 1 0
29.42561 -47.551254 -0.9760782 20 3206672145592 1 0
13.011345 -26.510643 -0.85945076 52 3206672147896 1 0
2.9115922 -5.265287 -1.6843069 2 3206672147896 1 0
3.7385955 -7.6201982 -1.6975913 5 3206672150200 1 0
29.077812 -52.602013 0 24 3206672150200 1 0
13.532524 -31.384468 -0.39789224 49 3206672152504 1 0
5.1691303 -9.354215 -1.6627162 13 3206672152504 1 0
4.831395 -9.854848 -1.3970317 3 3206672154808 1 0
29.376688 -47.533978 0.32476974 25 3206672154808 1 0
16.650198 -33.974777 -0.21989956 47 3206672157112 1 0
7.3574753 -13.3234625 -1.6394416 5 3206672157112 1 0
31.29083 -56.68324 1.506614 48 3206672159416 1 0
13.925464 -32.347515 0.40999895 23 3206672161720 1 0
11.179964 -20.259434 -1.6180712 7 3206672161720 1 0
9.020324 -18.426336 -1.6748064 6 3206672164024 1 0
29.118702 -47.177887 1.6134773 26 3206672164024 1 0
7.2811904 -16.906734 -1.7183499 2 3206672159416 1 0
25.212109 -51.521206 1.0012096 26 3206672166328 1 0
12.97277 -21.025219 -1.5833329 7 3206672166328 1 0
10.964312 -25.499672 -1.6164974 7 3206672168632 1 0
28.327467 -51.385754 3.417179 80 3206672168632 1 0
25.401287 -51.94606 2.3558118 50 3206672170936 1 0
14.542752 -26.389492 -1.4035648 60 3206672170936 1 0
13.014513 -26.624712 -1.5531218 50 3206672173240 1 0
19.281384 -35.00032 4.90646 7 3206672173240 1 0
19.71511 -40.34747 3.6659577 26 3206672175544 1 0
15.125459 -24.546068 -1.1746492 4 3206672175544 1 0
11.544815 -26.89285 -1.0219969 41 3206672177848 1 0
0 0 0 9 3206672177848 1 0
13.838614 -28.34197 5.7505655 26 3206672180152 1 0
14.454381 -26.265268 -0.697615 76 3206672180152 1 0
0 0 0 4 3206672200888 1 0
29.414303 -47.905888 -0.9812441 20 3206672200888 1 0
12.916977 -26.552303 -0.85933435 47 3206672203192 1 0
2.898752 -5.28555 -1.6875417 2 3206672203192 1 0
3.7136886 -7.6367292 -1.6983757 4 3206672205496 1 0
13.859586 -32.454098 -0.4108371 59 3206672207800 1 0
5.138346 -9.375667 -1.663331 13 3206672207800 1 0
18.471712 -33.692722 0 10 3206672205496 1 0
29.35277 -47.868107 0.32635057 26 3206672210104 1 0
4.796966 -9.871653 -1.3970317 3 3206672210104 1 0
16.51927 -34.007504 -0.21973683 42 3206672212408 1 0
7.3032813 -13.335112 -1.6377281 4 3206672212408 1 0
7.2361937 -16.965017 -1.7216959 2 3206672214712 1 0
31.111982 -56.827198 1.5075445 48 3206672214712 1 0
13.7983465 -32.362812 0.40957987 23 3206672217016 1 0
11.091936 -20.266832 -1.6155599 9 3206672217016 1 0
8.961169 -18.468472 -1.6757827 6 3206672219320 1 0
29.125069 -47.55884 1.6230191 27 3206672219320 1 0
25.025131 -51.594505 1.0009304 91 3206672221624 1 0
12.907636 -21.083992 -1.5843562 7 3206672221624 1 0
10.920606 -25.644333 -1.6232414 11 3206672223928 1 0
28.126854 -51.44578 3.4146209 79 3206672223928 1 0
25.202375 -51.998447 2.3541834 74 3206672226232 1 0
14.433301 -26.408539 -1.4018897 69 3206672226232 1 0
19.149574 -35.04999 4.904022 7 3206672228536 1 0
12.919754 -26.666384 -1.5529125 55 3206672228536 1 0
19.525494 -40.31558 3.6568449 26 3206672230840 1 0
14.993819 -24.523699 -1.171067 4 3206672230840 1 0
11.447742 -26.925629 -1.0217177 41 3206672233144 1 0
0 0 0 9 3206672233144 1 0
13.727599 -28.365309 5.7455435 26 3206672235448 1 0
0 0 0 4 3206672256184 1 0
14.331958 -26.259401 -0.6961262 60 3206672235448 1 0
12.82074 -26.590029 -0.85910165 47 3206672258488 1 0
2.8802843 -5.295636 -1.6875417 2 3206672258488 1 0
3.6921177 -7.660246 -1.7007291 5 3206672260792 1 0
0 0 0 62 3206672260792 1 0
16.215218 -26.616993 -0.54402643 8 3206672256184 1 0
13.713497 -32.42492 -0.40985927 68 3206672263096 1 0
5.11125 -9.403964 -1.6651758 12 3206672263096 1 0
4.7607565 -9.884762 -1.3965266 9 3206672265400 1 0
0 0 0 17 3206672265400 1 0
16.384844 -34.032524 -0.2195276 42 3206672267704 1 0
7.262383 -13.371008 -1.6390133 4 3206672267704 1 0
7.173831 -16.982836 -1.7209524 2 3206672270008 1 0
30.734064 -56.605106 1.4987977 31 3206672270008 1 0
13.693075 -32.429207 0.4098127 60 3206672272312 1 0
8.8983755 -18.503231 -1.6761081 4 3206672274616 1 0
29.135359 -47.95066 1.6329099 27 3206672274616 1 0
11.021124 -20.305428 -1.6155599 15 3206672272312 1 0
0 0 0 21 3206672276920 1 0
12.827744 -21.118685 -1.5835887 7 3206672276920 1 0
10.838782 -25.700695 -1.6244042 11 3206672279224 1 0
27.903326 -51.46291 3.4092722 79 3206672279224 1 0
24.998215 -52.03927 2.3520668 74 3206672281528 1 0
14.3238945 -26.427143 -1.4002146 55 3206672281528 1 0
12.830051 -26.718521 -1.5533311 37 3206672283832 1 0
19.010088 -35.085205 4.8996353 7 3206672283832 1 0
19.374296 -40.361923 3.6548922 39 3206672286136 1 0
14.901906 -24.565636 -1.1705786 8 3206672286136 1 0
11.353685 -26.965424 -1.0217177 45 3206672288440 1 0
0 0 0 9 3206672288440 1 0
13.623396 -28.40241 5.743391 21 3206672290744 1 0
14.268761 -26.362022 -0.697522 60 3206672290744 1 0
0 0 0 4 3206672311480 1 0
29.3936 -48.630325 -0.99185514 10 3206672311480 1 0
12.781288 -26.746452 -0.86270887 43 3206672313784 1 0
2.8617816 -5.3056583 -1.6875417 2 3206672313784 1 0
3.6636653 -7.669548 -1.6999447 5 3206672316088 1 0
18.139227 -33.641296 0 73 3206672316088 1 0
13.85054 -33.070244 -0.41740268 60 3206672318392 1 0
5.0802684 -9.425227 -1.6657907 12 3206672318392 1 0
4.7091303 -9.86551 -1.3914758 54 3206672320696 1 0
0 0 0 3 3206672320696 1 0
7.217551 -13.399778 -1.6394416 4 3206672323000 1 0
7.1145062 -17.007774 -1.7209524 2 3206672325304 1 0
30.160913 -56.014893 1.4803731 30 3206672325304 1 0
13.818954 -33.048775 0.41703016 55 3206672327608 1 0
10.950178 -20.343775 -1.6155599 22 3206672327608 1 0
