# .PCD v.7 - Point Cloud Data file format
VERSION .7
FIELDS x y z rgb timestamp_ns device_id active
SIZE 4 4 4 4 8 1 1
TYPE F F F F F U U
COUNT 1 1 1 1 1 1 1
WIDTH 980
HEIGHT 1
VIEWPOINT 0 0 0 1 0 0 0
POINTS 980               
DATA ascii
0 0 0 9 3200088800920 1 0
0 0 0 29 3200088803224 1 0
-28.644627 -47.084362 -1.2824504 33 3200088803224 1 0
-2.1308682 -3.1366546 -1.7682348 27 3200088823960 1 0
-25.705093 -47.16606 -0.93761307 28 3200088823960 1 0
-32.109562 -47.250004 -1.6625822 36 3200088826264 1 0
-3.3132503 -5.4282417 -1.7802757 5 3200088826264 1 0
-28.778406 -47.13272 0 21 3200088828568 1 0
-5.1511054 -7.5774875 -1.83252 5 3200088828568 1 0
-50.849796 -67.440155 -0.983299 28 3200088830872 1 0
-6.184789 -10.125853 -1.8459592 3 3200088830872 1 0
-8.552142 -12.572291 -1.9354393 13 3200088833176 1 0
-25.727804 -47.13918 0.312123 24 3200088833176 1 0
-32.160484 -47.262806 -0.33225548 31 3200088835480 1 0
-7.5806584 -12.402678 -1.5657588 16 3200088835480 1 0
-10.091029 -13.370602 -1.563691 7 3200088837784 1 0
-31.678083 -51.810574 1.4130962 12 3200088837784 1 0
-50.893394 -67.41227 0.98334557 28 3200088840088 1 0
-15.912784 -26.016966 -2.1325948 4 3200088840088 1 0
-14.235789 -20.900215 -2.0643795 3 3200088842392 1 0
-32.45784 -59.383846 1.9695455 45 3200088842392 1 0
-34.128433 -50.089073 1.0579649 29 3200088844696 1 0
-10.329786 -18.892195 -1.3799479 1 3200088844696 1 1
-22.873655 -30.269093 -2.2095153 5 3200088847000 1 0
-59.607376 -97.35619 6.648081 28 3200088847000 1 0
-55.885326 -81.96707 4.041744 29 3200088849304 1 0
-25.625202 -41.839066 -2.2854226 9 3200088849304 1 0
-26.538322 -38.91102 -2.468373 22 3200088851608 1 0
0 0 0 1 3200088851608 1 0
-25.439547 -46.459064 -2.1579742 10 3200088853912 1 0
-38.15634 -50.428852 -2.2083006 18 3200088856216 1 0
0 0 0 9 3200088856216 1 0
-70.41615 -103.211716 10.19985 28 3200088853912 1 0
0 0 0 29 3200088858520 1 0
-28.8662 -47.066166 -1.2847767 33 3200088858520 1 0
-2.1464465 -3.1348062 -1.7716157 14 3200088879256 1 0
-25.933668 -47.173164 -0.93963754 28 3200088879256 1 0
-32.37708 -47.270782 -1.6674694 36 3200088881560 1 0
-3.3310654 -5.412805 -1.7791973 5 3200088881560 1 0
-5.178734 -7.5586324 -1.83252 5 3200088883864 1 0
-29.008993 -47.122726 0 32 3200088883864 1 0
-52.522743 -69.1335 -1.010772 14 3200088886168 1 0
-6.22164 -10.103251 -1.8459592 4 3200088886168 1 0
-8.620236 -12.573839 -1.94049 11 3200088888472 1 0
-25.937616 -47.115402 0.31258798 24 3200088888472 1 0
-32.43132 -47.290936 -0.3332784 31 3200088890776 1 0
-7.6485653 -12.412331 -1.5704712 16 3200088890776 1 0
-10.144207 -13.340309 -1.5644345 6 3200088893080 1 0
-31.678759 -51.39254 1.4048145 12 3200088893080 1 0
-52.613808 -69.169785 1.0117499 28 3200088895384 1 0
-16.002523 -25.95249 -2.132037 4 3200088895384 1 0
-14.268216 -20.78628 -2.0581958 3 3200088897688 1 0
-32.631294 -59.192852 1.9671019 22 3200088897688 1 0
-51.29412 -74.70322 1.5817465 29 3200088899992 1 0
-16.271265 -29.505768 -2.1594625 4 3200088899992 1 0
-23.052397 -30.278864 -2.2162595 5 3200088902296 1 0
-59.887527 -97.02929 6.6404066 28 3200088902296 1 0
-55.73976 -81.12714 4.0101557 29 3200088904600 1 0
-26.226349 -42.477894 -2.3254395 9 3200088904600 1 0
-26.595922 -38.697308 -2.4608366 22 3200088906904 1 0
0 0 0 1 3200088906904 1 0
-71.20208 -103.5674 10.26006 28 3200088909208 1 0
-38.45454 -50.448353 -2.2151408 19 3200088911512 1 0
-25.589817 -46.339943 -2.1566718 10 3200088909208 1 0
0 0 0 9 3200088911512 1 0
0 0 0 29 3200088913816 1 0
-29.102781 -47.075462 -1.2878474 33 3200088913816 1 0
0 0 0 34 3200088934552 1 0
-26.148586 -47.173298 -0.9414526 28 3200088934552 1 0
-32.591846 -47.229874 -1.6700294 36 3200088936856 1 0
-5.20063 -7.5340533 -1.830951 5 3200088939160 1 0
-3.347909 -5.397871 -1.7781191 5 3200088936856 1 0
-29.242895 -47.133343 0 21 3200088939160 1 0
-52.47935 -68.57811 -1.0053239 28 3200088941464 1 0
-6.254785 -10.0781145 -1.8453443 4 3200088941464 1 0
-8.684371 -12.573056 -1.9450357 12 3200088943768 1 0
-26.16016 -47.129494 0.31328538 24 3200088943768 1 0
-7.719122 -12.429478 -1.5760401 16 3200088946072 1 0
-32.637127 -47.23668 -0.33369684 31 3200088946072 1 0
-10.190711 -13.304818 -1.5644345 6 3200088948376 1 0
-31.663818 -50.969143 1.3962537 12 3200088948376 1 0
-52.689518 -68.76981 1.0085834 28 3200088950680 1 0
-14.37697 -20.788813 -2.0634031 3 3200088952984 1 0
-16.105654 -25.916807 -2.133711 4 3200088950680 1 0
-51.02715 -91.80334 3.056717 44 3200088952984 1 0
-16.37804 -29.455769 -2.159974 4 3200088955288 1 0
-51.197342 -74.00733 1.5707864 29 3200088955288 1 0
-23.16524 -30.207718 -2.216957 5 3200088957592 1 0
-60.10985 -96.63316 6.627616 28 3200088957592 1 0
-55.93617 -80.8072 4.0039682 29 3200088959896 1 0
-26.363909 -42.369125 -2.324509 9 3200088959896 1 0
-26.694456 -38.55169 -2.457487 11 3200088962200 1 0
-72.1965 -104.2326 10.3508625 28 3200088964504 1 0
0 0 0 1 3200088962200 1 0
-25.695036 -46.14907 -2.1519496 10 3200088964504 1 0
-38.739956 -50.456497 -2.2214227 19 3200088966808 1 0
0 0 0 9 3200088966808 1 0
0 0 0 29 3200088969112 1 0
-29.338827 -47.088985 -1.2910112 33 3200088969112 1 0
-2.1682792 -3.1197448 -1.7716157 4 3200088990296 1 0
-26.35797 -47.162033 -0.94305825 19 3200088990296 1 0
-32.852028 -47.25394 -1.6749166 37 3200088992600 1 0
-3.3687332 -5.389443 -1.7791973 5 3200088992600 1 0
-5.222309 -7.5094895 -1.8293821 6 3200088994904 1 0
-29.470179 -47.133156 0 22 3200088994904 1 0
-52.438564 -68.03451 -1.0000156 28 3200088997208 1 0
-6.2897067 -10.056356 -1.8453443 4 3200088997208 1 0
-8.736907 -12.555948 -1.947056 12 3200088999512 1 0
-26.33291 -47.056107 0.31340164 24 3200088999512 1 0
-32.898357 -47.264824 -0.33469647 31 3200089001816 1 0
-7.7873287 -12.443193 -1.5811808 16 3200089001816 1 0
-10.243811 -13.279072 -1.5655499 11 3200089004120 1 0
-31.707764 -50.649544 1.3904845 12 3200089004120 1 0
-52.693626 -68.28734 1.0041598 28 3200089006424 1 0
-16.186235 -25.847727 -2.1325948 4 3200089006424 1 0
-14.404943 -20.677189 -2.0572193 3 3200089008728 1 0
-51.072243 -91.14629 3.040659 44 3200089008728 1 0
-16.463223 -29.371641 -2.1579273 4 3200089011032 1 0
-51.13727 -73.382 1.5612224 29 3200089011032 1 0
-23.302523 -30.17261 -2.220213 5 3200089013336 1 0
-56.168015 -80.55366 4.0008745 29 3200089015640 1 0
-60.270126 -96.15646 6.609011 28 3200089013336 1 0
-26.465813 -42.211254 -2.3207862 9 3200089015640 1 0
-26.73867 -38.336113 -2.449532 11 3200089017944 1 0
0 0 0 1 3200089017944 1 0
0 0 0 8 3200089020248 1 0
-25.830097 -46.023205 -2.1501586 10 3200089020248 1 0
-39.032986 -50.48305 -2.2284026 19 3200089022552 1 0
0 0 0 9 3200089022552 1 0
0 0 0 29 3200089024856 1 0
-29.559551 -47.087723 -1.2937098 33 3200089024856 1 0
-2.174455 -3.1065974 -1.7682348 4 3200089045592 1 0
-26.5574 -47.15103 -0.944594 19 3200089045592 1 0
-33.102913 -47.278786 -1.6796874 56 3200089047896 1 0
-3.3907309 -5.3847365 -1.781354 5 3200089047896 1 0
-5.245042 -7.488841 -1.8285977 30 3200089050200 1 0
-29.69522 -47.143044 0 22 3200089050200 1 0
-6.327453 -10.041994 -1.8465742 4 3200089052504 1 0
-52.410328 -67.53048 -0.9951729 28 3200089052504 1 0
-8.797078 -12.552647 -1.9510967 13 3200089054808 1 0
-33.1324 -47.262352 -0.33546367 31 3200089057112 1 0
-26.468561 -46.929432 0.3131459 36 3200089054808 1 0
-7.856575 -12.460751 -1.5867499 15 3200089057112 1 0
-10.295696 -13.254016 -1.5666652 12 3200089059416 1 0
-31.687891 -50.241695 1.3822027 12 3200089059416 1 0
-52.650845 -67.75896 0.9989912 28 3200089061720 1 0
-16.27956 -25.803205 -2.133432 4 3200089061720 1 0
-14.476922 -20.631727 -2.0575447 3 3200089064024 1 0
-51.45226 -91.10226 3.0449643 44 3200089064024 1 0
-51.040474 -72.71763 1.550751 29 3200089066328 1 0
-16.56245 -29.315802 -2.1579273 4 3200089066328 1 0
-23.411995 -30.102924 -2.2209105 5 3200089068632 1 0
-60.486897 -95.77947 6.597151 28 3200089068632 1 0
-56.54463 -80.50962 4.0082016 29 3200089070936 1 0
-26.862099 -38.235085 -2.448904 11 3200089073240 1 0
-26.591942 -42.09411 -2.3192973 9 3200089070936 1 0
0 0 0 1 3200089073240 1 0
0 0 0 8 3200089075544 1 0
-24.821884 -43.87551 -2.0537636 9 3200089075544 1 0
-39.328106 -50.50705 -2.2353826 20 3200089077848 1 0
0 0 0 29 3200089080152 1 0
0 0 0 9 3200089077848 1 0
-29.786932 -47.09097 -1.2965944 33 3200089080152 1 0
-2.189464 -3.1049137 -1.7716157 4 3200089100888 1 0
-24.966175 -43.96628 -0.8825333 17 3200089100888 1 0
-33.193996 -47.05839 -1.6759639 55 3200089103192 1 0
-3.4053786 -5.366363 -1.7791973 5 3200089103192 1 0
-5.28698 -7.492921 -1.8340889 62 3200089105496 1 0
-29.930342 -47.150543 0 22 3200089105496 1 0
-52.295944 -66.89965 -0.9885608 14 3200089107800 1 0
-6.360349 -10.016509 -1.8459592 3 3200089107800 1 0
-8.849996 -12.534828 -1.9531169 12 3200089110104 1 0
-26.610466 -46.798504 0.31289017 24 3200089110104 1 0
-33.17026 -46.966713 -0.33418503 31 3200089112408 1 0
-7.925617 -12.473531 -1.5918906 16 3200089112408 1 0
-10.341899 -13.217996 -1.5666652 6 3200089114712 1 0
-31.73008 -49.921535 1.3764335 23 3200089114712 1 0
-52.539463 -67.130646 0.9924256 28 3200089117016 1 0
-16.378096 -25.759691 -2.1345482 4 3200089117016 1 0
-14.530441 -20.555025 -2.0549412 3 3200089119320 1 0
-52.683956 -92.52734 3.0987236 44 3200089119320 1 0
-50.991505 -72.11125 1.541606 29 3200089121624 1 0
-16.629118 -29.195374 -2.1533225 4 3200089121624 1 0
-60.730812 -95.42626 6.5873837 28 3200089123928 1 0
-56.829933 -80.318275 4.0085273 29 3200089126232 1 0
-26.745153 -42.01114 -2.3198557 9 3200089126232 1 0
-23.534168 -30.043024 -2.2225385 5 3200089123928 1 0
0 0 0 1 3200089128536 1 0
0 0 0 8 3200089130840 1 0
-27.500786 -38.85513 -2.4947503 11 3200089128536 1 0
-24.994688 -43.823315 -2.055392 29 3200089130840 1 0
0 0 0 9 3200089133144 1 0
0 0 0 29 3200089135448 1 0
-39.53377 -50.407207 -2.2370577 20 3200089133144 1 0
-30.03281 -47.114845 -1.3001304 33 3200089135448 1 0
-2.1981895 -3.0942967 -1.7699252 4 3200089156184 1 0
0 0 0 252 3200089156184 1 0
-33.2631 -46.808613 -1.671193 55 3200089158488 1 0
-3.426165 -5.3576884 -1.7802757 6 3200089158488 1 0
-5.2971954 -7.4520416 -1.8285977 64 3200089160792 1 0
-30.155098 -47.14013 0 22 3200089160792 1 0
-52.373272 -66.518715 -0.98562723 14 3200089163096 1 0
-6.3974047 -9.997576 -1.8465742 5 3200089163096 1 0
-8.900597 -12.51356 -1.9546322 12 3200089165400 1 0
-25.150412 -43.873653 0.2939201 33 3200089165400 1 0
-33.292263 -46.791977 -0.33376658 72 3200089167704 1 0
-7.994844 -12.48598 -1.5970312 16 3200089167704 1 0
-10.397836 -13.194328 -1.5681523 7 3200089170008 1 0
-31.986105 -49.938435 1.3799695 23 3200089170008 1 0
-52.525864 -66.63273 0.9877692 28 3200089172312 1 0
-16.454998 -25.682205 -2.132874 4 3200089172312 1 0
0 0 0 13 3200089174616 1 0
-14.622917 -20.533405 -2.0578701 9 3200089174616 1 0
-51.071194 -71.69177 1.53644 29 3200089176920 1 0
-16.730928 -29.13715 -2.1533225 4 3200089176920 1 0
-23.698257 -30.035929 -2.2281199 5 3200089179224 1 0
-60.934196 -95.01201 6.57343 28 3200089179224 1 0
-26.87869 -41.897346 -2.318739 9 3200089181528 1 0
-27.596825 -38.70361 -2.4911916 11 3200089183832 1 0
-57.279297 -80.35699 4.020414 29 3200089181528 1 0
0 0 0 1 3200089183832 1 0
-25.13954 -43.721943 -2.0547407 9 3200089186136 1 0
0 0 0 8 3200089186136 1 0
-39.806126 -50.39124 -2.242502 20 3200089188440 1 0
0 0 0 9 3200089188440 1 0
0 0 0 29 3200089190744 1 0
-30.248959 -47.090473 -1.3023636 33 3200089190744 1 0
-2.2153065 -3.0954487 -1.7749968 4 3200089211480 1 0
-33.47982 -46.76699 -1.6738694 55 3200089213784 1 0
0 0 0 113 3200089211480 1 0
-5.320892 -7.430317 -1.8278131 61 3200089216088 1 0
-30.390984 -47.145527 0 22 3200089216088 1 0
-3.4469326 -5.348934 -1.781354 6 3200089213784 1 0
-52.212475 -65.84033 -0.97827005 14 3200089218392 1 0
-6.430122 -9.971862 -1.8459592 6 3200089218392 1 0
-8.946534 -12.485641 -1.9551371 12 3200089220696 1 0
-27.002575 -46.725876 0.31365734 24 3200089220696 1 0
-33.536953 -46.789265 -0.33458024 72 3200089223000 1 0
-8.06641 -12.501439 -1.6026002 18 3200089223000 1 0
-10.446305 -13.161072 -1.5685241 7 3200089225304 1 0
-32.20577 -49.897034 1.3819236 11 3200089225304 1 0
-50.661537 -63.808304 0.9485155 28 3200089227608 1 0
-16.544544 -25.62461 -2.132874 4 3200089227608 1 0
-14.673588 -20.453083 -2.0549412 21 3200089229912 1 0
-25.040226 -43.27205 1.4549922 32 3200089229912 1 0
-16.870531 -29.14421 -2.158183 4 3200089232216 1 0
-23.807926 -29.959276 -2.228585 5 3200089234520 1 0
-50.94338 -70.98668 1.5251309 29 3200089232216 1 0
-61.14627 -94.61427 6.56064 28 3200089234520 1 0
-57.28903 -79.779976 4.001526 29 3200089236824 1 0
-27.020437 -41.796555 -2.3183668 18 3200089236824 1 0
-27.731756 -38.60704 -2.4911916 23 3200089239128 1 0
0 0 0 1 3200089239128 1 0
0 0 0 8 3200089241432 1 0
-26.26408 -45.31095 -2.1337128 10 3200089241432 1 0
-40.18587 -50.5085 -2.2539492 20 3200089243736 1 0
0 0 0 9 3200089243736 1 0
0 0 0 29 3200089246040 1 0
-30.489204 -47.102093 -1.3056204 33 3200089246040 1 0
-2.223978 -3.0847564 -1.7733063 4 3200089266776 1 0
0 0 0 14 3200089266776 1 0
-33.68496 -46.708214 -1.6759639 18 3200089269080 1 0
-3.4655828 -5.3368697 -1.781354 5 3200089269080 1 0
-5.351386 -7.41806 -1.8293821 61 3200089271384 1 0
-30.622913 -47.143143 0 22 3200089271384 1 0
-52.152428 -65.29515 -0.9728686 14 3200089273688 1 0
-6.460584 -9.942727 -1.8447294 6 3200089273688 1 0
-8.992385 -12.457553 -1.9556422 12 3200089275992 1 0
-27.21585 -46.717743 0.31423855 36 3200089275992 1 0
-33.77032 -46.769203 -0.33527768 10 3200089278296 1 0
-8.142518 -12.523219 -1.6090261 16 3200089278296 1 0
-10.492183 -13.124527 -1.5685241 17 3200089280600 1 0
-32.471317 -49.925106 1.3858318 12 3200089280600 1 0
-52.38775 -65.51157 0.9765472 28 3200089282904 1 0
-16.636066 -25.570047 -2.133153 4 3200089282904 1 0
-14.777586 -20.446974 -2.0594976 31 3200089285208 1 0
-25.179033 -43.16366 1.454294 23 3200089285208 1 0
-51.228348 -70.86028 1.5262479 29 3200089287512 1 0
-16.919851 -28.995502 -2.1515317 4 3200089287512 1 0
-23.929827 -29.897812 -2.230213 5 3200089289816 1 0
-61.371563 -94.23963 6.549477 28 3200089289816 1 0
-57.688976 -79.7479 4.0099926 29 3200089292120 1 0
-27.153084 -41.681896 -2.31725 18 3200089292120 1 0
-27.838251 -38.47117 -2.4886794 23 3200089294424 1 0
0 0 0 8 3200089296728 1 0
0 0 0 1 3200089294424 1 0
-25.298985 -43.296913 -2.043017 29 3200089296728 1 0
-40.39693 -50.41159 -2.2559035 20 3200089299032 1 0
0 0 0 9 3200089299032 1 0
0 0 0 29 3200089301336 1 0
-30.740824 -47.129353 -1.3093426 33 3200089301336 1 0
-2.2304716 -3.071108 -1.7699252 4 3200089322072 1 0
0 0 0 7 3200089322072 1 0
-51.172894 -70.436676 -2.5337856 28 3200089324376 1 0
-3.4842296 -5.3247147 -1.781354 5 3200089324376 1 0
-5.3819666 -7.4056025 -1.830951 45 3200089326680 1 0
-30.864645 -47.15265 0 22 3200089326680 1 0
-52.108177 -64.77187 -0.9677931 14 3200089328984 1 0
-6.497633 -9.92328 -1.8453443 3 3200089328984 1 0
-9.040844 -12.432243 -1.9566524 12 3200089331288 1 0
-27.414553 -46.680294 0.31463376 24 3200089331288 1 0
-51.37085 -70.61839 -0.5075428 28 3200089333592 1 0
-8.210612 -12.531014 -1.6137383 16 3200089333592 1 0
-10.568478 -13.124587 -1.5729854 22 3200089335896 1 0
-32.730865 -49.937122 1.3893678 12 3200089335896 1 0
-52.36853 -65.014145 0.97189075 28 3200089338200 1 0
-14.84771 -20.39118 -2.0591722 18 3200089340504 1 0
-16.728708 -25.514307 -2.133432 4 3200089338200 1 0
-25.469883 -43.30839 1.4622066 8 3200089340504 1 0
-51.33873 -70.483696 1.5220593 29 3200089342808 1 0
-17.012735 -28.917948 -2.1502526 4 3200089342808 1 0
-61.579903 -93.82671 6.535989 28 3200089345112 1 0
-24.066288 -29.849655 -2.2330036 5 3200089345112 1 0
-57.966297 -79.531715 4.0095043 29 3200089347416 1 0
-27.303936 -41.588017 -2.317436 18 3200089347416 1 0
-27.898062 -38.264805 -2.481771 23 3200089349720 1 0
0 0 0 8 3200089352024 1 0
0 0 0 1 3200089349720 1 0
-26.511 -45.00001 -2.127851 10 3200089352024 1 0
-40.690765 -50.406113 -2.2621853 21 3200089354328 1 0
0 0 0 9 3200089354328 1 0
0 0 0 29 3200089356632 1 0
-30.960804 -47.095245 -1.3114828 33 3200089356632 1 0
-2.245995 -3.068763 -1.7733063 4 3200089377368 1 0
-27.89122 -47.16148 -0.9563919 19 3200089377368 1 0
-51.5294 -70.384514 -2.5386727 28 3200089379672 1 0
-3.5015628 -5.3087187 -1.7802757 5 3200089379672 1 0
0 0 0 42 3200089381976 1 0
-31.113678 -47.156517 0 22 3200089381976 1 0
-52.102047 -64.283295 -0.96332294 14 3200089384280 1 0
-9.09068 -12.405689 -1.9576626 11 3200089386584 1 0
-6.535921 -9.90284 -1.8459592 3 3200089384280 1 0
-27.635057 -46.666348 0.31521496 37 3200089386584 1 0
-51.501442 -70.26054 -0.5063107 28 3200089388888 1 0
-8.288906 -12.550916 -1.6201642 16 3200089388888 1 0
-10.64103 -13.117156 -1.5767032 3 3200089391192 1 0
-34.48092 -52.193893 1.4556212 14 3200089391192 1 0
-52.318375 -64.47349 0.96662897 28 3200089393496 1 0
-14.942389 -20.36642 -2.0621011 9 3200089395800 1 0
-58.803413 -99.16762 3.355302 44 3200089395800 1 0
-16.823015 -25.457006 -2.133711 4 3200089393496 1 0
-17.13505 -28.887419 -2.152555 4 3200089398104 1 0
-24.165813 -29.753706 -2.2323058 5 3200089400408 1 0
-61.81964 -93.45834 6.5257564 28 3200089400408 1 0
-51.570824 -70.26941 1.521431 29 3200089398104 1 0
-58.109123 -79.130104 3.9997346 29 3200089402712 1 0
-27.430813 -41.456535 -2.315575 18 3200089402712 1 0
0 0 0 1 3200089405016 1 0
0 0 0 8 3200089407320 1 0
-26.640896 -44.85352 -2.1254084 20 3200089407320 1 0
-40.996227 -50.415874 -2.2691653 21 3200089409624 1 0
-27.99932 -38.116455 -2.4786308 23 3200089405016 1 0
0 0 0 9 3200089409624 1 0
0 0 0 29 3200089411928 1 0
-31.205383 -47.101524 -1.3147396 34 3200089411928 1 0
-2.254542 -3.0579865 -1.7716157 4 3200089432664 1 0
-28.106873 -47.149715 -0.9581371 19 3200089432664 1 0
-51.625267 -70.00149 -2.531342 28 3200089434968 1 0
-3.515808 -5.290047 -1.7781191 4 3200089434968 1 0
-5.4440284 -7.3796053 -1.8340889 4 3200089437272 1 0
-31.346746 -47.150883 0 22 3200089437272 1 0
-6.5682597 -9.876674 -1.8453443 5 3200089439576 1 0
-52.060543 -63.775696 -0.9584337 28 3200089439576 1 0
-9.143354 -12.386651 -1.9596828 11 3200089441880 1 0
-27.85519 -46.665768 0.31586587 37 3200089441880 1 0
-51.710743 -70.03207 -0.50596195 28 3200089444184 1 0
-10.719511 -13.120026 -1.5815363 1 3200089446488 1 0
-8.361309 -12.564948 -1.6257333 15 3200089444184 1 0
-33.322296 -50.05926 1.3993244 12 3200089446488 1 0
-52.229256 -63.90644 0.960855 28 3200089448792 1 0
-16.900717 -25.381521 -2.1323159 4 3200089448792 1 0
-15.011021 -20.310932 -2.0617757 6 3200089451096 1 0
-59.03229 -98.76613 3.3486695 44 3200089451096 1 0
-51.82293 -70.09862 1.5216404 29 3200089453400 1 0
-17.225538 -28.810299 -2.1512759 4 3200089453400 1 0
-24.350433 -29.768078 -2.2397478 5 3200089455704 1 0
-62.03033 -93.0692 6.5136633 28 3200089455704 1 0
-58.544235 -79.14206 4.010644 29 3200089458008 1 0
-27.568707 -41.35056 -2.3150165 9 3200089458008 1 0
-28.053791 -37.91252 -2.4717226 22 3200089460312 1 0
0 0 0 1 3200089460312 1 0
0 0 0 8 3200089462616 1 0
-26.778824 -44.72939 -2.123943 10 3200089462616 1 0
0 0 0 9 3200089464920 1 0
-41.184628 -50.28793 -2.2698634 21 3200089464920 1 0
0 0 0 29 3200089467224 1 0
-31.471739 -47.145306 -1.31902 34 3200089467224 1 0
-2.2652028 -3.0500982 -1.7716157 4 3200089487960 1 0
-50.60033 -68.11374 -2.4694374 28 3200089490264 1 0
-28.328959 -47.147305 -0.96009177 19 3200089487960 1 0
-3.5385005 -5.2841697 -1.7802757 5 3200089490264 1 0
-5.469648 -7.3606367 -1.8340889 4 3200089492568 1 0
-31.637346 -47.231064 0 33 3200089492568 1 0
-52.037613 -63.298115 -0.95396346 14 3200089494872 1 0
-6.600281 -9.850547 -1.8447294 4 3200089494872 1 0
-9.193279 -12.364479 -1.9611981 11 3200089497176 1 0
-28.078419 -46.67189 0.3165633 37 3200089497176 1 0
-50.916355 -68.46007 -0.49587247 28 3200089499480 1 0
-8.433453 -12.578933 -1.6313022 16 3200089499480 1 0
-10.873483 -13.215242 -1.5975226 5 3200089501784 1 0
-51.654114 -77.02179 2.1579819 28 3200089501784 1 0
-52.273388 -63.513317 0.9576421 28 3200089504088 1 0
-16.992369 -25.329865 -2.132874 4 3200089504088 1 0
-15.068746 -20.243298 -2.0601485 3 3200089506392 1 0
-59.19766 -98.27522 3.338895 44 3200089506392 1 0
-51.971962 -69.798805 1.5189877 29 3200089508696 1 0
-17.340601 -28.778482 -2.1533225 4 3200089508696 1 0
-24.462193 -29.697006 -2.2406778 5 3200089511000 1 0
-62.234547 -92.68756 6.501803 28 3200089511000 1 0
-59.069313 -79.28486 4.0280666 29 3200089513304 1 0
-27.642744 -41.15678 -2.3094327 9 3200089513304 1 0
-28.151628 -37.77519 -2.469001 22 3200089515608 1 0
0 0 0 1 3200089515608 1 0
0 0 0 8 3200089517912 1 0
-26.914059 -44.610813 -2.1226404 10 3200089517912 1 0
-41.586254 -50.42873 -2.2825668 21 3200089520216 1 0
0 0 0 9 3200089520216 1 0
0 0 0 29 3200089522520 1 0
-31.733631 -47.191257 -1.3233005 34 3200089522520 1 0
-2.2731338 -3.0396664 -1.7699252 4 3200089543256 1 0
-28.551428 -47.162586 -0.9623257 19 3200089543256 1 0
-50.517464 -67.53218 -2.4544265 28 3200089545560 1 0
-3.5581963 -5.275574 -1.781354 4 3200089545560 1 0
-5.4964833 -7.345519 -1.8348733 5 3200089547864 1 0
-31.886206 -47.26138 0 34 3200089547864 1 0
-51.968075 -62.785133 -0.9488414 28 3200089550168 1 0
-6.6353354 -9.831737 -1.8453443 3 3200089550168 1 0
-9.232212 -12.33048 -1.960693 11 3200089552472 1 0
-28.290373 -46.670055 0.317191 37 3200089552472 1 0
-50.687595 -67.6775 -0.49143216 28 3200089554776 1 0
-8.506736 -12.596731 -1.6372997 14 3200089554776 1 0
-10.953393 -13.221573 -1.6027275 27 3200089557080 1 0
-51.55444 -76.31761 2.1430936 28 3200089557080 1 0
-52.213863 -63.007423 0.95265967 28 3200089559384 1 0
-17.077559 -25.272507 -2.132874 4 3200089559384 1 0
-15.16088 -20.224236 -2.0634031 3 3200089561688 1 0
-60.097374 -99.01143 3.3707783 44 3200089561688 1 0
-50.739285 -67.66443 1.4762641 29 3200089563992 1 0
-17.419172 -28.68897 -2.15102 4 3200089563992 1 0
-24.659563 -29.730732 -2.249515 5 3200089566296 1 0
-62.45433 -92.337204 6.492036 28 3200089566296 1 0
-59.412594 -79.1829 4.0331144 29 3200089568600 1 0
-27.77564 -41.05274 -2.3088744 9 3200089568600 1 0
-28.34477 -37.765415 -2.4746532 11 3200089570904 1 0
0 0 0 1 3200089570904 1 0
0 0 0 8 3200089573208 1 0
-27.078512 -44.53925 -2.1236174 10 3200089573208 1 0
-41.758373 -50.286297 -2.2825668 21 3200089575512 1 0
0 0 0 9 3200089575512 1 0
0 0 0 29 3200089577816 1 0
-31.96237 -47.18161 -1.326092 34 3200089577816 1 0
-2.290274 -3.0404 -1.7749968 4 3200089598552 1 0
-28.772127 -47.154816 -0.96421057 19 3200089598552 1 0
-50.73123 -67.3267 -2.4533794 28 3200089600856 1 0
-3.578755 -5.2663074 -1.7824323 4 3200089600856 1 0
-5.526812 -7.3325524 -1.8364424 5 3200089603160 1 0
-32.10945 -47.235798 0 34 3200089603160 1 0
-6.671837 -9.811784 -1.8459592 4 3200089605464 1 0
-50.232822 -60.25922 -0.9133128 40 3200089605464 1 0
-9.272807 -12.295011 -1.9601879 11 3200089607768 1 0
-28.521927 -46.68366 0.31795818 37 3200089607768 1 0
-50.805485 -67.34368 -0.49029303 28 3200089610072 1 0
-8.581976 -12.612993 -1.6432971 16 3200089610072 1 0
-11.017339 -13.204664 -1.60533 25 3200089612376 1 0
-51.399765 -75.519 2.1256926 28 3200089612376 1 0
-50.280685 -60.24534 0.91354567 27 3200089614680 1 0
-17.156689 -25.199549 -2.1317577 4 3200089614680 1 0
-15.192945 -20.120285 -2.0581958 3 3200089616984 1 0
-59.347195 -97.01044 3.3096883 44 3200089616984 1 0
-52.42148 -69.4017 1.51815 29 3200089619288 1 0
-17.527544 -28.64161 -2.1520433 4 3200089619288 1 0
-24.665913 -29.528017 -2.2406778 5 3200089621592 1 0
-62.64584 -91.927246 6.4785476 28 3200089621592 1 0
-59.587418 -78.84111 4.0262756 29 3200089623896 1 0
-27.907518 -40.939026 -2.3079438 9 3200089623896 1 0
-28.514967 -37.717228 -2.4780028 11 3200089626200 1 0
0 0 0 1 3200089626200 1 0
0 0 0 8 3200089628504 1 0
-27.258877 -44.485348 -2.1255713 10 3200089628504 1 0
0 0 0 9 3200089630808 1 0
-42.092655 -50.33035 -2.2912219 22 3200089630808 1 0
0 0 0 29 3200089633112 1 0
-32.201263 -47.17875 -1.3291628 34 3200089633112 1 0
-2.294299 -3.023723 -1.7699252 4 3200089654296 1 0
-29.011972 -47.17674 -0.9667237 19 3200089654296 1 0
-51.031693 -67.23482 -2.456521 28 3200089656600 1 0
-3.5949779 -5.2505784 -1.781354 5 3200089656600 1 0
-5.5501084 -7.310011 -1.8356578 4 3200089658904 1 0
-32.356194 -47.241764 0 34 3200089658904 1 0
-51.876686 -61.78863 -0.93924916 28 3200089661208 1 0
-6.7062593 -9.788288 -1.8459592 3 3200089661208 1 0
-9.301622 -12.243339 -1.9571575 19 3200089663512 1 0
-28.751085 -46.68856 0.31867886 37 3200089663512 1 0
-52.48273 -69.05894 -0.5041254 28 3200089665816 1 0
-8.660141 -12.631848 -1.6497229 16 3200089665816 1 0
0 0 0 84 3200089668120 1 0
-51.38816 -74.93122 2.1142473 28 3200089668120 1 0
-52.040535 -61.90695 0.9415308 28 3200089670424 1 0
-17.25937 -25.158371 -2.133432 4 3200089670424 1 0
-15.307699 -20.123356 -2.064054 3 3200089672728 1 0
-59.57987 -96.618835 3.3035212 44 3200089672728 1 0
-52.508106 -69.00478 1.5135425 58 3200089675032 1 0
-17.70054 -28.69461 -2.1607416 4 3200089675032 1 0
-24.740124 -29.403269 -2.2378871 5 3200089677336 1 0
-56.99173 -82.99328 5.863204 28 3200089677336 1 0
-52.573532 -69.047 3.5356715 29 3200089679640 1 0
-28.04447 -40.825943 -2.3071992 18 3200089679640 1 0
0 0 0 1 3200089681944 1 0
-28.661837 -37.63085 -2.4790497 11 3200089681944 1 0
-27.434994 -44.414536 -2.126874 10 3200089684248 1 0
-52.574867 -69.005005 7.0819635 28 3200089684248 1 0
-42.38394 -50.31027 -2.2972245 22 3200089686552 1 0
0 0 0 9 3200089686552 1 0
0 0 0 29 3200089688856 1 0
-32.461536 -47.19432 -1.3328849 34 3200089688856 1 0
-2.3097699 -3.0210536 -1.7733063 5 3200089709592 1 0
-52.05455 -68.06401 -2.493757 28 3200089711896 1 0
-29.256346 -47.185654 -0.9690972 29 3200089709592 1 0
-3.6119723 -5.234223 -1.7802757 4 3200089711896 1 0
-5.579141 -7.2928157 -1.8364424 4 3200089714200 1 0
-32.619335 -47.255005 0 34 3200089714200 1 0
-51.85091 -61.30299 -0.93473244 28 3200089716504 1 0
-6.741877 -9.76379 -1.8459592 4 3200089716504 1 0
-28.975512 -46.672066 0.31928328 37 3200089718808 1 0
-9.358139 -12.22519 -1.9596828 27 3200089718808 1 0
-52.431446 -68.47423 -0.5012427 28 3200089721112 1 0
-8.737572 -12.646147 -1.6557204 15 3200089721112 1 0
-11.1990385 -13.228839 -1.6179703 1 3200089723416 1 0
-51.354523 -74.30381 2.1017783 28 3200089723416 1 0
-52.036484 -61.449852 0.9374331 28 3200089725720 1 0
-17.284382 -25.000643 -2.1253402 4 3200089725720 1 0
-15.38746 -20.077503 -2.0650303 3 3200089728024 1 0
-59.906876 -96.36935 3.3023574 44 3200089728024 1 0
-52.505535 -68.4884 1.5063521 58 3200089730328 1 0
-17.810041 -28.640879 -2.161509 4 3200089730328 1 0
-24.848175 -29.317247 -2.2381198 5 3200089732632 1 0
-63.086178 -91.16466 6.4564548 28 3200089732632 1 0
-52.596947 -68.56632 3.5206914 29 3200089734936 1 0
-28.172464 -40.698853 -2.3057103 9 3200089734936 1 0
-28.810883 -37.547073 -2.4803057 11 3200089737240 1 0
0 0 0 1 3200089737240 1 0
-52.66314 -68.611275 7.060809 28 3200089739544 1 0
-27.60397 -44.333256 -2.1276882 10 3200089739544 1 0
-42.72331 -50.3479 -2.3058796 22 3200089741848 1 0
0 0 0 9 3200089741848 1 0
0 0 0 29 3200089744152 1 0
-32.69977 -47.180473 -1.3357695 34 3200089744152 1 0
-2.322513 -3.0158448 -1.7749968 4 3200089764888 1 0
-29.456903 -47.1409 -0.970284 29 3200089764888 1 0
-39.406136 -51.15452 -1.8792485 22 3200089767192 1 0
-3.6346188 -5.227908 -1.7824323 5 3200089767192 1 0
-5.606958 -7.2764034 -1.8372267 4 3200089769496 1 0
-32.854885 -47.242657 0 34 3200089769496 1 0
-51.818188 -60.832367 -0.9303088 28 3200089771800 1 0
-6.7736607 -9.736952 -1.8453443 5 3200089771800 1 0
-9.388641 -12.176738 -1.9571575 23 3200089774104 1 0
-29.206142 -46.67915 0.3200272 37 3200089774104 1 0
-52.42098 -67.96772 -0.49887142 28 3200089776408 1 0
-8.815743 -12.664531 -1.6621462 15 3200089776408 1 0
0 0 0 15 3200089778712 1 0
-51.975555 -60.945248 0.9324973 28 3200089781016 1 0
-17.417156 -25.005642 -2.1309206 4 3200089781016 1 0
-51.37136 -73.77624 2.0919147 28 3200089778712 1 0
-15.445269 -20.007889 -2.0634031 3 3200089783320 1 0
-60.11766 -95.95974 3.2954922 44 3200089783320 1 0
-52.46563 -67.94384 1.4983938 58 3200089785624 1 0
-17.895071 -28.554857 -2.1597183 4 3200089785624 1 0
-24.960732 -29.242481 -2.23905 5 3200089787928 1 0
-63.292114 -90.78338 6.4450593 28 3200089787928 1 0
-52.51341 -67.964836 3.4991977 29 3200089790232 1 0
-28.307503 -40.59043 -2.305152 9 3200089790232 1 0
0 0 0 1 3200089792536 1 0
-28.885588 -37.373585 -2.4754908 11 3200089792536 1 0
-52.66335 -68.117935 7.028914 28 3200089794840 1 0
-27.75218 -44.226475 -2.1271996 10 3200089794840 1 0
-42.9845 -50.298748 -2.3104863 23 3200089797144 1 0
0 0 0 9 3200089797144 1 0
0 0 0 29 3200089799448 1 0
-32.946682 -47.184074 -1.3391194 34 3200089799448 1 0
-2.3352482 -3.0105839 -1.7766871 4 3200089820184 1 0
-29.706524 -47.17316 -0.97307634 30 3200089820184 1 0
-39.7336 -51.209637 -1.8863466 68 3200089822488 1 0
-3.6550174 -5.218371 -1.7835106 4 3200089822488 1 0
-5.6298127 -7.2537704 -1.8364424 3 3200089824792 1 0
-33.09465 -47.23627 0 34 3200089824792 1 0
-51.768475 -60.34867 -0.9256524 27 3200089827096 1 0
-6.8096642 -9.716634 -1.8459592 4 3200089827096 1 0
-9.440471 -12.156702 -1.9591777 15 3200089829400 1 0
-52.37817 -67.42928 -0.49624443 28 3200089831704 1 0
-29.437952 -46.689426 0.32079437 37 3200089829400 1 0
-8.900538 -12.692615 -1.6698571 15 3200089831704 1 0
-11.404696 -13.283784 -1.6343285 23 3200089834008 1 0
-51.22349 -73.0258 2.0756304 28 3200089834008 1 0
-51.932114 -60.47177 0.9279806 28 3200089836312 1 0
-17.516819 -24.965181 -2.1325948 4 3200089836312 1 0
-15.521195 -19.9642 -2.0643795 3 3200089838616 1 0
-54.246426 -85.93106 2.9574602 44 3200089838616 1 0
-18.06737 -28.611528 -2.1686723 4 3200089840920 1 0
-52.440247 -67.43224 1.4910638 58 3200089840920 1 0
-25.052725 -29.147911 -2.2383523 5 3200089843224 1 0
-63.489582 -90.406395 6.433664 28 3200089843224 1 0
-52.487198 -67.45414 3.4821007 29 3200089845528 1 0
-28.395248 -40.42172 -2.301057 9 3200089845528 1 0
-29.054327 -37.328648 -2.4790497 11 3200089847832 1 0
0 0 0 1 3200089847832 1 0
-52.5466 -67.49199 6.982699 28 3200089850136 1 0
-27.949205 -44.206287 -2.130782 10 3200089850136 1 0
-43.305935 -50.328545 -2.318583 23 3200089852440 1 0
0 0 0 9 3200089852440 1 0
-33.19347 -47.19669 -1.3426554 34 3200089854744 1 0
-2.3429873 -2.9999661 -1.7749968 4 3200089875480 1 0
-29.946346 -47.2061 -0.97579896 30 3200089875480 1 0
0 0 0 29 3200089854744 1 0
-39.920803 -51.09936 -1.8871611 68 3200089877784 1 0
-3.6701195 -5.2030473 -1.7824323 6 3200089877784 1 0
-5.6563563 -7.23807 -1.8372267 3 3200089880088 1 0
-33.244877 -47.115974 0 34 3200089880088 1 0
-51.721268 -59.887962 -0.92122877 27 3200089882392 1 0
-6.844339 -9.697079 -1.8465742 4 3200089882392 1 0
-9.490861 -12.137557 -1.9611981 5 3200089884696 1 0
-29.662601 -46.698734 0.3215383 38 3200089884696 1 0
-52.322994 -66.89414 -0.4935942 28 3200089887000 1 0
-8.9705715 -12.701686 -1.6749978 15 3200089887000 1 0
-11.483121 -13.284562 -1.6391616 7 3200089889304 1 0
-51.122444 -72.36338 2.0616724 28 3200089889304 1 0
-51.879055 -60.000065 0.92341727 27 3200089891608 1 0
-17.600777 -24.906061 -2.1325948 4 3200089891608 1 0
-15.595845 -19.92113 -2.0653558 3 3200089893912 1 0
-51.83459 -81.49996 2.81096 31 3200089893912 1 0
-52.34988 -66.848335 1.4820584 58 3200089896216 1 0
-18.099735 -28.449228 -2.1609974 4 3200089896216 1 0
-25.15136 -29.062845 -2.2383523 5 3200089898520 1 0
-63.67568 -90.021194 6.4215713 28 3200089898520 1 0
-52.434956 -66.91686 3.4635382 29 3200089900824 1 0
-28.536976 -40.331577 -2.3014293 9 3200089900824 1 0
-29.16888 -37.21383 -2.4780028 11 3200089903128 1 0
0 0 0 1 3200089903128 1 0
-52.52804 -66.99551 6.9498277 28 3200089905432 1 0
-28.123436 -44.147785 -2.1325731 10 3200089905432 1 0
-24.583002 -28.372723 -1.3109647 6 3200089907736 1 0
0 0 0 9 3200089907736 1 0
0 0 0 29 3200089910040 1 0
-33.28096 -46.978302 -1.3396777 46 3200089910040 1 0
-2.3512034 -2.98892 -1.7733063 4 3200089930776 1 0
-39.809647 -50.592064 -1.8735467 22 3200089933080 1 0
-30.14972 -47.161934 -0.97705555 30 3200089930776 1 0
-3.6882591 -5.1902046 -1.7824323 4 3200089933080 1 0
-5.6840134 -7.2213635 -1.8380113 3 3200089935384 1 0
-33.25155 -46.777946 0 46 3200089935384 1 0
-51.748886 -59.498817 -0.91801584 13 3200089937688 1 0
-6.882727 -9.67957 -1.847804 3 3200089937688 1 0
-9.523351 -12.091885 -1.9591777 5 3200089939992 1 0
-29.892279 -46.69934 0.32225898 38 3200089939992 1 0
-50.392742 -63.964977 -0.47327575 28 3200089942296 1 0
-9.0494375 -12.718903 -1.6814237 21 3200089942296 1 0
-11.618332 -13.346532 -1.651802 1 3200089944600 1 0
-51.14285 -71.85869 2.0523672 28 3200089944600 1 0
-51.854412 -59.550144 0.9192731 27 3200089946904 1 0
-17.680666 -24.834719 -2.1317577 4 3200089946904 1 0
-15.657883 -19.857176 -2.0643795 3 3200089949208 1 0
0 0 0 3 3200089949208 1 0
-50.45532 -63.96781 1.4220918 29 3200089951512 1 0
-18.19893 -28.385876 -2.1609974 4 3200089951512 1 0
-25.247406 -28.968851 -2.2378871 5 3200089953816 1 0
-63.901463 -89.6748 6.412734 28 3200089953816 1 0
-52.432995 -66.43538 3.4480696 29 3200089956120 1 0
-28.733248 -40.309807 -2.3058963 9 3200089956120 1 0
-29.32583 -37.14627 -2.4803057 11 3200089958424 1 0
0 0 0 1 3200089958424 1 0
-52.435432 -66.39874 6.9068675 28 3200089960728 1 0
-28.288164 -44.066166 -2.133387 10 3200089960728 1 0
-24.66875 -28.271679 -1.3102667 6 3200089963032 1 0
0 0 0 9 3200089963032 1 0
0 0 0 29 3200089965336 1 0
-33.323944 -46.692585 -1.334839 46 3200089965336 1 0
-2.366125 -2.9863775 -1.7766871 4 3200089986072 1 0
-30.402964 -47.194252 -0.9799177 30 3200089986072 1 0
-40.080376 -50.57187 -1.8779685 45 3200089988376 1 0
-3.706354 -5.1772985 -1.7824323 4 3200089988376 1 0
-5.7067494 -7.198405 -1.8372267 3 3200089990680 1 0
-33.465866 -46.73314 0 69 3200089990680 1 0
-33.577213 -38.334686 -0.59327614 13 3200089992984 1 0
-6.9141717 -9.652273 -1.8471891 2 3200089992984 1 0
-9.555637 -12.046133 -1.9571575 4 3200089995288 1 0
-30.126657 -46.70564 0.32302615 38 3200089995288 1 0
-52.27158 -65.875496 -0.48875868 28 3200089997592 1 0
-9.114632 -12.716329 -1.6852791 4 3200089997592 1 0
-11.740987 -13.392744 -1.6625835 3 3200089999896 1 0
-51.090454 -71.25724 2.0402703 28 3200089999896 1 0
-33.483475 -38.182827 0.59122735 8 3200090002200 1 0
-17.71841 -24.704758 -2.1258984 4 3200090002200 1 0
-15.73454 -19.811766 -2.0653558 3 3200090004504 1 0
-51.536774 -79.79599 2.7645316 33 3200090004504 1 0
-52.267982 -65.79231 1.4667002 58 3200090006808 1 0
-18.271912 -28.281942 -2.1579273 4 3200090006808 1 0
-25.361544 -28.895552 -2.23905 5 3200090009112 1 0
-64.06739 -89.246826 6.398083 28 3200090009112 1 0
-52.321373 -65.8202 3.425599 29 3200090011416 1 0
-28.880774 -40.218998 -2.3064547 9 3200090011416 1 0
-29.316095 -36.868587 -2.4685824 11 3200090013720 1 0
0 0 0 1 3200090013720 1 0
-52.403828 -65.884575 6.872369 28 3200090016024 1 0
-28.51996 -44.08796 -2.139249 10 3200090016024 1 0
-24.735622 -28.149363 -1.3085915 13 3200090018328 1 0
0 0 0 9 3200090018328 1 0
0 0 0 29 3200090020632 1 0
-33.563763 -46.683125 -1.3379097 69 3200090020632 1 0
-2.3742738 -2.9752665 -1.7749968 4 3200090041368 1 0
-30.654623 -47.22202 -0.9827101 30 3200090041368 1 0
-40.294075 -50.478527 -1.8797139 22 3200090043672 1 0
-3.7289097 -5.170578 -1.7845889 4 3200090043672 1 0
-5.7318416 -7.178441 -1.8372267 2 3200090045976 1 0
0 0 0 23 3200090048280 1 0
-33.7224 -46.745796 0 34 3200090045976 1 0
-6.952448 -9.63449 -1.8484188 2 3200090048280 1 0
-9.607535 -12.0251045 -1.9591777 4 3200090050584 1 0
-30.363623 -46.71422 0.3238166 38 3200090050584 1 0
-52.16908 -65.277054 -0.48566675 28 3200090052888 1 0
-9.231137 -12.784389 -1.6985592 2 3200090052888 1 0
-11.814023 -13.381535 -1.6663013 22 3200090055192 1 0
-51.14454 -70.8094 2.032547 28 3200090055192 1 0
-33.823067 -38.29956 0.59485936 8 3200090057496 1 0
-17.865297 -24.726852 -2.133153 4 3200090057496 1 0
-15.798619 -19.750494 -2.064705 3 3200090059800 1 0
-51.56419 -79.230225 2.75115 33 3200090059800 1 0
-52.254948 -65.30656 1.4599288 58 3200090062104 1 0
-18.370522 -28.217989 -2.1579273 4 3200090062104 1 0
-25.44903 -28.791887 -2.2378871 5 3200090064408 1 0
-64.305984 -88.92234 6.390874 28 3200090064408 1 0
-52.303516 -65.328285 3.409479 29 3200090066712 1 0
-29.04909 -40.15679 -2.3086882 9 3200090066712 1 0
-29.284803 -36.566486 -2.4551845 11 3200090069016 1 0
0 0 0 1 3200090069016 1 0
-52.374256 -65.377655 6.838521 28 3200090071320 1 0
-28.778442 -44.14885 -2.1470647 10 3200090071320 1 0
-24.714518 -27.928131 -1.3023096 13 3200090073624 1 0
0 0 0 9 3200090073624 1 0
0 0 0 29 3200090075928 1 0
-33.806267 -46.675793 -1.3410735 23 3200090075928 1 0
-2.384645 -2.9669604 -1.7749968 4 3200090096664 1 0
-30.860868 -47.17832 -0.9840365 30 3200090096664 1 0
0 0 0 75 3200090098968 1 0
-3.7423327 -5.151352 -1.7824323 4 3200090098968 1 0
-5.759114 -7.1616135 -1.8380113 3 3200090101272 1 0
0 0 0 28 3200090103576 1 0
-6.985617 -9.610467 -1.8484188 2 3200090103576 1 0
-9.651242 -11.995148 -1.9596828 4 3200090105880 1 0
0 0 0 3 3200090101272 1 0
-30.58953 -46.71011 0.324514 38 3200090105880 1 0
-52.113514 -64.75247 -0.48308626 28 3200090108184 1 0
-9.30051 -12.788142 -1.7032715 2 3200090108184 1 0
-11.90448 -13.391852 -1.6726215 22 3200090110488 1 0
-51.47698 -70.76105 2.0361762 28 3200090110488 1 0
-34.141365 -38.39694 0.5981654 26 3200090112792 1 0
-17.946642 -24.662941 -2.132874 4 3200090112792 1 0
-15.877677 -19.712597 -2.066332 3 3200090115096 1 0
0 0 0 3 3200090115096 1 0
-52.20559 -64.797386 1.4524591 58 3200090117400 1 0
-18.465223 -28.156109 -2.1579273 4 3200090117400 1 0
-64.560776 -88.64862 6.3866878 28 3200090119704 1 0
-25.439018 -28.587269 -2.228585 5 3200090119704 1 0
-52.24992 -64.817665 3.3918934 29 3200090122008 1 0
-29.213263 -40.1018 -2.3111079 9 3200090122008 1 0
-29.318146 -36.36034 -2.4478574 11 3200090124312 1 0
0 0 0 1 3200090124312 1 0
-29.029337 -44.21396 -2.1548805 10 3200090126616 1 0
-52.327023 -64.87855 6.804348 28 3200090126616 1 0
-24.774275 -27.810923 -1.3006344 20 3200090128920 1 0
0 0 0 9 3200090128920 1 0
0 0 0 29 3200090131224 1 0
-51.388298 -70.464485 -2.0293832 29 3200090131224 1 0
-2.3939543 -2.9594543 -1.7749968 4 3200090151960 1 0
-31.092525 -47.208057 -0.98668927 30 3200090151960 1 0
-40.910023 -50.558002 -1.8927464 23 3200090154264 1 0
-3.7631574 -5.1457057 -1.7845889 4 3200090154264 1 0
-5.7843637 -7.1462817 -1.8387957 3 3200090156568 1 0
-51.58938 -70.52022 0 28 3200090156568 1 0
-51.529026 -57.63967 -0.90008855 13 3200090158872 1 0
-7.0257387 -9.600773 -1.8508785 2 3200090158872 1 0
-9.69242 -11.967007 -1.9601879 4 3200090161176 1 0
-30.812862 -46.721287 0.32528117 39 3200090161176 1 0
-52.087036 -64.29058 -0.48090097 28 3200090163480 1 0
0 0 0 55 3200090163480 1 0
0 0 0 28 3200090165784 1 0
-51.53104 -70.35026 2.0291972 28 3200090165784 1 0
-51.716278 -57.778057 0.90274274 26 3200090168088 1 0
-18.037226 -24.61656 -2.13399 4 3200090168088 1 0
-15.937937 -19.653643 -2.0656812 3 3200090170392 1 0
-51.502625 -77.9893 2.719965 34 3200090170392 1 0
-52.157036 -64.29664 1.445129 58 3200090172696 1 0
-18.567905 -28.10764 -2.1589508 4 3200090172696 1 0
-25.556238 -28.525433 -2.2304454 5 3200090175000 1 0
-64.721275 -88.24445 6.3731995 28 3200090175000 1 0
-52.21441 -64.327194 3.3754478 29 3200090177304 1 0
-29.33452 -39.98345 -2.3099911 9 3200090177304 1 0
-30.383417 -37.420135 -2.526152 11 3200090179608 1 0
0 0 0 1 3200090179608 1 0
-52.22973 -64.30592 6.763015 28 3200090181912 1 0
-29.290857 -44.280937 -2.163022 10 3200090181912 1 0
-24.784575 -27.630136 -1.2961673 19 3200090184216 1 0
0 0 0 9 3200090184216 1 0
0 0 0 29 3200090186520 1 0
-51.627686 -70.27936 -2.0291972 29 3200090186520 1 0
-2.4047852 -2.9506602 -1.7749968 5 3200090207256 1 0
-31.38037 -47.26704 -0.9903194 30 3200090207256 1 0
-41.19611 -50.531677 -1.897401 23 3200090209560 1 0
-3.779707 -5.128778 -1.7835106 4 3200090209560 1 0
-5.8105173 -7.125033 -1.8387957 3 3200090211864 1 0
-51.8475 -70.330666 0 28 3200090211864 1 0
-25.559477 -28.38045 -0.4446428 8 3200090214168 1 0
-7.0679173 -9.584501 -1.8527232 2 3200090214168 1 0
-9.741234 -11.93755 -1.9611981 4 3200090216472 1 0
-31.059187 -46.721294 0.32607162 39 3200090216472 1 0
-52.074448 -63.79557 -0.4786227 28 3200090218776 1 0
-9.452485 -12.809918 -1.7148379 25 3200090218776 1 0
-12.133099 -13.459809 -1.6915821 1 3200090221080 1 0
-51.700672 -70.04187 2.0257542 28 3200090221080 1 0
-51.65449 -57.285133 0.89799315 25 3200090223384 1 0
-18.110737 -24.527815 -2.132037 4 3200090223384 1 0
0 0 0 66 3200090225688 1 0
-51.342804 -77.13101 2.696576 34 3200090225688 1 0
-52.083572 -63.72724 1.4366122 58 3200090227992 1 0
-18.684074 -28.05933 -2.1604857 4 3200090227992 1 0
-25.652592 -28.42268 -2.2297478 5 3200090230296 1 0
-64.92797 -87.84929 6.361804 28 3200090230296 1 0
-52.186695 -63.81363 3.3585134 29 3200090232600 1 0
-29.461868 -39.849964 -2.3085022 9 3200090232600 1 0
0 0 0 8 3200090234904 1 0
0 0 0 1 3200090234904 1 0
-52.220165 -63.814777 6.731446 28 3200090237208 1 0
-29.46626 -44.193237 -2.163999 10 3200090237208 1 0
-24.877638 -27.530212 -1.2957485 19 3200090239512 1 0
0 0 0 9 3200090239512 1 0
0 0 0 29 3200090241816 1 0
-51.811165 -69.99003 -2.0263126 29 3200090241816 1 0
-31.653494 -47.30128 -0.9934608 30 3200090262552 1 0
-2.4155836 -2.9418263 -1.7749968 5 3200090262552 1 0
-41.535847 -50.568817 -1.904499 23 3200090264856 1 0
-3.7984793 -5.11489 -1.7835106 4 3200090264856 1 0
-5.8415728 -7.10975 -1.8403647 3 3200090267160 1 0
-51.96658 -69.953926 0 28 3200090267160 1 0
0 0 0 10 3200090269464 1 0
-7.1053567 -9.561704 -1.8533381 2 3200090269464 1 0
-9.787441 -11.904832 -1.9617032 4 3200090271768 1 0
-31.310379 -46.72677 0.32690853 39 3200090271768 1 0
-51.970005 -63.19339 -0.47553077 28 3200090274072 1 0
-9.532595 -12.819867 -1.7208353 18 3200090274072 1 0
0 0 0 15 3200090276376 1 0
-51.95704 -69.851906 2.0257542 28 3200090276376 1 0
-51.638203 -56.846733 0.8940818 25 3200090278680 1 0
-18.20766 -24.470875 -2.132874 4 3200090278680 1 0
-11.057192 -13.432542 -1.4202982 88 3200090280984 1 0
-51.333324 -76.50737 2.6813326 35 3200090280984 1 0
-52.06257 -63.227177 1.4296314 58 3200090283288 1 0
-18.789017 -27.993977 -2.1607416 4 3200090283288 1 0
-25.735102 -28.30483 -2.2278874 5 3200090285592 1 0
-65.23044 -87.585106 6.359944 28 3200090285592 1 0
-52.15592 -63.301136 3.3415792 29 3200090287896 1 0
-29.7056 -39.873085 -2.3161333 9 3200090287896 1 0
-29.724518 -36.065136 -2.4493227 11 3200090290200 1 0
0 0 0 1 3200090290200 1 0
-52.189957 -63.303036 6.697598 28 3200090292504 1 0
-29.730589 -44.23753 -2.1714892 10 3200090292504 1 0
-24.911097 -27.364943 -1.2922586 19 3200090294808 1 0
0 0 0 9 3200090294808 1 0
0 0 0 29 3200090297112 1 0
-50.943554 -68.293144 -1.9825778 29 3200090297112 1 0
-2.4327688 -2.9417574 -1.7800682 4 3200090317296 1 0
-49.999557 -60.44266 -2.2829087 27 3200090319600 1 0
-31.925734 -47.34967 -0.9968116 30 3200090317296 1 0
-3.8185809 -5.104712 -1.7845889 4 3200090319600 1 0
-5.8687525 -7.0924225 -1.8411491 2 3200090321904 1 0
0 0 0 14 3200090324208 1 0
-7.1384816 -9.536999 -1.8533381 2 3200090324208 1 0
-52.21662 -69.78247 0 28 3200090321904 1 0
-9.826061 -11.867824 -1.9611981 4 3200090326512 1 0
-51.999184 -62.78553 -0.47381046 28 3200090328816 1 0
0 0 0 4 3200090328816 1 0
-31.548033 -46.73082 0.32769895 39 3200090326512 1 0
-12.341398 -13.496621 -1.7071966 24 3200090331120 1 0
-52.166344 -69.63079 2.0245445 28 3200090331120 1 0
-51.625572 -56.44152 0.8904963 25 3200090333424 1 0
-18.294119 -24.411293 -2.133153 4 3200090333424 1 0
-11.103234 -13.394509 -1.4202982 15 3200090335728 1 0
-51.250813 -75.82059 2.663413 35 3200090335728 1 0
-18.898207 -27.949297 -2.1622765 4 3200090338032 1 0
-52.018444 -62.734455 1.4225107 58 3200090338032 1 0
-25.853268 -28.240267 -2.2297478 5 3200090340336 1 0
-65.4168 -87.2115 6.349014 28 3200090340336 1 0
-52.116318 -62.815292 3.3252964 29 3200090342640 1 0
-29.848616 -39.781128 -2.3166916 9 3200090342640 1 0
-30.974646 -37.32239 -2.5418527 11 3200090344944 1 0
0 0 0 1 3200090344944 1 0
-52.155083 -62.824818 6.6657033 28 3200090347248 1 0
-29.988203 -44.295166 -2.179305 10 3200090347248 1 0
-24.990185 -27.26563 -1.2915605 33 3200090349552 1 0
0 0 0 9 3200090349552 1 0
0 0 0 29 3200090351856 1 0
-50.89318 -67.74641 -1.9716907 29 3200090351856 1 0
-2.4430227 -2.9332476 -1.7800682 4 3200090372592 1 0
-32.11779 -47.27764 -0.9976494 30 3200090372592 1 0
-42.634064 -51.175533 -1.9384768 23 3200090374896 1 0
-3.8386202 -5.0944834 -1.7856672 4 3200090374896 1 0
-5.895779 -7.0750785 -1.8419336 2 3200090377200 1 0
-50.905003 -67.540955 0 57 3200090377200 1 0
-26.310566 -28.599998 -0.45241904 37 3200090379504 1 0
-7.1689343 -9.50918 -1.8527232 2 3200090379504 1 0
-9.874362 -11.843169 -1.9627132 4 3200090381808 1 0
-31.78473 -46.73471 0.32848936 39 3200090381808 1 0
-51.842007 -62.162018 -0.47043955 28 3200090384112 1 0
-9.709083 -12.87153 -1.7366858 2 3200090384112 1 0
0 0 0 28 3200090386416 1 0
-51.57269 -56.00145 0.8863055 25 3200090388720 1 0
-50.892853 -67.45133 1.9662006 28 3200090386416 1 0
0 0 0 19 3200090391024 1 0
-18.37674 -24.349157 -2.133153 4 3200090388720 1 0
-51.32634 -75.38283 2.654104 35 3200090391024 1 0
-51.96492 -62.24311 1.4153204 58 3200090393328 1 0
-18.994251 -27.888945 -2.1625323 4 3200090393328 1 0
-25.953005 -28.159496 -2.230213 5 3200090395632 1 0
-50.311356 -60.23043 3.1973126 29 3200090397936 1 0
-30.009851 -39.719746 -2.3189251 9 3200090397936 1 0
-65.59024 -86.836044 6.3376184 28 3200090395632 1 0
-30.076317 -35.9964 -2.4583244 11 3200090400240 1 0
0 0 0 1 3200090400240 1 0
-52.091217 -62.328022 6.6312046 28 3200090402544 1 0
-30.237852 -44.347813 -2.186795 10 3200090402544 1 0
-25.039011 -27.139269 -1.2894666 26 3200090404848 1 0
0 0 0 9 3200090404848 1 0
0 0 0 29 3200090407152 1 0
-51.02053 -67.45512 -1.9680617 58 3200090407152 1 0
-2.4545543 -2.9283366 -1.7817585 4 3200090427888 1 0
-42.972622 -51.252125 -1.9465058 23 3200090430192 1 0
-32.363243 -47.318455 -1.0006511 31 3200090427888 1 0
-3.8593354 -5.088481 -1.7878238 5 3200090430192 1 0
-5.9106207 -7.0473332 -1.8395802 2 3200090432496 1 0
-52.574326 -69.29759 0 28 3200090432496 1 0
-26.325443 -28.43387 -0.45111525 28 3200090434800 1 0
-7.199187 -9.486297 -1.8527232 2 3200090434800 1 0
-9.92241 -11.823671 -1.9647336 2 3200090437104 1 0
-32.01095 -46.74498 0.32927978 39 3200090437104 1 0
-51.846096 -61.762226 -0.46867272 28 3200090439408 1 0
-9.788888 -12.890932 -1.7435399 17 3200090439408 1 0
-12.533506 -13.525482 -1.7213242 1 3200090441712 1 0
-52.53992 -69.16864 2.0211947 28 3200090441712 1 0
-51.509342 -55.56988 0.8821147 24 3200090444016 1 0
-18.46286 -24.298958 -2.13399 4 3200090444016 1 0
-16.295338 -19.394808 -2.0679595 3 3200090446320 1 0
-51.119453 -74.55569 2.6308315 36 3200090446320 1 0
-52.00622 -61.879837 1.4109223 58 3200090448624 1 0
-19.065094 -27.79701 -2.16023 4 3200090448624 1 0
-26.045425 -28.074038 -2.230213 5 3200090450928 1 0
-65.74962 -86.4547 6.3255253 28 3200090450928 1 0
-52.274544 -62.16238 3.3090134 29 3200090453232 1 0
-30.148083 -39.62999 -2.3194835 9 3200090453232 1 0
0 0 0 8 3200090455536 1 0
0 0 0 1 3200090455536 1 0
-52.260017 -62.10842 6.6263227 28 3200090457840 1 0
-30.398968 -44.266624 -2.187772 10 3200090457840 1 0
-25.080688 -27.002634 -1.2869538 19 3200090460144 1 0
0 0 0 9 3200090460144 1 0
0 0 0 29 3200090462448 1 0
-52.266964 -68.62262 -2.0072367 29 3200090462448 1 0
-2.4554074 -2.90867 -1.7749968 5 3200090483184 1 0
-32.58949 -47.294113 -1.002536 31 3200090483184 1 0
-43.296093 -51.272568 -1.9530221 47 3200090485488 1 0
-3.8747725 -5.0718894 -1.7867455 4 3200090485488 1 0
-5.950473 -7.0445504 -1.844287 2 3200090487792 1 0
-52.591022 -68.817314 0 28 3200090487792 1 0
-26.36242 -28.273943 -0.45004427 8 3200090490096 1 0
-7.237263 -9.467232 -1.853953 2 3200090490096 1 0
-9.966526 -11.791704 -1.9652387 2 3200090492400 1 0
-32.25933 -46.753834 0.33013994 39 3200090492400 1 0
-51.813103 -61.282692 -0.4664177 28 3200090494704 1 0
-9.875371 -12.910027 -1.7508225 26 3200090494704 1 0
0 0 0 17 3200090497008 1 0
-51.52022 -55.188297 0.87894833 24 3200090499312 1 0
-18.556076 -24.242924 -2.1348271 4 3200090499312 1 0
-16.351187 -19.32164 -2.066332 3 3200090501616 1 0
-52.60423 -68.747505 2.0143087 28 3200090497008 1 0
