# .PCD v.7 - Point Cloud Data file format
VERSION .7
FIELDS x y z rgb timestamp_ns device_id active
SIZE 4 4 4 4 8 1 1
TYPE F F F F F U U
COUNT 1 1 1 1 1 1 1
WIDTH 991
HEIGHT 1
VIEWPOINT 0 0 0 1 0 0 0
POINTS 991               
DATA ascii
0 0 0 9 3198074810328 1 0
8.633665 -29.389114 5.584829 35 3198074812632 1 0
11.510333 -33.106655 -0.8156057 92 3198074812632 1 0
0 0 0 4 3198074833368 1 0
13.743253 -34.187412 -0.6431561 11 3198074833368 1 0
1.9881015 -5.743996 -1.7015597 5 3198074835672 1 0
8.104924 -27.73165 -0.84083277 41 3198074835672 1 0
2.4161947 -8.271672 -1.7234788 4 3198074837976 1 0
18.3912 -53.160618 0 11 3198074837976 1 0
13.074392 -54.563633 -0.65320444 16 3198074840280 1 0
3.4733374 -10.044572 -1.6534925 34 3198074840280 1 0
3.0020678 -10.2884865 -1.3642019 8 3198074842584 1 0
13.194862 -32.87851 0.20590448 15 3198074842584 1 0
12.120198 -41.560013 -0.25160936 89 3198074844888 1 0
5.099643 -14.7616005 -1.6822804 3 3198074844888 1 0
4.434483 -18.542221 -1.779693 2 3198074847192 1 0
18.3305 -53.085102 1.3068302 32 3198074847192 1 0
13.042646 -54.57123 0.65320444 19 3198074849496 1 0
7.9008894 -22.891756 -1.6934081 7 3198074849496 1 0
5.952499 -20.444233 -1.7382706 4 3198074851800 1 0
16.188993 -40.407177 1.2668346 55 3198074851800 1 0
12.092144 -41.55375 0.75540996 100 3198074854104 1 0
9.535003 -23.809072 -1.6437087 13 3198074854104 1 0
6.784225 -28.440496 -1.7027756 12 3198074856408 1 0
17.9327 -52.031166 3.205088 67 3198074856408 1 0
12.079691 -41.556007 1.7631137 74 3198074858712 1 0
9.607019 -27.887634 -1.373971 43 3198074858712 1 0
8.027275 -27.630064 -1.5079036 43 3198074861016 1 0
12.788645 -37.140923 4.823101 7 3198074861016 1 0
12.05758 -41.525005 3.5299163 36 3198074863320 1 0
10.799854 -27.012957 -1.1852332 68 3198074863320 1 0
6.8046246 -28.599724 -1.0266036 37 3198074865624 1 0
0 0 0 9 3198074865624 1 0
8.53295 -29.418514 5.584829 35 3198074867928 1 0
11.394268 -33.138325 -0.8154196 82 3198074867928 1 0
0 0 0 4 3198074888664 1 0
13.0412 -32.771088 -0.6156511 10 3198074888664 1 0
8.040212 -27.871181 -0.8442073 41 3198074890968 1 0
1.968039 -5.7509007 -1.7015597 6 3198074890968 1 0
2.3883932 -8.283825 -1.7242632 5 3198074893272 1 0
9.542267 -27.897158 0 4 3198074893272 1 0
12.88385 -54.60894 -0.65320444 16 3198074895576 1 0
3.4344182 -10.045415 -1.6516477 36 3198074895576 1 0
2.9672341 -10.302716 -1.364707 3 3198074897880 1 0
11.976159 -41.60591 -0.2516326 34 3198074900184 1 0
5.0480847 -14.779311 -1.6822804 3 3198074900184 1 0
13.020943 -32.775677 0.20497458 25 3198074897880 1 0
4.371557 -18.56534 -1.7804365 2 3198074902488 1 0
18.132166 -53.11092 1.3058996 32 3198074902488 1 0
7.817068 -22.907866 -1.692571 7 3198074904792 1 0
12.851161 -54.612534 0.6531579 19 3198074904792 1 0
5.8844023 -20.476381 -1.739247 4 3198074907096 1 0
16.037529 -40.437424 1.26602 61 3198074907096 1 0
11.967998 -41.66874 0.75673634 72 3198074909400 1 0
9.460662 -23.864477 -1.6452438 7 3198074909400 1 0
6.690386 -28.487328 -1.704171 12 3198074911704 1 0
17.739374 -52.059425 3.202995 45 3198074911704 1 0
11.93456 -41.59792 1.7631137 55 3198074914008 1 0
9.353741 -27.46334 -1.35145 33 3198074914008 1 0
7.940689 -27.692474 -1.5097877 31 3198074916312 1 0
12.657641 -37.181576 4.8226137 7 3198074916312 1 0
11.912557 -41.56684 3.5299163 24 3198074918616 1 0
10.698142 -27.03191 -1.184419 68 3198074918616 1 0
6.712045 -28.65444 -1.0277203 41 3198074920920 1 0
0 0 0 9 3198074920920 1 0
8.42696 -29.43677 5.5826764 35 3198074923224 1 0
11.269515 -33.15139 -0.8147682 55 3198074923224 1 0
0 0 0 25 3198074943960 1 0
0 0 0 4 3198074943960 1 0
7.9317236 -27.86068 -0.8430437 37 3198074946264 1 0
1.9479108 -5.7577496 -1.7015597 5 3198074946264 1 0
2.3582685 -8.288373 -1.7234788 4 3198074948568 1 0
9.444423 -27.930433 0 4 3198074948568 1 0
12.693768 -54.661648 -0.6532976 16 3198074950872 1 0
3.3978472 -10.053672 -1.6510328 27 3198074950872 1 0
10.838746 -27.565128 0.17214888 20 3198074953176 1 0
13.850076 -48.762356 -0.29461753 57 3198074955480 1 0
2.934207 -10.324547 -1.3662221 2 3198074953176 1 0
4.998471 -14.80456 -1.6831372 3 3198074955480 1 0
4.309511 -18.596195 -1.7819237 2 3198074957784 1 0
17.756384 -52.61769 1.292221 31 3198074957784 1 0
7.7409906 -22.950531 -1.6936872 15 3198074960088 1 0
12.65496 -54.646015 0.6530182 19 3198074960088 1 0
5.811698 -20.497135 -1.739247 4 3198074962392 1 0
15.882236 -40.46431 1.2650892 48 3198074962392 1 0
13.817325 -48.760357 0.8846276 59 3198074964696 1 0
9.372822 -23.890537 -1.6447321 7 3198074964696 1 0
6.595126 -28.538223 -1.7057989 8 3198074967000 1 0
17.547382 -52.103386 3.201832 45 3198074967000 1 0
11.790306 -41.65565 1.7637651 27 3198074969304 1 0
9.230125 -27.420826 -1.3477274 80 3198074969304 1 0
7.807851 -27.601553 -1.503298 13 3198074971608 1 0
12.521996 -37.2191 4.8216386 7 3198074971608 1 0
13.775369 -48.72575 4.133641 36 3198074973912 1 0
6.614448 -28.70174 -1.028558 41 3198074976216 1 0
0 0 0 9 3198074976216 1 0
10.593872 -27.051483 -1.1836048 68 3198074973912 1 0
8.318802 -29.459341 5.5812416 34 3198074978520 1 0
11.146286 -33.18037 -0.81448907 100 3198074978520 1 0
0 0 0 4 3198074999256 1 0
0 0 0 14 3198074999256 1 0
11.211307 -39.93454 -1.2071408 43 3198075001560 1 0
1.9280574 -5.76849 -1.702638 5 3198075001560 1 0
2.327995 -8.296927 -1.7234788 3 3198075003864 1 0
0 0 0 65 3198075003864 1 0
12.496312 -54.715332 -0.6533907 16 3198075006168 1 0
3.3662028 -10.080981 -1.6534925 8 3198075006168 1 0
2.8987882 -10.342789 -1.3672323 2 3198075008472 1 0
12.919488 -33.210968 0.20711336 5 3198075008472 1 0
13.670877 -48.804592 -0.29457104 95 3198075010776 1 0
4.94849 -14.833919 -1.6844224 3 3198075010776 1 0
11.065373 -33.186367 0.8140238 15 3198075013080 1 0
4.243906 -18.619446 -1.7826673 2 3198075013080 1 0
12.457372 -54.691395 0.6530182 19 3198075015384 1 0
7.6706066 -23.016214 -1.6964774 26 3198075015384 1 0
5.744169 -20.541002 -1.7411997 4 3198075017688 1 0
13.637404 -48.794373 0.88434833 100 3198075019992 1 0
15.72894 -40.502697 1.2645073 48 3198075017688 1 0
9.283873 -23.91668 -1.6442205 7 3198075019992 1 0
6.5058384 -28.62014 -1.7092872 12 3198075022296 1 0
11.039191 -33.172146 2.0360286 49 3198075022296 1 0
13.62044 -48.788414 2.0636964 60 3198075024600 1 0
9.126713 -27.438576 -1.346983 85 3198075024600 1 0
7.705824 -27.61777 -1.5026699 13 3198075026904 1 0
12.3837385 -37.248596 4.819689 7 3198075026904 1 0
13.599156 -48.766945 4.13299 54 3198075029208 1 0
10.497213 -27.089138 -1.1836048 52 3198075029208 1 0
6.5165505 -28.744621 -1.029256 41 3198075031512 1 0
8.210821 -29.477364 5.579089 34 3198075033816 1 0
0 0 0 9 3198075031512 1 0
9.154697 -27.576267 -0.6761199 46 3198075033816 1 0
0 0 0 4 3198075054552 1 0
12.972198 -33.635715 -0.62926394 11 3198075054552 1 0
1.9054934 -5.76787 -1.7004814 5 3198075056856 1 0
2.3000655 -8.308784 -1.7242632 4 3198075059160 1 0
10.970507 -33.22361 0 82 3198075059160 1 0
12.302613 -54.746914 -0.65325105 16 3198075061464 1 0
11.094253 -40.054348 -1.2095844 43 3198075056856 1 0
3.3235607 -10.070149 -1.649803 8 3198075061464 1 0
2.8637252 -10.356669 -1.3677374 2 3198075063768 1 0
15.646145 -40.63942 0.2530972 7 3198075063768 1 0
13.498303 -48.844303 -0.29452455 85 3198075066072 1 0
4.900416 -14.8624325 -1.6857076 3 3198075066072 1 0
4.1980596 -18.719643 -1.7908463 2 3198075068376 1 0
12.266387 -54.734547 0.6530182 19 3198075070680 1 0
7.582728 -23.020111 -1.6948032 28 3198075070680 1 0
5.6724324 -20.560926 -1.7411997 4 3198075072984 1 0
15.5745535 -40.523766 1.26346 54 3198075072984 1 0
13.464871 -48.833965 0.88420874 88 3198075075288 1 0
10.948212 -33.220993 0.81393075 85 3198075068376 1 0
9.196036 -23.937761 -1.6434529 7 3198075075288 1 0
6.4067674 -28.646572 -1.7095197 12 3198075077592 1 0
10.922084 -33.206684 2.035796 64 3198075077592 1 0
13.445808 -48.820248 2.063045 96 3198075079896 1 0
9.024639 -27.451288 -1.3460523 89 3198075079896 1 0
7.783229 -28.27611 -1.5370023 49 3198075082200 1 0
0 0 0 24 3198075082200 1 0
13.423558 -48.7949 4.1313624 54 3198075084504 1 0
10.618685 -27.689098 -1.2081921 34 3198075084504 1 0
6.4248753 -28.80621 -1.0306519 41 3198075086808 1 0
0 0 0 9 3198075086808 1 0
8.1068325 -29.50205 5.5783715 34 3198075089112 1 0
9.068356 -27.63845 -0.6768643 27 3198075089112 1 0
0 0 0 4 3198075109296 1 0
12.854879 -33.6636 -0.62898475 11 3198075109296 1 0
0 0 0 104 3198075111600 1 0
1.8887483 -5.78148 -1.702638 5 3198075111600 1 0
2.2745678 -8.323932 -1.7258321 4 3198075113904 1 0
10.854065 -33.24079 0 63 3198075113904 1 0
12.11927 -54.7796 -0.6531579 16 3198075116208 1 0
3.2876961 -10.073601 -1.6485732 8 3198075116208 1 0
2.8356342 -10.389076 -1.3707678 9 3198075118512 1 0
15.464276 -40.56774 0.25233003 7 3198075118512 1 0
14.767884 -54.136944 -0.32614136 10 3198075120816 1 0
4.854802 -14.889945 -1.6869928 3 3198075120816 1 0
4.137677 -18.741238 -1.7915899 2 3198075123120 1 0
10.833031 -33.241905 0.8135585 80 3198075123120 1 0
7.506349 -23.04513 -1.6948032 42 3198075125424 1 0
12.084813 -54.77492 0.6530182 29 3198075125424 1 0
5.6031713 -20.575779 -1.7408743 4 3198075127728 1 0
15.427289 -40.541557 1.2624128 42 3198075127728 1 0
14.742793 -54.169067 0.9799177 12 3198075130032 1 0
9.127958 -23.997972 -1.6454996 23 3198075130032 1 0
6.3186054 -28.698858 -1.7113802 8 3198075132336 1 0
10.806966 -33.22753 2.0348656 64 3198075132336 1 0
13.290132 -48.887707 2.064022 48 3198075134640 1 0
8.9310875 -27.473463 -1.3456801 85 3198075134640 1 0
7.6841826 -28.28249 -1.5359557 49 3198075136944 1 0
13.273167 -48.881466 4.1349425 18 3198075139248 1 0
10.788959 -33.205 4.286876 62 3198075136944 1 0
10.5211315 -27.709213 -1.2075408 38 3198075139248 1 0
6.333602 -28.84688 -1.0313499 41 3198075141552 1 0
0 0 0 9 3198075141552 1 0
8.006896 -29.521177 5.5769367 29 3198075143856 1 0
9.000101 -27.740643 -0.6786323 42 3198075143856 1 0
12.728811 -33.68582 -0.62856585 11 3198075164592 1 0
0 0 0 4 3198075164592 1 0
1.8696969 -5.791717 -1.7037163 6 3198075166896 1 0
0 0 0 18 3198075166896 1 0
2.2463975 -8.335641 -1.7266166 3 3198075169200 1 0
9.011771 -27.930147 0 48 3198075169200 1 0
11.921682 -54.798378 -0.6528785 16 3198075171504 1 0
3.2510796 -10.081326 -1.6479583 7 3198075171504 1 0
2.795956 -10.387498 -1.3692526 15 3198075173808 1 0
15.585361 -41.32178 0.25667736 8 3198075173808 1 0
14.586203 -54.223457 -0.32635057 20 3198075176112 1 0
4.805913 -14.918331 -1.6882778 3 3198075176112 1 0
4.06888 -18.744068 -1.7904745 2 3198075178416 1 0
10.710574 -33.26476 0.81318635 80 3198075178416 1 0
11.891597 -54.821285 0.6530648 29 3198075180720 1 0
7.427131 -23.079166 -1.6953614 49 3198075180720 1 0
5.53115 -20.599384 -1.7411997 4 3198075183024 1 0
0 0 0 3 3198075183024 1 0
14.545923 -54.2057 0.97963846 25 3198075185328 1 0
9.042562 -24.030281 -1.6454996 31 3198075185328 1 0
6.2348847 -28.807055 -1.7164965 12 3198075187632 1 0
10.683609 -33.25062 2.0339355 64 3198075187632 1 0
14.502979 -54.11169 2.2823758 43 3198075189936 1 0
8.841484 -27.531809 -1.346983 46 3198075189936 1 0
7.5757065 -28.282793 -1.5344902 40 3198075192240 1 0
10.666445 -33.232048 4.2854137 62 3198075192240 1 0
0 0 0 8 3198075194544 1 0
10.198278 -27.151861 -1.181651 76 3198075194544 1 0
6.237519 -28.904615 -1.0326064 41 3198075196848 1 0
0 0 0 9 3198075196848 1 0
7.89651 -29.534601 5.5740666 29 3198075199152 1 0
8.933134 -27.87568 -0.6811448 34 3198075199152 1 0
0 0 0 4 3198075219888 1 0
12.599661 -33.717262 -0.62828666 11 3198075219888 1 0
0 0 0 9 3198075222192 1 0
1.847371 -5.794834 -1.702638 6 3198075222192 1 0
2.2170804 -8.347545 -1.7274011 4 3198075224496 1 0
10.612763 -33.306023 0 63 3198075224496 1 0
11.725657 -54.85293 -0.6530182 16 3198075226800 1 0
3.2133486 -10.089267 -1.6473434 7 3198075226800 1 0
2.7625399 -10.412857 -1.3712729 22 3198075229104 1 0
17.807356 -47.73373 0.29610538 11 3198075229104 1 0
14.389262 -54.267776 -0.32630408 20 3198075231408 1 0
4.7547 -14.94308 -1.6891346 3 3198075231408 1 0
4.0051126 -18.774088 -1.7919617 2 3198075233712 1 0
10.585427 -33.283813 0.8127211 75 3198075233712 1 0
11.681162 -54.7929 0.6522266 29 3198075236016 1 0
7.3436356 -23.101683 -1.6950823 47 3198075236016 1 0
5.466173 -20.649715 -1.7438034 4 3198075238320 1 0
17.747232 -47.652973 1.4798937 32 3198075238320 1 0
14.351185 -54.24517 0.97942907 25 3198075240624 1 0
8.967324 -24.088276 -1.6472903 42 3198075240624 1 0
6.135946 -28.84054 -1.7171941 12 3198075242928 1 0
10.561677 -33.272797 2.0330052 64 3198075242928 1 0
14.308113 -54.14287 2.2815616 64 3198075245232 1 0
8.887512 -28.012043 -1.3689456 52 3198075245232 1 0
7.475915 -28.305202 -1.5342809 45 3198075247536 1 0
10.546778 -33.257725 4.2839513 68 3198075247536 1 0
0 0 0 8 3198075249840 1 0
10.091303 -27.15343 -1.1801854 72 3198075249840 1 0
6.1424046 -28.949497 -1.0334439 41 3198075252144 1 0
0 0 0 9 3198075252144 1 0
7.7946568 -29.561646 5.5740666 29 3198075254448 1 0
0 0 0 4 3198075275184 1 0
10.547651 -33.308388 -0.8130002 40 3198075254448 1 0
12.483619 -33.747604 -0.6280772 16 3198075275184 1 0
7.4185085 -28.295277 -0.85130537 4 3198075277488 1 0
1.8269024 -5.797281 -1.7015597 6 3198075277488 1 0
2.1891437 -8.354915 -1.7274011 4 3198075279792 1 0
10.492877 -33.314632 0 63 3198075279792 1 0
11.542122 -54.895927 -0.6530648 16 3198075282096 1 0
3.179433 -10.100006 -1.6473434 15 3198075282096 1 0
2.7263837 -10.418281 -1.3707678 18 3198075284400 1 0
17.628176 -47.744766 0.29580316 11 3198075284400 1 0
4.7076125 -14.970489 -1.6904198 3 3198075286704 1 0
14.205275 -54.316227 -0.32630408 20 3198075286704 1 0
3.9436471 -18.799303 -1.793077 2 3198075289008 1 0
10.468492 -33.308205 0.8124419 80 3198075289008 1 0
11.495457 -54.840336 0.6523197 58 3198075291312 1 0
7.263437 -23.12284 -1.6948032 44 3198075291312 1 0
5.399289 -20.683786 -1.7451053 4 3198075293616 1 0
17.5725 -47.683598 1.4789628 56 3198075293616 1 0
14.165125 -54.298187 0.97949886 25 3198075295920 1 0
8.899415 -24.160248 -1.6501045 49 3198075295920 1 0
10.442853 -33.297726 2.0323076 64 3198075298224 1 0
6.03771 -28.869425 -1.7176592 12 3198075298224 1 0
14.117805 -54.184547 2.281236 64 3198075300528 1 0
8.787696 -28.035141 -1.3685734 48 3198075300528 1 0
7.376059 -28.327261 -1.5340716 45 3198075302832 1 0
10.427062 -33.282974 4.282489 68 3198075302832 1 0
9.994684 -27.184885 -1.1800226 72 3198075305136 1 0
0 0 0 8 3198075305136 1 0
0 0 0 9 3198075307440 1 0
6.0453677 -28.99442 -1.0342815 37 3198075307440 1 0
7.688149 -29.581392 5.572632 29 3198075309744 1 0
10.426283 -33.33401 -0.8127211 55 3198075309744 1 0
0 0 0 4 3198075330480 1 0
12.352975 -33.774353 -0.62772816 16 3198075330480 1 0
0 0 0 56 3198075332784 1 0
1.8068285 -5.807603 -1.702638 6 3198075332784 1 0
2.1596086 -8.366649 -1.7281855 4 3198075335088 1 0
10.368813 -33.345078 0 48 3198075335088 1 0
11.342848 -54.941532 -0.65311134 16 3198075337392 1 0
3.1402678 -10.103974 -1.6461135 28 3198075337392 1 0
2.6914556 -10.4396515 -1.3722831 10 3198075339696 1 0
17.462687 -47.831093 0.29594263 11 3198075339696 1 0
0 0 0 16 3198075342000 1 0
4.654435 -14.991271 -1.6908482 3 3198075342000 1 0
3.8771458 -18.821262 -1.7938205 2 3198075344304 1 0
10.34424 -33.33444 0.81216276 80 3198075344304 1 0
11.294754 -54.86977 0.65218 58 3198075346608 1 0
7.182181 -23.156563 -1.6953614 36 3198075346608 1 0
5.32564 -20.706987 -1.7454307 4 3198075348912 1 0
13.964597 -54.32946 0.9791498 25 3198075351216 1 0
17.389439 -47.716618 1.4780319 56 3198075348912 1 0
8.828782 -24.237135 -1.6531745 49 3198075351216 1 0
5.9379764 -28.910486 -1.718822 12 3198075353520 1 0
10.320802 -33.327396 2.0318425 64 3198075353520 1 0
13.921464 -54.22707 2.2809103 64 3198075355824 1 0
8.683584 -28.055016 -1.368015 43 3198075355824 1 0
10.303218 -33.304897 4.280539 62 3198075358128 1 0
7.26771 -28.326385 -1.5326061 36 3198075358128 1 0
0 0 0 8 3198075360432 1 0
9.890724 -27.201618 -1.1792085 72 3198075360432 1 0
5.9524374 -29.066689 -1.0360962 41 3198075362736 1 0
0 0 0 9 3198075362736 1 0
7.5809536 -29.600922 5.571197 29 3198075365040 1 0
10.304137 -33.359413 -0.8124419 50 3198075365040 1 0
0 0 0 4 3198075385776 1 0
12.217317 -33.76838 -0.6268206 16 3198075385776 1 0
7.219995 -28.363085 -0.8517708 19 3198075388080 1 0
2.1303904 -8.374136 -1.7281855 3 3198075390384 1 0
1.7876766 -5.8175564 -1.7037163 6 3198075388080 1 0
8.609393 -28.031685 0 16 3198075390384 1 0
11.147022 -54.961193 -0.6528785 16 3198075392688 1 0
3.1014996 -10.1035385 -1.6442688 30 3198075392688 1 0
2.6481576 -10.422063 -1.3687476 8 3198075394992 1 0
17.260294 -47.79394 0.2953382 11 3198075394992 1 0
0 0 0 9 3198075397296 1 0
4.6067414 -15.022635 -1.6925617 3 3198075397296 1 0
3.8122137 -18.838585 -1.7941923 2 3198075399600 1 0
10.226646 -33.36652 0.8120697 55 3198075399600 1 0
7.104812 -23.19294 -1.6961985 28 3198075401904 1 0
11.100776 -54.897102 0.65204036 39 3198075401904 1 0
5.277816 -20.822065 -1.7535671 4 3198075404208 1 0
17.211924 -47.746937 1.477101 56 3198075404208 1 0
13.776831 -54.385628 0.9792894 25 3198075406512 1 0
8.763069 -24.320383 -1.656756 52 3198075406512 1 0
5.8425517 -28.958437 -1.7204499 12 3198075408816 1 0
10.211412 -33.38613 2.033238 49 3198075408816 1 0
13.730131 -54.267586 2.2805846 64 3198075411120 1 0
8.426738 -27.565485 -1.3427022 68 3198075411120 1 0
7.172705 -28.367073 -1.5334436 40 3198075413424 1 0
10.186899 -33.340656 4.280539 62 3198075413424 1 0
0 0 0 8 3198075415728 1 0
9.791655 -27.224695 -1.17872 72 3198075415728 1 0
5.845421 -29.059855 -1.035119 37 3198075418032 1 0
0 0 0 9 3198075418032 1 0
7.4785438 -29.631018 5.571914 29 3198075420336 1 0
10.209798 -33.46785 -0.8142099 10 3198075420336 1 0
0 0 0 4 3198075441072 1 0
12.118234 -33.863537 -0.62779796 16 3198075441072 1 0
12.319625 -49.112988 -1.47361 11 3198075443376 1 0
1.7673587 -5.823761 -1.7037163 6 3198075443376 1 0
2.1040075 -8.392936 -1.730539 3 3198075445680 1 0
8.508009 -28.050083 0 28 3198075445680 1 0
5.802978 -29.133677 -0.3458333 8 3198075447984 1 0
3.066213 -10.114304 -1.6442688 29 3198075447984 1 0
2.6127255 -10.435092 -1.3692526 12 3198075450288 1 0
17.082592 -47.823765 0.29515222 11 3198075450288 1 0
13.615561 -54.41344 -0.32600185 20 3198075452592 1 0
4.55658 -15.046237 -1.6934185 3 3198075452592 1 0
3.7510893 -18.875216 -1.796423 2 3198075454896 1 0
12.549886 -41.46259 1.0080384 48 3198075454896 1 0
10.909861 -54.939438 0.6520869 48 3198075457200 1 0
7.0307426 -23.240515 -1.6978725 15 3198075457200 1 0
5.207033 -20.848097 -1.754218 4 3198075459504 1 0
17.037094 -47.78413 1.4764028 48 3198075459504 1 0
13.585937 -54.429504 0.9792196 12 3198075461808 1 0
8.691523 -24.388424 -1.6593144 49 3198075461808 1 0
5.766267 -29.104002 -1.7278917 12 3198075464112 1 0
10.094811 -33.421574 2.033238 28 3198075464112 1 0
13.537718 -54.30355 2.2800963 64 3198075466416 1 0
8.323536 -27.571781 -1.3415854 85 3198075466416 1 0
7.0794363 -28.415194 -1.5346996 45 3198075468720 1 0
0 0 0 1 3198075468720 1 0
0 0 0 8 3198075471024 1 0
9.696563 -27.258709 -1.17872 60 3198075471024 1 0
5.726131 -28.989882 -1.0319083 28 3198075473328 1 0
0 0 0 9 3198075473328 1 0
7.371268 -29.641668 5.5690446 29 3198075475632 1 0
11.650104 -38.672363 -0.93983084 18 3198075475632 1 0
0 0 0 4 3198075496368 1 0
11.982607 -33.856617 -0.6268904 16 3198075496368 1 0
12.212384 -49.415756 -1.4814063 11 3198075498672 1 0
1.7470192 -5.829895 -1.7037163 6 3198075498672 1 0
8.411191 -28.083443 0 28 3198075500976 1 0
2.0737574 -8.3964205 -1.7297544 4 3198075500976 1 0
5.7081556 -29.189083 -0.34625238 8 3198075503280 1 0
3.0308886 -10.124945 -1.6442688 33 3198075503280 1 0
2.5772345 -10.448001 -1.3697577 3 3198075505584 1 0
17.080763 -48.350773 0.29803494 11 3198075505584 1 0
13.4264965 -54.464523 -0.3260251 20 3198075507888 1 0
4.508589 -15.077292 -1.6951321 3 3198075507888 1 0
3.684417 -18.884285 -1.7960511 2 3198075510192 1 0
12.398208 -41.48316 1.00748 68 3198075510192 1 0
10.718784 -54.981113 0.65213346 29 3198075512496 1 0
6.9644227 -23.314617 -1.7014999 7 3198075512496 1 0
5.134228 -20.866146 -1.754218 4 3198075514800 1 0
13.394904 -54.472713 0.9791498 12 3198075517104 1 0
16.919388 -47.98283 1.4807082 8 3198075514800 1 0
8.628896 -24.482616 -1.6636635 44 3198075517104 1 0
5.6638775 -29.120033 -1.7276591 12 3198075519408 1 0
12.370179 -41.477314 2.5206754 35 3198075519408 1 0
8.222676 -27.585352 -1.3408408 76 3198075521712 1 0
6.9859185 -28.463009 -1.5359557 45 3198075524016 1 0
13.346174 -54.342712 2.2797706 64 3198075521712 1 0
11.116936 -37.314804 4.7806907 7 3198075524016 1 0
0 0 0 8 3198075526320 1 0
9.776429 -27.790054 -1.2002134 33 3198075526320 1 0
5.607401 -28.91943 -1.0286976 33 3198075528624 1 0
0 0 0 9 3198075528624 1 0
7.266818 -29.663395 5.568327 29 3198075530928 1 0
11.39761 -38.318 -0.9302465 12 3198075530928 1 0
0 0 0 4 3198075551664 1 0
11.859068 -33.883137 -0.6266112 16 3198075551664 1 0
6.930153 -28.468214 -0.8527017 4 3198075553968 1 0
1.7255656 -5.832264 -1.702638 6 3198075553968 1 0
2.0444357 -8.403608 -1.7297544 4 3198075556272 1 0
8.308574 -28.097288 0 36 3198075556272 1 0
0 0 0 13 3198075558576 1 0
2.9966478 -10.139254 -1.6448838 17 3198075558576 1 0
2.5398116 -10.453078 -1.3692526 3 3198075560880 1 0
18.518644 -53.009438 0.32635057 13 3198075560880 1 0
13.224972 -54.464413 -0.32574615 20 3198075563184 1 0
4.457058 -15.096752 -1.6955605 3 3198075563184 1 0
3.6237192 -18.924414 -1.7986536 2 3198075565488 1 0
12.252196 -41.522346 1.007387 68 3198075565488 1 0
10.529055 -55.02998 0.6522732 29 3198075567792 1 0
6.898799 -23.392368 -1.7054063 5 3198075567792 1 0
5.0622993 -20.887815 -1.7545435 4 3198075570096 1 0
18.489504 -53.025085 1.6343062 27 3198075570096 1 0
13.204678 -54.51914 0.9791498 12 3198075572400 1 0
8.560461 -24.56159 -1.6669893 36 3198075572400 1 0
5.5659385 -29.159239 -1.7288219 12 3198075574704 1 0
12.221937 -41.50875 2.5199778 83 3198075574704 1 0
13.154522 -54.3812 2.279445 64 3198075577008 1 0
8.125208 -27.610052 -1.3406547 80 3198075577008 1 0
6.892153 -28.510517 -1.5372117 40 3198075579312 1 0
11.022464 -37.475266 4.79629 7 3198075579312 1 0
9.684617 -27.839111 -1.2008648 45 3198075581616 1 0
0 0 0 8 3198075581616 1 0
5.4929686 -28.86814 -1.0261848 37 3198075583920 1 0
0 0 0 9 3198075583920 1 0
7.1623063 -29.684755 5.5676093 29 3198075586224 1 0
11.7719345 -40.087997 -0.97221315 39 3198075586224 1 0
0 0 0 4 3198075606960 1 0
6.8400593 -28.531113 -0.8538654 4 3198075609264 1 0
11.736797 -33.91299 -0.6264018 16 3198075606960 1 0
1.7062765 -5.8419495 -1.7037163 6 3198075609264 1 0
2.016917 -8.418323 -1.7313235 4 3198075611568 1 0
8.208203 -28.11844 0 36 3198075611568 1 0
0 0 0 28 3198075613872 1 0
2.9579158 -10.138269 -1.643039 8 3198075613872 1 0
18.329576 -53.062412 0.32628083 13 3198075616176 1 0
2.5070016 -10.477316 -1.3712729 2 3198075616176 1 0
13.035706 -54.514137 -0.3257694 20 3198075618480 1 0
4.4121222 -15.138946 -1.6985592 3 3198075618480 1 0
3.5576386 -18.936947 -1.7986536 2 3198075620784 1 0
12.102709 -41.549503 1.0070149 82 3198075620784 1 0
10.3369 -55.0664 0.6522732 19 3198075623088 1 0
6.8327174 -23.469944 -1.7093127 5 3198075623088 1 0
4.9912076 -20.913115 -1.7551944 4 3198075625392 1 0
18.291267 -53.051502 1.6331426 27 3198075625392 1 0
13.013362 -54.56101 0.97908 12 3198075627696 1 0
8.496783 -24.655481 -1.6713384 23 3198075627696 1 0
5.46706 -29.19419 -1.7297522 12 3198075630000 1 0
12.073627 -41.539654 2.51928 83 3198075630000 1 0
12.960912 -54.411232 2.2787936 64 3198075632304 1 0
8.025437 -27.626736 -1.3400964 76 3198075632304 1 0
6.8027663 -28.577147 -1.5395145 45 3198075634608 1 0
10.890477 -37.5097 4.7958026 7 3198075634608 1 0
0 0 0 8 3198075636912 1 0
9.406684 -27.347416 -1.1782315 40 3198075636912 1 0
5.3811636 -28.828192 -1.0240909 33 3198075639216 1 0
0 0 0 9 3198075639216 1 0
11.577377 -39.940647 -0.9676536 53 3198075641520 1 0
7.057734 -29.705748 5.566892 29 3198075641520 1 0
0 0 0 4 3198075662256 1 0
11.617053 -33.949966 -0.626332 16 3198075662256 1 0
6.779214 -28.718203 -0.85875255 4 3198075664560 1 0
1.6869836 -5.8515587 -1.7047946 6 3198075664560 1 0
1.9885423 -8.4291 -1.7321079 5 3198075666864 1 0
8.110411 -28.146803 0 40 3198075666864 1 0
0 0 0 98 3198075669168 1 0
2.9227302 -10.148469 -1.643039 8 3198075669168 1 0
2.4698088 -10.482069 -1.3707678 2 3198075671472 1 0
18.161303 -53.170967 0.3265598 13 3198075671472 1 0
4.3609014 -15.157918 -1.6989876 3 3198075673776 1 0
12.844569 -54.547157 -0.32569966 20 3198075673776 1 0
3.4908977 -18.941265 -1.7979101 2 3198075676080 1 0
11.954994 -41.575603 1.0066426 82 3198075676080 1 0
10.1467 -55.097694 0.6522266 19 3198075678384 1 0
6.762968 -23.531658 -1.7121029 5 3198075678384 1 0
4.9239554 -20.949528 -1.7568218 4 3198075680688 1 0
17.91939 -52.55767 1.6160374 26 3198075680688 1 0
12.825488 -54.60137 0.97901016 25 3198075682992 1 0
8.427735 -24.72978 -1.6744084 22 3198075682992 1 0
5.370131 -29.228415 -1.7306824 12 3198075685296 1 0
11.927172 -41.565327 2.51835 71 3198075685296 1 0
12.774345 -54.45123 2.2786307 64 3198075687600 1 0
7.933368 -27.661629 -1.3404686 68 3198075687600 1 0
6.7127624 -28.631247 -1.5411892 45 3198075689904 1 0
10.76166 -37.542732 4.795315 7 3198075689904 1 0
0 0 0 8 3198075692208 1 0
9.363954 -27.526772 -1.1845819 36 3198075692208 1 0
5.268314 -28.763687 -1.0211593 33 3198075694512 1 0
0 0 0 9 3198075694512 1 0
6.9572415 -29.729443 5.566892 34 3198075696816 1 0
11.420242 -39.902676 -0.96579254 66 3198075696816 1 0
0 0 0 4 3198075717552 1 0
0 0 0 73 3198075717552 1 0
6.6785097 -28.71716 -0.8580544 4 3198075719856 1 0
1.6686245 -5.8608255 -1.7058729 7 3198075719856 1 0
1.9596915 -8.431828 -1.7313235 5 3198075722160 1 0
8.015933 -28.169695 0 40 3198075722160 1 0
9.83814 -54.263634 -0.64202905 79 3198075724464 1 0
2.8890605 -10.158105 -1.643039 8 3198075724464 1 0
2.4404187 -10.513393 -1.3737983 9 3198075726768 1 0
0 0 0 81 3198075726768 1 0
12.660902 -54.577763 -0.3256299 20 3198075729072 1 0
4.3106117 -15.172296 -1.6989876 3 3198075729072 1 0
3.4316113 -18.972332 -1.7997689 2 3198075731376 1 0
0 0 0 3 3198075731376 1 0
9.957531 -55.095615 0.65180755 29 3198075733680 1 0
6.6925235 -23.580826 -1.714056 5 3198075733680 1 0
4.8589535 -20.98516 -1.758449 4 3198075735984 1 0
17.750116 -52.631958 1.6165028 44 3198075735984 1 0
12.639845 -54.62412 0.9786611 25 3198075738288 1 0
8.359709 -24.799202 -1.6772225 13 3198075738288 1 0
5.2760105 -29.261782 -1.7316126 12 3198075740592 1 0
11.795802 -41.6277 2.519745 35 3198075740592 1 0
12.591908 -54.485504 2.278305 64 3198075742896 1 0
7.8481283 -27.710852 -1.3415854 17 3198075742896 1 0
6.623174 -28.6767 -1.5424453 41 3198075745200 1 0
10.614396 -37.49799 4.785078 7 3198075745200 1 0
0 0 0 8 3198075747504 1 0
9.287914 -27.603128 -1.1865358 41 3198075747504 1 0
5.1566367 -28.690506 -1.0179485 32 3198075749808 1 0
0 0 0 9 3198075749808 1 0
6.859501 -29.756186 5.5676093 29 3198075752112 1 0
9.679346 -34.24886 -0.8281678 61 3198075752112 1 0
0 0 0 4 3198075773296 1 0
11.105789 -33.210968 -0.6112531 86 3198075773296 1 0
6.5810246 -28.776571 -0.85910165 4 3198075775600 1 0
1.6460485 -5.8632054 -1.7047946 5 3198075775600 1 0
1.9312731 -8.450453 -1.7336768 5 3198075777904 1 0
7.911142 -28.19515 0 40 3198075777904 1 0
0 0 0 5 3198075780208 1 0
2.851588 -10.168688 -1.643039 15 3198075780208 1 0
11.079103 -33.195362 0.20339373 97 3198075782512 1 0
2.3989139 -10.510732 -1.3722831 10 3198075782512 1 0
12.4552355 -54.608654 -0.3255369 20 3198075784816 1 0
4.2587123 -15.203466 -1.7007011 3 3198075784816 1 0
3.3626115 -18.992771 -1.8005124 2 3198075787120 1 0
0 0 0 17 3198075787120 1 0
9.751328 -55.12436 0.6517144 48 3198075789424 1 0
6.6123753 -23.632431 -1.7160093 5 3198075789424 1 0
4.779015 -20.995333 -1.7577981 4 3198075791728 1 0
0 0 0 64 3198075791728 1 0
12.435087 -54.666992 0.9785913 25 3198075794032 1 0
8.278482 -24.864302 -1.679525 8 3198075794032 1 0
5.1693716 -29.29703 -1.7325429 12 3198075796336 1 0
13.624365 -48.77508 2.9492762 35 3198075796336 1 0
12.385991 -54.524487 2.2779794 86 3198075798640 1 0
7.7131333 -27.628443 -1.3361877 12 3198075798640 1 0
6.525247 -28.744202 -1.5447481 41 3198075800944 1 0
10.466144 -37.510788 4.7816653 7 3198075800944 1 0
9.216838 -27.736465 -1.1907693 37 3198075803248 1 0
0 0 0 8 3198075803248 1 0
5.034676 -28.630983 -1.0151565 32 3198075805552 1 0
0 0 0 9 3198075805552 1 0
6.7480135 -29.785702 5.568327 29 3198075807856 1 0
11.128448 -39.951828 -0.96504813 92 3198075807856 1 0
0 0 0 4 3198075828592 1 0
10.9784975 -33.215355 -0.6106248 69 3198075828592 1 0
1.6245439 -5.8652034 -1.7037163 5 3198075830896 1 0
1.9017638 -8.457143 -1.7336768 4 3198075833200 1 0
7.8105397 -28.214884 0 36 3198075833200 1 0
0 0 0 84 3198075835504 1 0
12.284315 -54.591244 -1.6284881 33 3198075830896 1 0
2.8139675 -10.170961 -1.6418092 9 3198075835504 1 0
10.955644 -33.21104 0.20325425 71 3198075837808 1 0
2.3648183 -10.530656 -1.3737983 10 3198075837808 1 0
12.268919 -54.671314 -0.32565314 30 3198075840112 1 0
4.206676 -15.222073 -1.7011296 3 3198075840112 1 0
3.296294 -19.004395 -1.8005124 2 3198075842416 1 0
13.4867115 -48.830017 1.1787899 60 3198075842416 1 0
9.54519 -55.079243 0.6507831 39 3198075844720 1 0
6.5330276 -23.666908 -1.7168463 5 3198075844720 1 0
4.709183 -21.027449 -1.7591 4 3198075847024 1 0
10.929377 -33.196316 1.0171214 76 3198075847024 1 0
12.244188 -54.710068 0.9785913 37 3198075849328 1 0
8.189144 -24.885464 -1.6790134 8 3198075849328 1 0
5.0867987 -29.429007 -1.7392869 12 3198075851632 1 0
13.455086 -48.82619 2.949509 88 3198075851632 1 0
12.19559 -54.56739 2.2779794 100 3198075853936 1 0
7.730168 -28.067387 -1.3561031 26 3198075853936 1 0
6.430095 -28.790195 -1.5460042 46 3198075856240 1 0
10.334089 -37.543266 4.781178 7 3198075856240 1 0
0 0 0 8 3198075858544 1 0
9.09128 -27.681135 -1.1870244 41 3198075858544 1 0
4.9218116 -28.573532 -1.0125042 28 3198075860848 1 0
0 0 0 9 3198075860848 1 0
6.6465693 -29.820597 5.5704794 24 3198075863152 1 0
11.006935 -40.05598 -0.96663 66 3198075863152 1 0
0 0 0 4 3198075883888 1 0
10.8637295 -33.25728 -0.6106946 26 3198075883888 1 0
12.091952 -54.625984 -1.6282554 33 3198075886192 1 0
1.6050758 -5.8745537 -1.7047946 5 3198075886192 1 0
1.8722312 -8.463729 -1.7336768 4 3198075888496 1 0
7.7141113 -28.249693 0 24 3198075888496 1 0
9.451409 -55.497128 -0.655393 16 3198075890800 1 0
2.7826095 -10.195973 -1.6442688 23 3198075890800 1 0
2.328901 -10.542721 -1.3743033 10 3198075893104 1 0
10.83593 -33.237675 0.2031845 66 3198075893104 1 0
12.082317 -54.733337 -0.3257694 30 3198075895408 1 0
4.158745 -15.255849 -1.7032715 3 3198075895408 1 0
3.2466092 -19.113945 -1.809807 2 3198075897712 1 0
13.31618 -48.876797 1.1787899 34 3198075897712 1 0
9.395699 -55.3646 0.65376323 19 3198075900016 1 0
6.4650517 -23.74347 -1.7207527 5 3198075900016 1 0
4.641759 -21.07101 -1.7613782 4 3198075902320 1 0
10.809722 -33.22286 1.0167724 72 3198075902320 1 0
12.057439 -54.772003 0.97894037 37 3198075904624 1 0
8.084945 -24.860752 -1.6754317 8 3198075904624 1 0
4.984041 -29.446583 -1.7392869 12 3198075906928 1 0
13.283522 -48.869007 2.9492762 53 3198075906928 1 0
12.007614 -54.621338 2.278468 86 3198075909232 1 0
7.6834755 -28.28314 -1.3652232 48 3198075909232 1 0
6.3364162 -28.843678 -1.547679 46 3198075911536 1 0
10.201935 -37.57528 4.7806907 7 3198075911536 1 0
0 0 0 8 3198075913840 1 0
8.993365 -27.708899 -1.1868615 41 3198075913840 1 0
4.8094096 -28.515642 -1.0098518 24 3198075916144 1 0
0 0 0 9 3198075916144 1 0
6.5474916 -29.86668 5.5747843 24 3198075918448 1 0
0 0 0 116 3198075918448 1 0
0 0 0 4 3198075939184 1 0
10.748802 -33.2988 -0.61076444 16 3198075939184 1 0
11.904148 -54.679497 -1.6286044 50 3198075941488 1 0
1.5856051 -5.8838286 -1.7058729 6 3198075941488 1 0
1.8453007 -8.481685 -1.7360302 4 3198075943792 1 0
7.616906 -28.2802 0 16 3198075943792 1 0
4.888274 -29.317251 -0.34601957 2 3198075946096 1 0
2.743115 -10.190298 -1.6418092 34 3198075946096 1 0
2.293235 -10.554597 -1.3748084 7 3198075948400 1 0
10.714677 -33.255947 0.20306827 71 3198075948400 1 0
11.896575 -54.790382 -0.32586238 30 3198075950704 1 0
4.1091204 -15.281645 -1.7045566 3 3198075950704 1 0
3.1774368 -19.10538 -1.807948 2 3198075953008 1 0
9.235363 -55.57809 0.6559052 9 3198075955312 1 0
6.388517 -23.784836 -1.7221478 5 3198075955312 1 0
4.572783 -21.102406 -1.7626799 4 3198075957616 1 0
10.691949 -33.24835 1.0164232 76 3198075957616 1 0
11.860453 -54.769985 0.9781725 37 3198075959920 1 0
8.002187 -24.8959 -1.6759434 24 3198075959920 1 0
14.582984 -54.2634 1.3074815 10 3198075953008 1 0
4.8872833 -29.487083 -1.7406822 12 3198075962224 1 0
11.82125 -54.661976 2.278468 64 3198075964528 1 0
14.507485 -54.10175 3.2620642 47 3198075962224 1 0
6.24412 -28.892406 -1.5491443 46 3198075966832 1 0
7.579726 -28.282164 -1.3639203 48 3198075964528 1 0
10.07502 -37.613617 4.781178 7 3198075966832 1 0
0 0 0 8 3198075969136 1 0
8.900433 -27.743088 -1.1870244 20 3198075969136 1 0
4.699066 -28.44895 -1.0069203 28 3198075971440 1 0
0 0 0 9 3198075971440 1 0
6.4522653 -29.915577 5.579807 24 3198075973744 1 0
0 0 0 6 3198075973744 1 0
10.6285925 -33.303783 -0.61020595 53 3198075994480 1 0
0 0 0 4 3198075994480 1 0
11.734086 -54.77349 -1.6302335 50 3198075996784 1 0
1.8170408 -8.487783 -1.7360302 5 3198075999088 1 0
1.5660421 -5.8890657 -1.7058729 6 3198075996784 1 0
4.654367 -28.500496 -0.3361945 2 3198076001392 1 0
2.7060413 -10.187938 -1.6399645 30 3198076001392 1 0
2.2620625 -10.581611 -1.3773338 3 3198076003696 1 0
7.5226717 -28.305412 0 12 3198075999088 1 0
10.600942 -33.28398 0.20302176 71 3198076003696 1 0
11.711989 -54.826046 -0.32583913 30 3198076006000 1 0
4.0578656 -15.295335 -1.7045566 3 3198076006000 1 0
3.1170707 -19.139532 -1.8101786 2 3198076008304 1 0
14.3841915 -54.250244 1.3059927 21 3198076008304 1 0
14.01292 -86.121506 1.015801 28 3198076010608 1 0
6.3145294 -23.829353 -1.723822 5 3198076010608 1 0
4.519006 -21.199596 -1.7695146 4 3198076012912 1 0
10.574854 -33.268997 1.0159578 59 3198076012912 1 0
11.66851 -54.778484 0.977614 75 3198076015216 1 0
7.915537 -24.915209 -1.6754317 30 3198076015216 1 0
4.7905264 -29.523184 -1.741845 12 3198076017520 1 0
14.328144 -54.166046 3.2629945 71 3198076017520 1 0
11.635544 -54.701805 2.278468 86 3198076019824 1 0
7.483633 -28.307743 -1.3639203 48 3198076019824 1 0
6.152396 -28.944748 -1.550819 41 3198076022128 1 0
9.941877 -37.628494 4.778741 7 3198076022128 1 0
0 0 0 8 3198076024432 1 0
8.870986 -27.97901 -1.1958171 37 3198076024432 1 0
0 0 0 9 3198076026736 1 0
4.589042 -28.38592 -1.0041283 28 3198076026736 1 0
6.3579254 -29.975996 5.5869813 20 3198076029040 1 0
0 0 0 1 3198076029040 1 0
0 0 0 4 3198076049776 1 0
10.502655 -33.310165 -0.60964745 43 3198076049776 1 0
1.5445418 -5.890759 -1.7047946 7 3198076052080 1 0
1.7859099 -8.486372 -1.7344613 4 3198076054384 1 0
11.537451 -54.786644 -1.629419 50 3198076052080 1 0
4.557999 -28.532269 -0.33638075 2 3198076056688 1 0
2.6696832 -10.19344 -1.6393496 31 3198076056688 1 0
2.2246041 -10.585495 -1.3768287 2 3198076058992 1 0
7.426262 -28.339128 0 8 3198076054384 1 0
10.480861 -33.305218 0.20292878 71 3198076058992 1 0
11.521712 -54.86226 -0.3258159 20 3198076061296 1 0
4.01004 -15.328498 -1.7066985 3 3198076061296 1 0
3.0523312 -19.15803 -1.8109223 2 3198076063600 1 0
14.195082 -54.291767 1.3058066 21 3198076063600 1 0
13.718488 -86.181046 1.0159407 28 3198076065904 1 0
6.2375693 -23.870235 -1.7252171 5 3198076065904 1 0
4.448665 -21.226688 -1.7704909 4 3198076068208 1 0
10.457003 -33.293655 1.0156087 72 3198076068208 1 0
11.487373 -54.849445 0.9781725 12 3198076070512 1 0
7.861237 -25.041197 -1.6820832 55 3198076070512 1 0
4.496121 -28.320738 -1.6699853 11 3198076072816 1 0
14.132845 -54.176064 3.2606688 71 3198076072816 1 0
7.3850255 -28.325369 -1.363548 48 3198076075120 1 0
11.448907 -54.741173 2.278468 100 3198076075120 1 0
6.059571 -28.99289 -1.5522845 41 3198076077424 1 0
9.816759 -37.673637 4.7802033 7 3198076077424 1 0
0 0 0 8 3198076079728 1 0
8.778305 -28.016603 -1.1961427 41 3198076079728 1 0
4.4803286 -28.322338 -1.0013363 32 3198076082032 1 0
0 0 0 9 3198076082032 1 0
14.100374 -54.204884 -1.3032942 11 3198076084336 1 0
6.266165 -30.04355 5.595591 20 3198076084336 1 0
0 0 0 4 3198076105072 1 0
10.387377 -33.329536 -0.6093682 43 3198076105072 1 0
11.358553 -54.840347 -1.6298845 50 3198076107376 1 0
1.5259205 -5.899589 -1.7058729 6 3198076107376 1 0
1.7592247 -8.499955 -1.7360302 4 3198076109680 1 0
7.3338346 -28.371452 0 12 3198076109680 1 0
13.103415 -83.82022 -0.9876761 14 3198076111984 1 0
2.6356432 -10.202294 -1.6393496 32 3198076111984 1 0
2.1939993 -10.616192 -1.3798592 4 3198076114288 1 0
10.368201 -33.33627 0.20290554 76 3198076114288 1 0
11.336914 -54.89666 -0.32579264 20 3198076116592 1 0
3.9606159 -15.349558 -1.7075553 3 3198076116592 1 0
2.989788 -19.179981 -1.8120376 2 3198076118896 1 0
14.009599 -54.327538 1.3055274 21 3198076118896 1 0
13.005411 -83.511665 0.9839509 28 3198076121200 1 0
6.1651287 -23.922014 -1.7274493 5 3198076121200 1 0
10.34223 -33.321114 1.015376 63 3198076123504 1 0
4.3810377 -21.261103 -1.7721182 4 3198076123504 1 0
11.297797 -54.868393 0.97782344 21 3198076125808 1 0
7.7753305 -25.063824 -1.6818274 49 3198076125808 1 0
0 0 0 85 3198076128112 1 0
13.94718 -54.21591 3.2602038 71 3198076128112 1 0
11.262129 -54.77582 2.278305 86 3198076130416 1 0
7.2867966 -28.342546 -1.3631757 43 3198076130416 1 0
5.967293 -29.044647 -1.5539593 41 3198076132720 1 0
9.681568 -37.679913 4.7767906 7 3198076132720 1 0
0 0 0 8 3198076135024 1 0
8.676789 -28.02729 -1.1953286 45 3198076135024 1 0
4.374332 -28.278227 -0.99924237 32 3198076137328 1 0
0 0 0 9 3198076137328 1 0
6.1734962 -30.114952 5.604918 20 3198076139632 1 0
0 0 0 14 3198076139632 1 0
0 0 0 4 3198076160368 1 0
0 0 0 14 3198076160368 1 0
5.9081955 -29.036465 -0.86235976 14 3198076162672 1 0
1.5052749 -5.90489 -1.7058729 6 3198076162672 1 0
1.7302012 -8.5099125 -1.7368147 5 3198076164976 1 0
4.31171 -28.230696 -0.33246934 5 3198076167280 1 0
2.5988166 -10.207659 -1.6387346 31 3198076167280 1 0
2.1597772 -10.639403 -1.3818794 5 3198076169584 1 0
0 0 0 1 3198076169584 1 0
0 0 0 16 3198076171888 1 0
3.9084132 -15.37114 -1.7084122 3 3198076171888 1 0
2.9225812 -19.194366 -1.8124093 2 3198076174192 1 0
13.813563 -54.361206 1.3051552 21 3198076174192 1 0
13.117963 -86.242134 1.0155681 28 3198076176496 1 0
6.082333 -23.951435 -1.7280073 5 3198076176496 1 0
4.306349 -21.280424 -1.7724437 4 3198076178800 1 0
0 0 0 6 3198076178800 1 0
11.108157 -54.93566 0.9783121 15 3198076181104 1 0
7.7025204 -25.14475 -1.6854091 55 3198076181104 1 0
4.272181 -28.173647 -1.6595203 15 3198076183408 1 0
7.236317 -28.404737 0 36 3198076164976 1 0
13.751938 -54.257523 3.2597387 71 3198076183408 1 0
11.066472 -54.815685 2.278305 64 3198076185712 1 0
7.1855493 -28.368385 -1.3631757 43 3198076185712 1 0
5.858596 -29.042316 -1.5527031 37 3198076188016 1 0
9.545716 -37.710464 4.7763033 7 3198076188016 1 0
0 0 0 8 3198076190320 1 0
8.548212 -27.966488 -1.1914207 33 3198076190320 1 0
4.265552 -28.246326 -0.99756724 36 3198076192624 1 0
0 0 0 9 3198076192624 1 0
6.0782485 -30.202562 5.6171155 15 3198076194928 1 0
7.1740494 -28.395847 -0.68151695 11 3198076194928 1 0
0 0 0 17 3198076215664 1 0
10.9666195 -54.92414 -1.6300008 50 3198076217968 1 0
0 0 0 4 3198076215664 1 0
1.484603 -5.914093 -1.7069511 6 3198076217968 1 0
1.7014254 -8.527712 -1.7391682 4 3198076220272 1 0
0 0 0 3 3198076220272 1 0
4.2153106 -28.289734 -0.33298156 13 3198076222576 1 0
2.5625703 -10.220894 -1.6393496 16 3198076222576 1 0
2.1218522 -10.651078 -1.3823845 8 3198076224880 1 0
0 0 0 9 3198076227184 1 0
3.8545403 -15.392938 -1.7092689 3 3198076227184 1 0
2.8565602 -19.22846 -1.81464 2 3198076229488 1 0
13.625338 -54.44579 1.3059927 21 3198076229488 1 0
19.67019 -132.53925 1.5599052 28 3198076231792 1 0
12.570051 -41.45961 0.25179535 76 3198076224880 1 0
6.006376 -24.015842 -1.7310766 5 3198076231792 1 0
4.2287855 -21.291908 -1.7721182 4 3198076234096 1 0
10.910331 -54.975292 0.9783121 12 3198076236400 1 0
12.539673 -41.44624 1.2602019 72 3198076234096 1 0
7.630443 -25.23345 -1.6895024 52 3198076236400 1 0
4.1785393 -28.240166 -1.6625434 15 3198076238704 1 0
13.554029 -54.294956 3.259041 71 3198076238704 1 0
10.870653 -54.858932 2.278468 64 3198076241008 1 0
7.088633 -28.413347 -1.3641064 48 3198076241008 1 0
9.406888 -37.728966 4.7743535 7 3198076243312 1 0
0 0 0 8 3198076245616 1 0
8.396341 -27.82465 -1.1840934 40 3198076245616 1 0
4.1765294 -28.340445 -1.0003592 20 3198076247920 1 0
5.73913 -28.984724 -1.5485163 32 3198076243312 1 0
0 0 0 9 3198076247920 1 0
5.989873 -30.3205 5.635052 15 3198076250224 1 0
13.530879 -54.370445 -1.3037595 33 3198076250224 1 0
0 0 0 4 3198076270960 1 0
12.447711 -41.490383 -0.75610805 51 3198076270960 1 0
5.722226 -29.187778 -0.86561793 24 3198076273264 1 0
1.4639931 -5.9192286 -1.7069511 5 3198076273264 1 0
1.6710179 -8.529725 -1.7383837 4 3198076275568 1 0
13.455025 -54.433735 0 22 3198076275568 1 0
12.217886 -83.994286 -0.9881417 14 3198076277872 1 0
2.5289962 -10.237395 -1.6405793 8 3198076277872 1 0
12.420724 -41.483715 0.25167912 61 3198076280176 1 0
2.08497 -10.658359 -1.3823845 8 3198076280176 1 0
5.7045765 -29.183174 -0.17282307 38 3198076282480 1 0
3.804204 -15.417744 -1.710554 3 3198076282480 1 0
2.7902625 -19.238194 -1.81464 2 3198076284784 1 0
13.438539 -54.496315 1.3060857 21 3198076284784 1 0
12.688809 -87.571495 1.0301428 28 3198076287088 1 0
4.1610193 -21.333689 -1.7743964 4 3198076289392 1 0
5.936145 -24.086727 -1.734704 5 3198076287088 1 0
12.389323 -41.462223 1.2593874 48 3198076289392 1 0
10.7212 -55.008415 0.9782423 75 3198076291696 1 0
7.5599613 -25.312986 -1.693084 41 3198076291696 1 0
3.2043836 -22.17975 -1.3051047 5 3198076294000 1 1
13.36742 -54.337086 3.2588084 71 3198076294000 1 0
10.682721 -54.891766 2.278305 86 3198076296304 1 0
5.6229124 -28.913904 -1.5437014 32 3198076298608 1 0
6.9993153 -28.468401 -1.3655955 43 3198076296304 1 0
9.279375 -37.764618 4.774841 7 3198076298608 1 0
0 0 0 8 3198076300912 1 0
8.34632 -28.00238 -1.1904438 41 3198076300912 1 0
4.0958385 -28.46127 -1.0041283 24 3198076303216 1 0
0 0 0 9 3198076303216 1 0
5.9030495 -30.421705 5.6501193 15 3198076305520 1 0
13.345039 -54.408123 -1.3035734 45 3198076305520 1 0
0 0 0 4 3198076326256 1 0
11.869071 -40.043648 -0.7290219 42 3198076326256 1 0
10.59438 -55.009373 -1.6303499 33 3198076328560 1 0
1.643216 -8.53912 -1.7391682 2 3198076330864 1 0
1.4460946 -5.931556 -1.7091078 5 3198076328560 1 0
13.276645 -54.493984 0 22 3198076330864 1 0
11.887246 -83.694305 -0.9841372 28 3198076333168 1 0
2.4936519 -10.241994 -1.6399645 8 3198076333168 1 0
2.0489938 -10.665334 -1.3823845 9 3198076335472 1 0
12.278406 -41.51772 0.2516326 61 3198076335472 1 0
0 0 0 19 3198076337776 1 0
3.753813 -15.438276 -1.7114109 2 3198076337776 1 0
2.72198 -19.227861 -1.8127811 2 3198076340080 1 0
12.0483675 -85.202515 1.001785 28 3198076342384 1 0
13.248268 -54.52231 1.3056204 21 3198076340080 1 0
5.856608 -24.118507 -1.7355411 5 3198076342384 1 0
4.090017 -21.359592 -1.7753729 4 3198076344688 1 0
12.246932 -41.504505 1.2593874 66 3198076344688 1 0
10.531522 -55.045044 0.9782423 37 3198076346992 1 0
7.4918575 -25.403984 -1.6974331 38 3198076346992 1 0
0 0 0 20 3198076349296 1 0
10.4910965 -54.92464 2.2781422 64 3198076351600 1 0
6.9040756 -28.508093 -1.3663399 43 3198076351600 1 0
13.174546 -54.36363 3.2576456 47 3198076349296 1 0
9.147495 -37.79678 4.774841 7 3198076353904 1 0
5.511466 -28.878424 -1.5407705 31 3198076353904 1 0
0 0 0 8 3198076356208 1 0
4.0100794 -28.578438 -1.0077579 28 3198076358512 1 0
8.2706785 -28.108147 -1.1937003 41 3198076356208 1 0
0 0 0 9 3198076358512 1 0
5.821987 -30.581543 5.675948 10 3198076360816 1 0
13.1507845 -54.447174 -1.3033872 56 3198076360816 1 0
0 0 0 4 3198076381552 1 0
11.681814 -39.94869 -0.7265088 70 3198076381552 1 0
10.391948 -55.043903 -1.6302335 50 3198076383856 1 0
1.4225475 -5.9293256 -1.7069511 5 3198076383856 1 0
1.6119075 -8.545085 -1.7391682 3 3198076386160 1 0
13.07496 -54.5345 0 22 3198076386160 1 0
11.529454 -83.36884 -0.97980666 14 3198076388464 1 0
2.4542544 -10.243378 -1.6387346 8 3198076388464 1 0
2.010624 -10.676671 -1.3828896 10 3198076390768 1 0
12.123913 -41.554764 0.2515861 61 3198076390768 1 0
10.369189 -55.107998 -0.32590887 20 3198076393072 1 0
3.69998 -15.463534 -1.712696 3 3198076393072 1 0
2.6574697 -19.281109 -1.8168707 2 3198076395376 1 0
13.052065 -54.586056 1.3059927 21 3198076395376 1 0
12.039305 -87.44917 1.0276748 28 3198076397680 1 0
5.771879 -24.155336 -1.7366571 5 3198076397680 1 0
4.012438 -21.378359 -1.7756983 4 3198076399984 1 0
12.090258 -41.533756 1.258922 66 3198076399984 1 0
10.331912 -55.095066 0.9784517 37 3198076402288 1 0
7.4198837 -25.504097 -1.7022939 24 3198076402288 1 0
3.0359204 -22.126856 -1.3006861 10 3198076404592 1 1
12.975204 -54.41155 3.2576456 47 3198076404592 1 0
10.290453 -54.966652 2.278305 64 3198076406896 1 0
6.8097305 -28.57596 -1.3683873 48 3198076406896 1 0
5.389426 -28.81205 -1.536165 27 3198076409200 1 0
9.002463 -37.80302 4.7714286 7 3198076409200 1 0
0 0 0 8 3198076411504 1 0
3.9193728 -28.695923 -1.0113875 32 3198076413808 1 0
8.152004 -28.084536 -1.1914207 37 3198076411504 1 0
0 0 0 9 3198076413808 1 0
5.743784 -30.78449 5.7096696 10 3198076416112 1 0
12.949288 -54.48723 -1.3032011 78 3198076416112 1 0
0 0 0 4 3198076436296 1 0
11.52819 -39.914204 -0.7251824 56 3198076436296 1 0
10.215188 -55.109512 -1.6311644 34 3198076438600 1 0
1.4046497 -5.9415073 -1.7091078 6 3198076438600 1 0
1.5849907 -8.558097 -1.7407371 4 3198076440904 1 0
12.925315 -54.709915 0 22 3198076440904 1 0
10.999442 -81.52777 -0.9577352 14 3198076443208 1 0
2.4184563 -10.243767 -1.6375048 8 3198076443208 1 0
1.9766506 -10.691084 -1.3838997 9 3198076445512 1 0
11.986046 -41.594738 0.2515861 38 3198076445512 1 0
0 0 0 108 3198076447816 1 0
3.6523314 -15.491202 -1.7144096 3 3198076447816 1 0
2.5924554 -19.281921 -1.8161271 2 3198076450120 1 0
12.87373 -54.640717 1.3062718 21 3198076450120 1 0
11.7678795 -87.62736 1.0293046 28 3198076452424 1 0
5.6954036 -24.18988 -1.7377733 5 3198076452424 1 0
3.9451346 -21.41115 -1.7773255 4 3198076454728 1 0
11.955775 -41.585148 1.259271 18 3198076454728 1 0
10.147705 -55.12116 0.9783121 37 3198076457032 1 0
7.3495994 -25.578438 -1.7056197 13 3198076457032 1 0
2.9561722 -22.089308 -1.2978956 5 3198076459336 1 1
10.109566 -55.008335 2.2786307 64 3198076461640 1 0
12.793785 -54.45039 3.2574131 47 3198076459336 1 0
6.7240653 -28.637285 -1.3702486 48 3198076461640 1 0
5.2772593 -28.739399 -1.5313501 31 3198076463944 1 0
8.877054 -37.832664 4.7714286 7 3198076463944 1 0
0 0 0 8 3198076466248 1 0
8.062132 -28.12294 -1.1919092 37 3198076466248 1 0
3.841083 -28.835564 -1.0158546 28 3198076468552 1 0
0 0 0 9 3198076468552 1 0
5.6834946 -31.031742 5.752001 10 3198076470856 1 0
12.768531 -54.52987 -1.3032011 56 3198076470856 1 0
0 0 0 4 3198076491592 1 0
9.568486 -33.59043 -0.60964745 32 3198076491592 1 0
10.0053625 -55.09923 -1.6297681 33 3198076493896 1 0
1.3829501 -5.9465957 -1.7091078 5 3198076493896 1 0
1.5538622 -8.563803 -1.7407371 4 3198076496200 1 0
12.725393 -54.752655 0 22 3198076496200 1 0
0 0 0 10 3198076498504 1 0
2.3813422 -10.252458 -1.6375048 9 3198076498504 1 0
1.9387822 -10.702048 -1.3844048 6 3198076500808 1 0
13.855985 -48.744045 0.29452455 55 3198076500808 1 0
9.824356 -54.27305 -0.32056192 117 3198076503112 1 0
3.6002512 -15.519719 -1.7161231 3 3198076503112 1 0
2.526549 -19.314768 -1.8183577 2 3198076505416 1 0
12.676341 -54.678635 1.3060857 10 3198076505416 1 0
11.222869 -85.88799 1.0083972 28 3198076507720 1 0
5.6190767 -24.25278 -1.7408426 5 3198076507720 1 0
3.869834 -21.42894 -1.777651 4 3198076510024 1 0
13.823423 -48.731888 1.4741919 64 3198076510024 1 0
9.944305 -55.109447 0.9774744 100 3198076512328 1 0
7.2678623 -25.634977 -1.7076663 8 3198076512328 1 0
2.8856258 -22.155012 -1.3011513 2 3198076514632 1 1
12.599356 -54.483414 3.2567153 47 3198076514632 1 0
9.918105 -55.0513 2.2789564 64 3198076516936 1 0
6.629943 -28.68793 -1.3715514 43 3198076516936 1 0
5.1641693 -28.686882 -1.5275819 31 3198076519240 1 0
8.744046 -37.85955 4.7709413 7 3198076519240 1 0
0 0 0 8 3198076521544 1 0
7.8130894 -27.616238 -1.1692759 82 3198076521544 1 0
