# .PCD v.7 - Point Cloud Data file format
VERSION .7
FIELDS x y z rgb timestamp_ns device_id active
SIZE 4 4 4 4 8 1 1
TYPE F F F F F U U
COUNT 1 1 1 1 1 1 1
WIDTH 971
HEIGHT 1
VIEWPOINT 0 0 0 1 0 0 0
POINTS 971               
DATA ascii
-12.556442 18.372595 -1.1662544 40 3206019902240 1 0
-20.122026 29.451757 2.9118717 7 3206019904544 1 0
-14.555887 19.211462 2.959475 6 3206019902240 1 0
-16.465385 19.663303 -1.0448744 6 3206019904544 1 0
-19.405912 31.626255 -1.2957485 19 3206019906848 1 0
-13.051952 19.115524 4.2201905 11 3206019909152 1 0
0 0 0 3 3206019909152 1 0
-2.32798 3.4190965 -1.9288298 3 3206019929888 1 0
-13.705236 18.099674 6.083283 2 3206019906848 1 0
-27.111113 32.482086 -0.73851603 21 3206019929888 1 0
-4.4434814 5.8878746 -2.0649474 4 3206019932192 1 0
-6.5136223 9.57282 -2.315753 3 3206019934496 1 0
-12.465933 18.314686 -0.6447626 37 3206019932192 1 0
-24.844757 32.931225 0 6 3206019934496 1 0
-11.18353 18.304497 -0.24972452 29 3206019936800 1 0
-9.881569 13.101981 -2.5531056 9 3206019936800 1 0
-11.794108 17.344734 -2.6698153 4 3206019939104 1 0
-27.066761 32.469246 0.24568121 35 3206019939104 1 0
-12.453059 18.31982 -0.12874551 24 3206019941408 1 0
-11.8946 15.781086 -2.128661 2 3206019941408 1 0
-9.258066 15.168635 -1.6588657 63 3206019943712 1 0
-24.786634 32.89596 0.9584414 6 3206019943712 1 0
0 0 0 19 3206019946016 1 0
-15.948318 21.172781 -1.853569 3 3206019946016 1 0
-10.490885 15.448465 -1.5244448 43 3206019948320 1 0
0 0 0 20 3206019948320 1 0
-16.169758 19.42736 -1.6199166 2 3206019950624 1 0
-12.426703 18.30509 0.38618684 21 3206019950624 1 0
0 0 0 26 3206019952928 1 0
0 0 0 3 3206019952928 1 0
-12.356611 18.21381 0.89669997 28 3206019955232 1 0
-15.944981 21.19528 -1.2354944 3 3206019955232 1 0
-12.486142 18.410791 -1.1658357 6 3206019957536 1 0
-14.441718 19.203133 2.950213 6 3206019957536 1 0
-19.615847 28.933037 2.8536148 7 3206019959840 1 0
-16.315582 19.626932 -1.0398268 3 3206019959840 1 0
0 0 0 15 3206019962144 1 0
0 0 0 94 3206019962144 1 0
-12.936705 19.093971 4.2051234 8 3206019964448 1 0
-19.0797 25.394463 -0.7391165 8 3206019964448 1 0
-2.3134034 3.424602 -1.9271393 3 3206019985184 1 0
0 0 0 43 3206019985184 1 0
0 0 0 9 3206019987488 1 0
-6.489745 9.612695 -2.3196752 2 3206019989792 1 0
-4.4265757 5.910223 -2.0671039 4 3206019987488 1 0
-24.631351 32.89647 0 6 3206019989792 1 0
-10.839392 17.886513 -0.2434849 19 3206019992096 1 0
-9.831686 13.134518 -2.5524905 8 3206019992096 1 0
-11.731469 17.387163 -2.6698153 6 3206019994400 1 0
-27.054024 32.693012 0.24663436 36 3206019994400 1 0
-12.371509 18.341227 -0.12858278 24 3206019996704 1 0
0 0 0 70 3206019996704 1 0
-9.189296 15.177814 -1.6562634 68 3206019999008 1 0
-24.568184 32.849934 0.95453316 6 3206019999008 1 0
-10.926844 18.053326 0.24567342 8 3206020001312 1 0
-15.860823 21.213497 -1.8521739 6 3206020001312 1 0
-27.065722 32.74398 1.2363477 17 3206020003616 1 0
-12.373103 18.365479 0.38653588 7 3206020005920 1 0
-16.144224 19.5367 -1.6242657 2 3206020005920 1 0
-10.395891 15.426089 -1.5185865 43 3206020003616 1 0
-9.380856 15.5135565 -1.0558046 52 3206020008224 1 0
0 0 0 3 3206020008224 1 0
-12.292692 18.25701 0.89669997 25 3206020010528 1 0
-15.985351 21.404707 -1.2444284 3 3206020010528 1 0
-12.428493 18.464205 -1.1664639 3 3206020012832 1 0
-14.331845 19.196163 2.9414384 6 3206020012832 1 0
-12.294903 18.27119 1.7978294 9 3206020015136 1 0
-16.25489 19.692776 -1.0403153 3 3206020015136 1 0
-10.979936 18.180716 -0.7416841 60 3206020017440 1 0
0 0 0 13 3206020017440 1 0
-12.927907 19.22335 4.223778 30 3206020019744 1 0
-18.89641 25.331865 -0.73539436 8 3206020019744 1 0
-2.300015 3.429244 -1.9254488 4 3206020040480 1 0
-27.043783 32.865124 -0.742914 50 3206020040480 1 0
-12.382436 18.467596 -0.64708984 3 3206020042784 1 0
-4.4023113 5.9187202 -2.0649474 4 3206020042784 1 0
-6.448957 9.621224 -2.3165374 2 3206020045088 1 0
-24.500166 32.949436 0 6 3206020045088 1 0
-10.569354 17.572987 -0.23873533 28 3206020047392 1 0
-9.790147 13.170434 -2.5531056 7 3206020047392 1 0
-11.68649 17.44609 -2.6728458 4 3206020049696 1 0
-27.035938 32.894577 0.24747129 36 3206020049696 1 0
-12.329981 18.412512 -0.128792 11 3206020052000 1 0
-11.6827345 15.726036 -2.1102402 64 3206020052000 1 0
-9.119789 15.177877 -1.6529173 70 3206020054304 1 0
-24.426683 32.890556 0.9533235 6 3206020054304 1 0
-10.898949 18.144873 0.24641845 30 3206020056608 1 0
-15.813093 21.298819 -1.8549641 6 3206020056608 1 0
-10.306093 15.40475 -1.5130538 50 3206020058912 1 0
-27.061632 32.964916 1.2412349 17 3206020058912 1 0
-12.282024 18.363997 0.38562837 4 3206020061216 1 0
-16.065405 19.575752 -1.6229866 2 3206020061216 1 0
-9.3015175 15.500745 -1.0527813 78 3206020063520 1 0
0 0 0 3 3206020063520 1 0
-12.250607 18.328558 0.89816546 25 3206020065824 1 0
-15.924465 21.47492 -1.245359 3 3206020065824 1 0
-14.223872 19.187418 2.932664 6 3206020068128 1 0
-12.21037 18.279865 1.7945749 6 3206020070432 1 0
-16.309246 19.896467 -1.0481311 3 3206020070432 1 0
0 0 0 35 3206020068128 1 0
-10.886908 18.166704 -0.7395901 54 3206020072736 1 0
-12.686939 17.12457 5.710583 6 3206020072736 1 0
-12.824845 19.21188 4.2115808 14 3206020075040 1 0
-18.75241 25.319317 -0.73316115 8 3206020075040 1 0
-2.2920482 3.4432871 -1.9288298 3 3206020095776 1 0
-27.014933 33.06463 -0.74528754 36 3206020095776 1 0
-17.915329 26.922243 -0.94113696 5 3206020098080 1 0
-4.3862004 5.9402485 -2.0671039 4 3206020098080 1 0
-6.4175057 9.646942 -2.317322 2 3206020100384 1 0
-24.287605 32.902813 0 5 3206020100384 1 0
-10.616573 17.791813 -0.24120325 31 3206020102688 1 0
-9.746461 13.207708 -2.5537205 7 3206020102688 1 0
-10.256907 15.428149 -2.3581853 1 3206020104992 1 0
-27.009464 33.097214 0.24828495 22 3206020104992 1 0
-21.699545 32.65014 -0.22785026 5 3206020107296 1 0
-11.564036 15.680302 -2.0986738 52 3206020107296 1 0
-9.058596 15.195935 -1.6514302 73 3206020109600 1 0
-24.212057 32.840435 0.94941527 6 3206020109600 1 0
-10.837592 18.186243 0.24646501 31 3206020111904 1 0
-15.857021 21.51449 -1.8689154 9 3206020111904 1 0
-10.214768 15.38417 -1.5075209 48 3206020114208 1 0
-27.012077 33.139755 1.2442603 5 3206020114208 1 0
-20.949936 31.562057 0.66123676 6 3206020116512 1 0
-16.105402 19.764776 -1.6339872 2 3206020116512 1 0
0 0 0 3 3206020118816 1 0
-9.241225 15.522825 -1.0520837 86 3206020118816 1 0
-12.210856 18.407845 0.8999566 23 3206020121120 1 0
-15.870726 21.559336 -1.2470341 3 3206020121120 1 0
-12.499591 18.849064 -1.1853048 55 3206020123424 1 0
-14.095626 19.153814 2.9199896 3 3206020123424 1 0
-16.113552 19.798286 -1.0399896 3 3206020125728 1 0
-12.170719 18.358929 1.7981548 3 3206020125728 1 0
-10.831599 18.21834 -0.74014854 63 3206020128032 1 0
-12.597327 17.128288 5.697125 4 3206020128032 1 0
-18.59522 25.29119 -0.7304626 8 3206020130336 1 0
-2.2760184 3.4452174 -1.9254488 3 3206020151072 1 0
-12.848988 19.39431 4.241715 9 3206020130336 1 0
-25.969616 32.01264 -0.71952784 6 3206020151072 1 0
-17.918194 27.131414 -0.9462569 5 3206020153376 1 0
-4.363161 5.9524164 -2.0660255 4 3206020153376 1 0
-6.381632 9.666012 -2.3165374 2 3206020155680 1 0
-24.127684 32.92609 0 5 3206020155680 1 0
-10.499391 17.735832 -0.23994601 21 3206020157984 1 0
-9.697962 13.238461 -2.5531056 7 3206020157984 1 0
-10.237955 15.51685 -2.3662665 1 3206020160288 1 0
-25.934357 32.00722 0.2394276 13 3206020160288 1 0
-21.506157 32.60548 -0.22701335 5 3206020162592 1 0
-11.457546 15.649976 -2.0892491 52 3206020162592 1 0
-8.993333 15.206895 -1.6491996 73 3206020164896 1 0
-10.635629 17.989836 0.24329863 21 3206020167200 1 0
-24.06421 32.879574 0.94811255 6 3206020164896 1 0
0 0 0 49 3206020167200 1 0
-10.130295 15.373126 -1.5029645 60 3206020169504 1 0
-20.726173 25.60992 0.958824 8 3206020169504 1 0
-21.526077 32.677025 0.6830174 6 3206020171808 1 0
-15.991119 19.765015 -1.6293823 2 3206020171808 1 0
-9.20323 15.582495 -1.0539442 71 3206020174112 1 0
0 0 0 3 3206020174112 1 0
-12.172898 18.490416 0.9019105 25 3206020176416 1 0
-15.830736 21.662994 -1.249826 3 3206020176416 1 0
-12.506187 19.002691 -1.192213 39 3206020178720 1 0
-19.541412 29.701862 2.9024334 7 3206020181024 1 0
-16.20009 20.047144 -1.050085 3 3206020181024 1 0
-10.790279 18.293913 -0.7416841 37 3206020183328 1 0
-15.115376 20.690403 3.146179 3 3206020178720 1 0
-12.585305 17.237688 5.7188654 6 3206020183328 1 0
-18.469103 25.304262 -0.72897375 8 3206020185632 1 0
-12.813639 19.488365 4.252477 27 3206020185632 1 0
-2.2639785 3.4531412 -1.9254488 3 3206020206368 1 0
-27.019264 33.5452 -0.75184965 50 3206020206368 1 0
-17.854063 27.240612 -0.947886 5 3206020208672 1 0
-4.344623 5.970725 -2.0671039 4 3206020208672 1 0
-6.3457026 9.684948 -2.315753 1 3206020210976 1 0
-23.913776 32.874252 0 5 3206020210976 1 0
-10.368549 17.655111 -0.23836282 31 3206020213280 1 0
-9.658666 13.281822 -2.5549502 7 3206020213280 1 0
-26.988358 33.54676 0.25023776 22 3206020215584 1 0
-21.368114 32.64354 -0.22675763 5 3206020217888 1 0
-11.360763 15.631967 -2.0815382 52 3206020217888 1 0
-10.085913 15.40311 -2.3435383 1 3206020215584 1 0
-8.942211 15.24163 -1.6495713 73 3206020220192 1 0
-23.84352 32.81779 0.9439252 6 3206020220192 1 0
-10.839869 18.482267 0.24944513 20 3206020222496 1 0
-11.527745 15.871434 -1.3716913 7 3206020222496 1 0
-10.050386 15.368355 -1.4990591 58 3206020224800 1 0
-20.543987 25.566792 0.9545186 8 3206020224800 1 0
-21.374678 32.695057 0.6818306 6 3206020227104 1 0
-16.009525 19.929636 -1.6383363 2 3206020227104 1 0
-9.173005 15.6558695 -1.0567348 67 3206020229408 1 0
-36.117374 49.77217 3.5813637 28 3206020229408 1 0
-12.154187 18.603056 0.90532994 100 3206020231712 1 0
-15.811331 21.795744 -1.254293 3 3206020231712 1 0
-12.553365 19.220139 -1.203099 19 3206020234016 1 0
-15.029077 20.723757 3.143254 7 3206020234016 1 0
-19.494284 29.856688 2.9108953 7 3206020236320 1 0
-16.112507 20.081749 -1.0489452 3 3206020236320 1 0
-10.776828 18.417725 -0.74517405 48 3206020238624 1 0
-14.27775 19.699799 6.519134 9 3206020238624 1 0
-12.528341 19.200119 4.1800117 23 3206020240928 1 0
-18.361893 25.342672 -0.72822934 8 3206020240928 1 0
-2.2558653 3.4671001 -1.9288298 4 3206020261664 1 0
-26.989431 33.74863 -0.754293 51 3206020261664 1 0
-17.83517 27.420078 -0.95195866 5 3206020263968 1 0
-4.323755 5.985854 -2.0671039 5 3206020263968 1 0
-6.3161335 9.713616 -2.317322 2 3206020266272 1 0
-23.714575 32.840782 0 5 3206020266272 1 0
-10.314913 17.70502 -0.23854908 27 3206020268576 1 0
-9.619185 13.32507 -2.556795 7 3206020268576 1 0
0 0 0 38 3206020270880 1 0
-26.960962 33.753273 0.25107467 15 3206020270880 1 0
-21.171234 32.59046 -0.22587422 5 3206020273184 1 0
-11.261917 15.610248 -2.0733988 55 3206020273184 1 0
-8.896967 15.28652 -1.6510584 71 3206020275488 1 0
-10.8637905 18.672108 0.25149396 15 3206020277792 1 0
-11.446604 15.875974 -1.3686221 3 3206020277792 1 0
-23.703089 32.865143 0.9429016 6 3206020275488 1 0
-9.953272 15.33646 -1.4925499 30 3206020280096 1 0
-20.427187 25.603968 0.9532386 12 3206020280096 1 0
-21.177704 32.641975 0.6791778 6 3206020282400 1 0
-15.947329 19.99476 -1.6391038 2 3206020282400 1 0
-9.146394 15.736128 -1.0599906 37 3206020284704 1 0
-35.782375 49.674374 3.5653174 28 3206020284704 1 0
-12.113093 18.682259 0.90712106 111 3206020287008 1 0
-15.842561 21.999956 -1.2628547 3 3206020287008 1 0
0 0 0 17 3206020289312 1 0
0 0 0 19 3206020289312 1 0
0 0 0 25 3206020291616 1 0
-16.146902 20.269163 -1.055784 3 3206020291616 1 0
-12.394198 21.352474 -0.86215717 50 3206020293920 1 0
-14.245001 19.7997 6.5356984 9 3206020293920 1 0
-12.595995 19.451828 4.225213 24 3206020296224 1 0
-18.259308 25.387135 -0.727671 13 3206020296224 1 0
-2.2457156 3.477999 -1.9305202 3 3206020316960 1 0
-26.973427 33.971054 -0.7571552 44 3206020316960 1 0
-17.865313 27.676874 -0.95870763 6 3206020319264 1 0
-4.3051224 6.0040092 -2.0681822 4 3206020319264 1 0
-6.280203 9.732217 -2.3165374 1 3206020321568 1 0
-10.271448 17.77186 -0.23896815 21 3206020323872 1 0
-23.560658 32.867752 0 5 3206020321568 1 0
-9.864605 15.296119 -2.3167694 8 3206020326176 1 0
-26.943384 33.971756 0.25200456 15 3206020326176 1 0
-9.577509 13.364783 -2.558025 7 3206020323872 1 0
-21.023853 32.60961 -0.22550225 5 3206020328480 1 0
-11.159299 15.581158 -2.0644028 55 3206020328480 1 0
-8.858162 15.34124 -1.6536609 65 3206020330784 1 0
-23.487228 32.80359 0.9388073 6 3206020330784 1 0
-10.58155 18.331783 0.24641845 16 3206020333088 1 0
0 0 0 1 3206020333088 1 0
-9.868189 15.32026 -1.487668 34 3206020335392 1 0
-20.229939 25.536036 0.9481187 12 3206020335392 1 0
-21.04412 32.6807 0.67847973 6 3206020337696 1 0
-15.955577 20.146273 -1.6470345 2 3206020337696 1 0
0 0 0 24 3206020340000 1 0
0 0 0 3 3206020340000 1 0
-12.066607 18.750349 0.90842366 59 3206020342304 1 0
-17.872858 24.99871 -1.4314835 4 3206020342304 1 0
-10.367399 16.114836 -1.0042223 7 3206020344608 1 0
-13.865449 19.399225 2.9277892 18 3206020344608 1 0
-11.824378 18.38511 1.7844856 5 3206020346912 1 0
-16.097809 20.348959 -1.0570867 3 3206020346912 1 0
-12.371645 21.480957 -0.86564714 43 3206020349216 1 0
-12.3991375 17.357838 5.7157598 20 3206020349216 1 0
-12.491846 19.434727 4.2122984 17 3206020351520 1 0
-18.168707 25.442225 -0.72748494 13 3206020351520 1 0
-2.2322133 3.482375 -1.9288298 4 3206020372256 1 0
-26.964642 34.192207 -0.7600872 44 3206020372256 1 0
-20.851568 32.540005 -1.1247565 8 3206020374560 1 0
-4.285145 6.018284 -2.0681822 4 3206020374560 1 0
-6.249869 9.756383 -2.317322 1 3206020376864 1 0
-23.35827 32.81569 0 5 3206020376864 1 0
-10.669742 18.604057 -0.24967796 21 3206020379168 1 0
-9.528262 13.390237 -2.556795 5 3206020379168 1 0
-9.819798 15.339058 -2.3182845 35 3206020381472 1 0
-26.933544 34.19367 0.25298098 15 3206020381472 1 0
-20.845415 32.5721 -0.22475833 5 3206020383776 1 0
-11.067818 15.563384 -2.05712 56 3206020383776 1 0
-8.826367 15.405472 -1.6573787 62 3206020386080 1 0
-23.34908 32.843204 0.9376907 6 3206020386080 1 0
-10.531693 18.388134 0.24669783 16 3206020388384 1 0
0 0 0 1 3206020388384 1 0
-9.794962 15.319881 -1.4844135 32 3206020390688 1 0
-20.057129 25.49417 0.944046 11 3206020390688 1 0
-20.853796 32.626987 0.6758968 6 3206020392992 1 0
-16.025555 20.37582 -1.6613611 2 3206020392992 1 0
-9.0965805 15.898535 -1.0667348 3 3206020395296 1 0
0 0 0 3 3206020395296 1 0
0 0 0 29 3206020397600 1 0
-17.72541 24.971292 -1.4264581 4 3206020397600 1 0
-10.275948 16.092793 -1.0006635 7 3206020399904 1 0
-13.689061 19.290888 2.90439 27 3206020399904 1 0
-11.729427 18.374928 1.7796037 17 3206020402208 1 0
-16.181385 20.598606 -1.0671821 3 3206020402208 1 0
-12.401281 21.703604 -0.8729062 23 3206020404512 1 0
-12.223514 17.23623 5.6619253 13 3206020404512 1 0
-12.412507 19.457493 4.2079935 25 3206020406816 1 0
-18.088394 25.514093 -0.72776407 8 3206020406816 1 0
-2.220044 3.4901457 -1.9288298 4 3206020427552 1 0
-26.95361 34.42468 -0.76315886 44 3206020427552 1 0
-20.70353 32.55861 -1.1228946 7 3206020429856 1 0
-4.264111 6.033205 -2.0681822 5 3206020429856 1 0
-6.209462 9.768209 -2.3149686 1 3206020432160 1 0
-23.220499 32.864357 0 5 3206020432160 1 0
-9.490584 13.436329 -2.5592546 5 3206020434464 1 0
-9.730024 15.316304 -2.3096983 8 3206020436768 1 0
-26.92244 34.426113 0.25400388 15 3206020436768 1 0
-20.690847 32.580513 -0.22431663 5 3206020439072 1 0
-10.969848 15.540192 -2.0489807 57 3206020439072 1 0
-8.790249 15.467351 -1.6607246 60 3206020441376 1 0
-23.227375 32.914707 0.9374115 6 3206020441376 1 0
-10.414098 18.330887 0.2454406 22 3206020443680 1 0
0 0 0 1 3206020443680 1 0
-10.472227 18.40826 -0.24655814 22 3206020434464 1 0
-9.702981 15.293385 -1.4785552 32 3206020445984 1 0
-19.940943 25.529366 0.942766 11 3206020445984 1 0
-15.966616 20.447367 -1.6626402 2 3206020448288 1 0
-20.707647 32.648922 0.6748496 6 3206020448288 1 0
-9.066652 15.975339 -1.0697579 3 3206020450592 1 0
0 0 0 3 3206020450592 1 0
-12.91074 20.368946 0.9825109 16 3206020452896 1 0
-17.718685 25.147333 -1.4329724 4 3206020452896 1 0
-10.189778 16.081326 -0.9977327 7 3206020455200 1 0
-13.550765 19.237934 2.8892784 21 3206020455200 1 0
-11.663082 18.41239 1.7792783 8 3206020457504 1 0
-16.097095 20.639206 -1.0663679 3 3206020457504 1 0
-11.965334 16.997608 5.569786 10 3206020459808 1 0
-12.514674 22.08063 -0.8863076 10 3206020459808 1 0
-18.02454 25.613052 -0.72878766 8 3206020462112 1 0
-12.371874 19.543926 4.217321 25 3206020462112 1 0
-19.901594 25.601578 -0.56601644 23 3206020482296 1 0
-20.555614 32.576576 -1.1210328 7 3206020484600 1 0
-2.2097826 3.5009394 -1.9305202 3 3206020482296 1 0
-4.2386007 6.041746 -2.0660255 4 3206020484600 1 0
-6.18579 9.806413 -2.3188908 1 3206020486904 1 0
-23.013767 32.814217 0 5 3206020486904 1 0
-10.403975 18.437737 -0.24646501 29 3206020489208 1 0
-9.445894 13.472611 -2.5598695 9 3206020489208 1 0
-9.632066 15.279684 -2.2990918 4 3206020491512 1 0
-19.891844 25.61978 0.18851523 13 3206020491512 1 0
-11.102066 17.617277 -0.12102729 4 3206020493816 1 0
-10.869892 15.5132475 -2.040413 59 3206020493816 1 0
-8.767496 15.553451 -1.6666731 33 3206020496120 1 0
-23.011393 32.85147 0.9333172 6 3206020496120 1 0
-10.295068 18.269558 0.2441368 14 3206020498424 1 0
0 0 0 1 3206020498424 1 0
-9.6198015 15.279928 -1.4739988 32 3206020500728 1 0
-19.851707 25.598816 0.942766 3 3206020500728 1 0
-20.510475 32.588997 0.67212707 6 3206020503032 1 0
-15.904926 20.515596 -1.6636635 2 3206020503032 1 0
-9.087229 16.142601 -1.0788276 1 3206020505336 1 0
0 0 0 3 3206020505336 1 0
0 0 0 29 3206020507640 1 0
-17.726978 25.346552 -1.4407897 4 3206020507640 1 0
-10.097436 16.059309 -0.9941738 7 3206020509944 1 0
-13.451681 19.239565 2.8824537 21 3206020509944 1 0
-11.609347 18.469866 1.7809056 8 3206020512248 1 0
-16.044527 20.72055 -1.0676706 3 3206020512248 1 0
-11.234713 19.98459 -0.80059445 6 3206020514552 1 0
-12.288777 17.587189 5.7488885 19 3206020514552 1 0
-12.286833 19.560335 4.2115808 11 3206020516856 1 0
-18.015171 25.790554 -0.7320445 8 3206020516856 1 0
-2.1937 3.502487 -1.9271393 3 3206020537592 1 0
-19.77301 25.620234 -0.5648995 4 3206020537592 1 0
-4.2196865 6.059666 -2.0671039 4 3206020539896 1 0
-20.433289 32.634575 -1.1205673 7 3206020539896 1 0
-6.149441 9.82462 -2.3181064 1 3206020542200 1 0
0 0 0 11 3206020542200 1 0
-10.347365 18.487902 -0.24665128 32 3206020544504 1 0
-9.3920355 13.495769 -2.558025 9 3206020544504 1 0
-9.555524 15.276209 -2.293536 19 3206020546808 1 0
-25.40183 32.953213 0.24182211 6 3206020546808 1 0
0 0 0 27 3206020549112 1 0
-10.781613 15.502122 -2.033987 59 3206020549112 1 0
-8.752023 15.653485 -1.6741085 53 3206020551416 1 0
-13.285952 19.108862 0.5415659 7 3206020551416 1 0
-10.360024 18.535816 0.24721004 18 3206020553720 1 0
0 0 0 1 3206020553720 1 0
-9.534722 15.262696 -1.4691169 32 3206020556024 1 0
-25.328436 32.897564 1.2083044 5 3206020556024 1 0
-20.33092 32.555237 0.669963 6 3206020558328 1 0
-15.993911 20.779768 -1.6805483 2 3206020558328 1 0
-9.042505 16.19514 -1.080223 1 3206020560632 1 0
-36.078594 57.808887 2.7762365 29 3206020562936 1 0
0 0 0 12 3206020560632 1 0
-13.23848 19.070156 -1.0813833 5 3206020562936 1 0
-10.011716 16.047012 -0.991243 7 3206020565240 1 0
-13.248627 19.0907 2.853205 6 3206020565240 1 0
-11.58911 18.581316 1.7877402 14 3206020567544 1 0
-16.03787 20.86198 -1.0720669 3 3206020567544 1 0
-12.5198555 22.453762 -0.89775467 7 3206020569848 1 0
-12.000513 17.302967 5.6422553 24 3206020569848 1 0
-12.30174 19.736687 4.2402797 33 3206020572152 1 0
-13.254091 19.116377 -0.54128677 7 3206020572152 1 0
-2.179547 3.5070438 -1.9254488 4 3206020592888 1 0
0 0 0 58 3206020592888 1 0
-4.1984644 6.074389 -2.0671039 4 3206020595192 1 0
-11.305219 18.197086 -0.62346834 2 3206020595192 1 0
-6.1253123 9.862775 -2.3220286 1 3206020597496 1 0
-13.224518 19.13964 0 10 3206020597496 1 0
-9.781543 17.621881 -0.23463768 19 3206020599800 1 0
-9.326604 13.502658 -2.5531056 8 3206020599800 1 0
-9.480772 15.276032 -2.2884853 4 3206020602104 1 0
-25.132544 32.842293 0.2403575 6 3206020602104 1 0
-11.041424 17.79672 -0.12172472 32 3206020604408 1 0
-10.686204 15.481138 -2.026276 56 3206020604408 1 0
-8.729477 15.743532 -1.6804287 46 3206020606712 1 0
-13.21379 19.149117 0.5413798 7 3206020606712 1 0
-10.335034 18.645855 0.2481879 26 3206020609016 1 0
0 0 0 1 3206020609016 1 0
-9.453195 15.252385 -1.464886 32 3206020611320 1 0
-25.109556 32.853817 1.2034172 5 3206020611320 1 0
-19.625233 31.675402 0.65041625 12 3206020613624 1 0
-15.919915 20.836512 -1.6805483 2 3206020613624 1 0
-8.984738 16.22726 -1.080223 1 3206020615928 1 0
0 0 0 3 3206020615928 1 0
-19.608595 31.670149 1.5175674 7 3206020618232 1 0
0 0 0 71 3206020618232 1 0
-9.933214 16.048765 -0.9891496 5 3206020620536 1 0
-14.225108 20.655155 3.0793946 6 3206020620536 1 0
-11.524516 18.626135 1.7880657 11 3206020622840 1 0
-16.0842 21.07821 -1.0802084 3 3206020622840 1 0
-12.533889 22.67002 -0.90459496 10 3206020625144 1 0
-11.896656 17.285494 5.622585 20 3206020625144 1 0
-12.158181 19.663696 4.2151685 25 3206020627448 1 0
-13.178391 19.154081 -0.5410076 12 3206020627448 1 0
-2.170483 3.5211809 -1.9288298 3 3206020648184 1 0
-24.9561 32.81894 -0.71966743 20 3206020648184 1 0
-19.46743 31.591839 -1.079957 22 3206020650488 1 0
-4.1740828 6.0864987 -2.0660255 4 3206020650488 1 0
-6.0750093 9.861606 -2.3165374 1 3206020652792 1 0
-12.580331 18.349627 0 4 3206020652792 1 0
-9.721517 17.664198 -0.2347308 31 3206020655096 1 0
-9.277642 13.536346 -2.5531056 8 3206020655096 1 0
-9.3528 15.191867 -2.2708077 3 3206020657400 1 0
-24.93166 32.824432 0.23956709 6 3206020657400 1 0
-10.883075 17.682981 -0.120678574 16 3206020659704 1 0
-10.58557 15.453807 -2.0177083 59 3206020659704 1 0
-8.70763 15.837484 -1.6871207 27 3206020662008 1 0
-22.442625 32.77356 0.9242911 6 3206020662008 1 0
-10.226142 18.60545 0.24716347 24 3206020664312 1 0
-10.7924 15.7651 -1.335976 1 3206020664312 1 0
-9.373948 15.245084 -1.4609805 31 3206020666616 1 0
-24.956556 32.89494 1.2016718 5 3206020666616 1 0
-13.144209 21.383373 0.43812522 6 3206020668920 1 0
-16.027094 21.131186 -1.6997355 2 3206020668920 1 0
-9.004446 16.398796 -1.0895252 2 3206020671224 1 0
-12.444111 18.194027 1.2837095 3 3206020671224 1 0
-19.455626 31.670578 1.5143108 7 3206020673528 1 0
-12.575475 18.39154 -1.0378302 23 3206020673528 1 0
-9.868772 16.069725 -0.9883122 5 3206020675832 1 0
-13.238817 19.367418 2.880504 9 3206020675832 1 0
-11.290746 18.390882 1.7617036 5 3206020678136 1 0
-15.96739 21.07665 -1.0772774 3 3206020678136 1 0
-9.862399 17.984844 -0.71627724 33 3206020680440 1 0
-12.1067915 19.732323 4.220908 12 3206020682744 1 0
-12.534933 18.354013 -0.5171861 20 3206020682744 1 0
-11.867262 17.371235 5.637079 33 3206020680440 1 0
-2.1550105 3.5221746 -1.9254488 4 3206020703480 1 0
-24.765184 32.793003 -0.7172939 13 3206020703480 1 0
-20.063305 32.802418 -1.1190547 7 3206020705784 1 0
-4.1538315 6.1003375 -2.0660255 4 3206020705784 1 0
-6.046222 9.888477 -2.3181064 1 3206020708088 1 0
-12.48313 18.33852 0 22 3206020708088 1 0
-9.679751 17.728146 -0.23514988 21 3206020710392 1 0
-9.230184 13.5639715 -2.5524905 9 3206020710392 1 0
-9.289515 15.202753 -2.2677772 3 3206020712696 1 0
-24.778358 32.85017 0.23914863 6 3206020712696 1 0
-10.763264 17.620377 -0.12000439 22 3206020715000 1 0
-10.504628 15.446457 -2.0121393 63 3206020715000 1 0
-8.682978 15.919096 -1.6926974 31 3206020717304 1 0
0 0 0 10 3206020717304 1 0
-10.061958 18.45366 0.24469557 29 3206020719608 1 0
-10.662997 15.689142 -1.3264891 1 3206020719608 1 0
-9.297533 15.235789 -1.457075 37 3206020721912 1 0
-24.746777 32.848034 1.196901 5 3206020721912 1 0
-20.05971 32.882435 0.6723365 13 3206020724216 1 0
-16.176483 21.478615 -1.723272 5 3206020724216 1 0
-8.945002 16.422203 -1.0890602 2 3206020726520 1 0
-12.512487 18.427704 1.2971978 6 3206020726520 1 0
-88.983955 145.96046 6.964527 29 3206020728824 1 0
-12.492745 18.404388 -1.0361551 10 3206020728824 1 0
-9.836889 16.14074 -0.99061495 5 3206020731128 1 0
-14.207212 20.936705 3.1066933 7 3206020731128 1 0
-11.259069 18.480354 1.7665855 8 3206020733432 1 0
-12.551456 23.075272 -0.9172984 29 3206020735736 1 0
-16.051579 21.338593 -1.0878614 3 3206020733432 1 0
-11.803482 17.4053 5.6350083 20 3206020735736 1 0
-12.2028475 20.042568 4.278306 24 3206020738040 1 0
-12.4450655 18.35712 -0.51606953 49 3206020738040 1 0
-2.1427026 3.5296755 -1.9254488 3 3206020758776 1 0
-24.573793 32.77685 -0.71506 20 3206020758776 1 0
-10.917116 17.98967 -0.61241394 8 3206020761080 1 0
-4.1303554 6.1116085 -2.0649474 4 3206020761080 1 0
-6.015737 9.916229 -2.3196752 1 3206020763384 1 0
-12.412324 18.372038 0 18 3206020763384 1 0
-10.067276 18.591883 -0.24613906 24 3206020765688 1 0
-9.178355 13.589558 -2.5512607 9 3206020765688 1 0
-9.238448 15.23848 -2.2682824 3 3206020767992 1 0
-24.577227 32.821198 0.23831171 6 3206020767992 1 0
-10.683033 17.627052 -0.119795166 22 3206020770296 1 0
-10.412822 15.426992 -2.0048568 60 3206020770296 1 0
-8.657675 16.005358 -1.6986458 24 3206020772600 1 0
-12.364726 18.32456 0.5143946 16 3206020772600 1 0
-9.974651 18.44645 0.2441368 28 3206020774904 1 0
-10.498827 15.564175 -1.3128169 1 3206020774904 1 0
0 0 0 38 3206020777208 1 0
-24.615202 32.9118 1.1960864 5 3206020777208 1 0
0 0 0 65 3206020779512 1 0
0 0 0 22 3206020779512 1 0
0 0 0 29 3206020781816 1 0
0 0 0 15 3206020781816 1 0
-87.90714 145.33316 6.919912 29 3206020784120 1 0
-12.435123 18.457827 -1.0367135 5 3206020784120 1 0
-9.813558 16.22967 -0.9939645 7 3206020786424 1 0
-12.9164715 19.178324 2.8390682 25 3206020786424 1 0
-11.18418 18.502483 1.7649581 14 3206020788728 1 0
-15.988953 21.410505 -1.0886755 3 3206020788728 1 0
-12.465138 23.108389 -0.9168796 39 3206020791032 1 0
-11.63047 17.27972 5.581174 12 3206020791032 1 0
-12.142985 20.101883 4.2818933 9 3206020793336 1 0
0 0 0 3 3206020793336 1 0
-2.132239 3.5402389 -1.9271393 3 3206020814072 1 0
0 0 0 15 3206020816376 1 0
-24.406698 32.79185 -0.71352416 20 3206020814072 1 0
-4.108997 6.125989 -2.0649474 5 3206020816376 1 0
-5.9790635 9.933807 -2.3188908 1 3206020818680 1 0
0 0 0 3 3206020818680 1 0
-9.987179 18.59872 -0.24576655 26 3206020820984 1 0
-9.160656 15.229832 -2.2622216 3 3206020823288 1 0
-9.128662 13.61823 -2.5506458 7 3206020820984 1 0
-24.35751 32.765545 0.23728882 6 3206020823288 1 0
-10.615254 17.653952 -0.11972542 36 3206020825592 1 0
-10.319066 15.403772 -1.9971458 59 3206020825592 1 0
-8.641288 16.109182 -1.7064531 39 3206020827896 1 0
-12.316262 18.390867 0.51504594 10 3206020827896 1 0
-9.90075 18.463531 0.24390398 19 3206020830200 1 0
-11.512186 17.195616 -1.4470283 1 3206020830200 1 0
-9.14783 15.228559 -1.4502404 1 3206020832504 1 0
-24.402443 32.865906 1.1913155 5 3206020832504 1 0
-10.860913 18.086319 0.36824578 23 3206020834808 1 0
-16.130825 21.732058 -1.7345284 8 3206020834808 1 0
-12.375011 23.101885 -1.5262656 70 3206020837112 1 0
-12.26587 18.33869 1.2848724 12 3206020837112 1 0
0 0 0 46 3206020839416 1 0
0 0 0 14 3206020839416 1 0
-9.742461 16.23985 -0.99249905 7 3206020841720 1 0
-12.194179 18.242985 2.6942875 7 3206020841720 1 0
-11.123628 18.548248 1.765609 11 3206020844024 1 0
-16.021229 21.610664 -1.0960028 3 3206020844024 1 0
-12.376857 23.13766 -0.91632116 14 3206020846328 1 0
-12.608814 21.038618 4.4720244 9 3206020848632 1 0
-11.823332 17.699324 5.7033367 15 3206020846328 1 0
-12.334373 18.47016 -0.51681393 2 3206020848632 1 0
-2.1198683 3.54766 -1.9271393 3 3206020869368 1 0
-24.199394 32.7514 -0.7108016 13 3206020869368 1 0
-10.863023 18.185585 -0.6164866 37 3206020871672 1 0
-4.0939913 6.149914 -2.0681822 4 3206020871672 1 0
-5.9463625 9.957985 -2.3196752 1 3206020873976 1 0
-12.305922 18.491545 0 2 3206020873976 1 0
-10.0218315 18.82058 -0.24823445 24 3206020876280 1 0
-9.08326 13.653303 -2.5512607 8 3206020876280 1 0
-24.200237 32.79244 0.23687035 6 3206020878584 1 0
-9.125739 15.292382 -2.2667673 4 3206020878584 1 0
-10.54127 17.670288 -0.11958594 26 3206020880888 1 0
-10.234407 15.393333 -1.9911484 57 3206020880888 1 0
-12.267486 18.45706 0.5156973 2 3206020883192 1 0
-8.6168 16.199022 -1.7127733 42 3206020883192 1 0
-10.129187 19.048891 0.251168 20 3206020885496 1 0
-11.425592 17.195814 -1.4436799 1 3206020885496 1 0
0 0 0 83 3206020887800 1 0
-24.270966 32.928356 1.190501 5 3206020887800 1 0
-10.820231 18.161915 0.36901367 21 3206020890104 1 0
-16.045395 21.775377 -1.7335051 11 3206020890104 1 0
-9.4619055 17.812754 -1.1746408 21 3206020892408 1 0
0 0 0 3 3206020892408 1 0
-82.7808 139.04074 6.5926256 29 3206020894712 1 0
-12.5136385 18.857143 -1.0542091 63 3206020894712 1 0
-9.657113 16.225702 -0.98956823 7 3206020897016 1 0
-12.099698 18.239122 2.6874628 13 3206020897016 1 0
-11.093469 18.64521 1.7711419 11 3206020899320 1 0
-15.8959465 21.59886 -1.0925834 3 3206020899320 1 0
-9.800847 18.476772 -0.73037666 31 3206020901624 1 0
0 0 0 8 3206020903928 1 0
-11.567197 17.447443 5.6091266 33 3206020901624 1 0
-17.843603 26.922997 -0.75158554 4 3206020903928 1 0
-2.1074717 3.5550382 -1.9271393 3 3206020924664 1 0
-24.032883 32.764725 -0.70926577 20 3206020924664 1 0
-10.811974 18.243876 -0.61718476 17 3206020926968 1 0
-4.0747123 6.1673217 -2.0692606 5 3206020926968 1 0
-5.9158554 9.985258 -2.3212442 1 3206020929272 1 0
-21.6332 32.75247 0 5 3206020929272 1 0
-9.902733 18.752445 -0.2468841 22 3206020931576 1 0
-9.040499 13.691129 -2.5524905 8 3206020931576 1 0
0 0 0 99 3206020933880 1 0
-23.988243 32.739796 0.23589395 6 3206020933880 1 0
-10.478776 17.702772 -0.119562685 26 3206020936184 1 0
-8.60622 16.312796 -1.7216959 33 3206020938488 1 0
-10.133542 15.355199 -1.9817238 55 3206020936184 1 0
-21.563951 32.684826 0.91117066 5 3206020938488 1 0
-10.0813675 19.114948 0.2515871 35 3206020940792 1 0
0 0 0 1 3206020940792 1 0
-9.057278 15.31502 -1.4525186 15 3206020943096 1 0
-24.041647 32.848743 1.184683 5 3206020943096 1 0
-10.708265 18.112099 0.36726844 34 3206020945400 1 0
-15.943859 21.790504 -1.7304351 2 3206020945400 1 0
-12.263339 23.27426 -1.5320795 47 3206020947704 1 0
0 0 0 21 3206020947704 1 0
-82.13832 139.01288 6.5782967 29 3206020950008 1 0
-12.483736 18.948767 -1.057001 52 3206020950008 1 0
-9.548401 16.164776 -0.983916 22 3206020952312 1 0
-12.054435 18.302355 2.690875 7 3206020952312 1 0
-11.052121 18.716063 1.7743964 20 3206020954616 1 0
-15.996709 21.886774 -1.1044699 3 3206020954616 1 0
-11.46942 17.424051 5.589456 15 3206020956920 1 0
-12.034231 20.391396 4.31705 9 3206020959224 1 0
-17.849928 27.124887 -0.7555868 4 3206020959224 1 0
-12.279326 23.334219 -0.92078835 36 3206020956920 1 0
-2.0981317 3.5647657 -1.9288298 3 3206020979960 1 0
-23.873304 32.76249 -0.70759034 13 3206020979960 1 0
-10.900191 18.526104 -0.62556285 20 3206020982264 1 0
-4.048843 6.1705194 -2.0660255 4 3206020982264 1 0
-5.880043 9.997289 -2.3196752 1 3206020984568 1 0
-21.447592 32.697456 0 5 3206020984568 1 0
-9.746011 18.59988 -0.24446274 24 3206020986872 1 0
-8.998712 13.723356 -2.5531056 8 3206020986872 1 0
-10.400945 17.696123 -2.6127422 16 3206020989176 1 0
-23.861223 32.78797 0.23568472 6 3206020989176 1 0
-10.952061 18.640305 -0.12565358 29 3206020991480 1 0
0 0 0 12 3206020991480 1 0
-8.593422 16.4185 -1.729875 30 3206020993784 1 0
-21.395521 32.661556 0.9085652 5 3206020993784 1 0
-9.951591 19.020473 0.24991077 30 3206020996088 1 0
0 0 0 1 3206020996088 1 0
0 0 0 19 3206020998392 1 0
-23.833853 32.792446 1.1797957 5 3206020998392 1 0
-10.647749 18.147741 0.36726844 32 3206021000696 1 0
0 0 0 81 3206021000696 1 0
-9.194293 17.592669 -1.1560363 54 3206021003000 1 0
-12.33185 18.850428 1.3118489 6 3206021003000 1 0
-81.54244 139.07608 6.568201 29 3206021005304 1 0
-9.416575 16.066223 -0.9759609 55 3206021007608 1 0
-12.544243 19.181484 -1.0676101 44 3206021005304 1 0
-12.569954 19.227207 2.820544 71 3206021007608 1 0
-15.898176 21.90909 -1.1028416 3 3206021009912 1 0
-11.157244 19.042751 1.8017349 9 3206021009912 1 0
-13.577458 20.78216 6.6516495 15 3206021012216 1 0
-11.989272 20.477163 4.326377 9 3206021014520 1 0
-17.869436 27.360744 -0.7604255 4 3206021014520 1 0
-2.0850523 3.5724318 -1.9288298 3 3206021035256 1 0
-12.200669 23.379951 -0.92092794 10 3206021012216 1 0
0 0 0 43 3206021035256 1 0
-4.0262446 6.1852884 -2.0660255 4 3206021037560 1 0
-10.777947 18.472609 -0.6224211 28 3206021037560 1 0
-5.84746 10.025464 -2.3212442 1 3206021039864 1 0
-21.29972 32.73195 0 5 3206021039864 1 0
-9.687397 18.653011 -0.24469557 24 3206021042168 1 0
-8.944342 13.749425 -2.5518756 7 3206021042168 1 0
-23.627094 32.715626 0.23454559 6 3206021044472 1 0
-10.268594 17.617268 -2.5955696 11 3206021044472 1 0
-10.888373 18.686838 -0.12570007 25 3206021046776 1 0
-8.592595 16.562643 -1.7417718 19 3206021049080 1 0
-10.00599 15.391205 -1.9774399 5 3206021046776 1 0
-21.24223 32.68518 0.90707636 5 3206021049080 1 0
-9.799917 18.896538 0.24781539 30 3206021051384 1 0
-10.052256 15.472218 -1.2902157 1 3206021051384 1 0
-8.9470215 15.370465 -1.4518677 3 3206021053688 1 0
-23.696703 32.85226 1.1788648 5 3206021053688 1 0
-10.622582 18.255087 0.36866462 27 3206021055992 1 0
-11.416965 15.832924 -1.2510095 7 3206021055992 1 0
-9.085112 17.536943 -1.1502224 62 3206021058296 1 0
-12.237962 18.854414 1.3090582 42 3206021058296 1 0
-80.53701 138.49687 6.5271683 29 3206021060600 1 0
-12.510192 19.279964 -1.0705881 41 3206021060600 1 0
-9.353009 16.08945 -0.97533286 35 3206021062904 1 0
-12.518365 19.298706 2.8244438 28 3206021062904 1 0
-17.87061 24.813185 -1.2458056 4 3206021065208 1 0
-11.105202 19.110044 1.8043386 9 3206021065208 1 0
-9.064541 17.522188 -0.6889161 39 3206021067512 1 0
-13.616809 21.005482 6.7075543 13 3206021067512 1 0
-12.497375 21.52013 4.537315 10 3206021069816 1 0
-17.817696 27.49459 -0.76237965 4 3206021069816 1 0
-2.0707529 3.576551 -1.9271393 3 3206021090552 1 0
-25.298712 35.24581 -0.75729483 14 3206021090552 1 0
-10.42098 18.004887 -0.6054322 52 3206021092856 1 0
-4.004629 6.1993046 -2.0660255 4 3206021092856 1 0
-5.816357 10.052605 -2.3228133 1 3206021095160 1 0
-21.180996 32.79938 0 5 3206021095160 1 0
-9.570957 18.587147 -0.24339177 21 3206021097464 1 0
-8.896293 13.780562 -2.5518756 8 3206021097464 1 0
-10.187174 17.618654 -2.590519 5 3206021099768 1 0
-23.50343 32.784897 0.2344526 6 3206021099768 1 0
-10.638924 18.40613 -0.123561285 23 3206021102072 1 0
-9.973763 15.459457 -1.9817238 19 3206021102072 1 0
-7.5765066 14.729638 -1.5462176 15 3206021104376 1 0
-21.110668 32.732246 0.90633196 5 3206021104376 1 0
-9.861926 19.179625 0.25107488 22 3206021106680 1 0
-9.892237 15.342884 -1.2765435 1 3206021106680 1 0
-8.9072695 15.425771 -1.4541459 1 3206021108984 1 0
-23.460844 32.76573 1.172814 5 3206021108984 1 0
-10.826714 18.756199 0.37801912 31 3206021111288 1 0
-11.33607 15.836975 -1.2481953 25 3206021111288 1 0
-8.989176 17.50106 -1.1458038 60 3206021113592 1 0
-12.156937 18.873518 1.3074303 22 3206021113592 1 0
-79.951225 138.6006 6.5188637 29 3206021115896 1 0
-12.00801 18.648268 -1.033177 23 3206021115896 1 0
-9.462412 16.409214 -0.99270844 10 3206021118200 1 0
-12.455221 19.348963 2.825419 23 3206021118200 1 0
-10.881134 18.875832 1.7786274 25 3206021120504 1 0
-17.776913 24.86566 -1.2453171 4 3206021120504 1 0
-8.975956 17.500368 -0.6868221 52 3206021122808 1 0
-13.478602 20.952154 6.675461 25 3206021122808 1 0
0 0 0 8 3206021125112 1 0
-17.823275 27.714699 -0.7667531 4 3206021125112 1 0
-2.0582557 3.5837574 -1.9271393 3 3206021146296 1 0
-25.259075 35.451164 -0.75980794 14 3206021146296 1 0
-10.46358 18.224928 -0.6115994 27 3206021148600 1 0
-3.985044 6.2164884 -2.0671039 4 3206021148600 1 0
-5.7753744 10.062641 -2.3204598 3 3206021150904 1 0
-20.958464 32.704727 0 5 3206021150904 1 0
-9.55512 18.716625 -0.24464901 26 3206021153208 1 0
-8.850267 13.81486 -2.5524905 7 3206021153208 1 0
-10.094024 17.599033 -2.5824378 5 3206021155512 1 0
-23.286802 32.723343 0.2334297 6 3206021155512 1 0
-10.686026 18.637476 -0.124863155 25 3206021157816 1 0
0 0 0 4 3206021157816 1 0
-20.901432 32.65754 0.90223765 5 3206021160120 1 0
-7.512379 14.73116 -1.5436151 23 3206021160120 1 0
-9.760402 19.146227 0.25019017 30 3206021162424 1 0
0 0 0 1 3206021162424 1 0
0 0 0 13 3206021164728 1 0
-23.276836 32.749657 1.1693231 5 3206021164728 1 0
0 0 0 9 3206021167032 1 0
-8.893601 17.464722 -1.1413853 64 3206021169336 1 0
-10.70752 18.700167 0.37613428 10 3206021167032 1 0
-12.194213 19.07734 1.318593 9 3206021169336 1 0
0 0 0 14 3206021171640 1 0
-11.897661 18.619362 -1.0292685 13 3206021171640 1 0
-9.420942 16.469883 -0.99438316 5 3206021173944 1 0
-12.400429 19.412395 2.8283436 8 3206021173944 1 0
-17.801033 25.084011 -1.2531329 4 3206021176248 1 0
-10.979435 19.20095 1.8056403 9 3206021176248 1 0
-8.882199 17.467453 -0.6843093 49 3206021178552 1 0
-13.301434 20.836243 6.623697 21 3206021178552 1 0
-11.610786 20.318779 4.2668266 15 3206021180856 1 0
-20.832851 32.644417 -0.901121 5 3206021180856 1 0
-2.047528 3.5940702 -1.9288298 3 3206021201592 1 0
-25.243713 35.69259 -0.763089 14 3206021201592 1 0
-10.73641 18.85191 -0.631381 30 3206021203896 1 0
-3.9695678 6.2400823 -2.0703387 5 3206021203896 1 0
-20.831774 32.75713 0 5 3206021206200 1 0
0 0 0 85 3206021206200 1 0
-9.515427 18.79962 -0.2453009 19 3206021208504 1 0
-8.87015 13.952212 -2.5721676 10 3206021208504 1 0
-10.060515 17.682154 -2.5895088 20 3206021210808 1 0
-23.087997 32.682877 0.23256955 6 3206021210808 1 0
-10.589942 18.618647 -0.12449119 68 3206021213112 1 0
-7.4363966 14.70721 -1.5384102 22 3206021215416 1 0
-9.701936 15.269881 -1.9487379 2 3206021213112 1 0
-20.730848 32.638252 0.8997252 5 3206021215416 1 0
-9.595249 18.983356 0.24762912 24 3206021217720 1 0
-9.807056 15.444757 -1.2793337 1 3206021217720 1 0
-8.853442 15.580654 -1.4629332 7 3206021220024 1 0
-12.592945 17.847229 0.63568634 1 3206021220024 1 0
-10.5308075 18.538515 0.3721551 14 3206021222328 1 0
-11.776197 16.694597 -1.3093387 1 3206021222328 1 0
-8.796059 17.420162 -1.1365016 62 3206021224632 1 0
-12.165302 19.17623 1.3225465 26 3206021224632 1 0
-35.274967 62.1383 2.9110591 87 3206021226936 1 0
-12.537049 22.091635 -1.3312174 7 3206021229240 1 0
-11.774168 18.565353 -1.0240569 15 3206021226936 1 0
-11.989898 18.911291 2.7493725 24 3206021229240 1 0
-10.898425 19.210388 1.8030367 30 3206021231544 1 0
-8.837353 17.526009 -0.6854261 49 3206021233848 1 0
-17.823933 25.297878 -1.2607859 4 3206021231544 1 0
-13.189387 20.815924 6.6029916 15 3206021233848 1 0
-11.774908 20.768713 4.3529234 15 3206021236152 1 0
-20.711643 32.69779 -0.90065575 5 3206021236152 1 0
-2.0320303 3.5945284 -1.9254488 3 3206021256888 1 0
-25.175781 35.848106 -0.76462483 7 3206021256888 1 0
-3.940581 6.240213 -2.0660255 5 3206021259192 1 0
-5.7144637 10.115379 -2.3235977 18 3206021261496 1 0
-10.72091 18.971027 -0.63417363 15 3206021259192 1 0
-20.637146 32.691036 0 5 3206021261496 1 0
-8.910728 17.75173 -0.23123847 19 3206021263800 1 0
-8.859388 14.038566 -2.582621 8 3206021263800 1 0
-9.496074 16.820766 -2.458695 5 3206021266104 1 0
-22.93949 32.70426 0.23217432 6 3206021266104 1 0
-10.490111 18.58786 -0.124049485 31 3206021268408 1 0
-9.618867 15.251863 -1.9423121 4 3206021268408 1 0
-7.3565946 14.671587 -1.5320901 22 3206021270712 1 0
-20.57842 32.640064 0.89786416 5 3206021270712 1 0
-8.89323 17.742609 0.23105222 15 3206021273016 1 0
0 0 0 19 3206021275320 1 0
-13.383761 19.104528 0.67885673 6 3206021275320 1 0
-10.497513 18.626282 0.37320226 46 3206021277624 1 0
-9.701808 15.393298 -1.2723581 1 3206021273016 1 0
-11.792953 16.838955 -1.3175253 3 3206021277624 1 0
-8.7226715 17.421305 -1.1346412 66 3206021279928 1 0
-12.100247 19.217346 1.3225465 26 3206021279928 1 0
-11.073378 19.66144 0.9193332 9 3206021282232 1 0
-11.657838 18.520695 -1.0194038 17 3206021282232 1 0
-10.16501 18.054722 -1.0858665 14 3206021284536 1 0
-11.940268 18.97551 2.7527847 52 3206021284536 1 0
-10.815244 19.216177 1.8001076 12 3206021286840 1 0
-17.77878 25.417473 -1.2637168 4 3206021286840 1 0
-8.811363 17.624048 -0.68807846 52 3206021289144 1 0
-13.035892 20.730053 6.5615807 9 3206021289144 1 0
-11.398909 20.267006 4.2395625 9 3206021291448 1 0
-20.573986 32.727913 -0.8995391 5 3206021291448 1 0
-2.0176978 3.5984378 -1.9237583 4 3206021312184 1 0
0 0 0 43 3206021312184 1 0
-9.970382 17.787617 -0.5934469 23 3206021314488 1 0
-3.92082 6.257194 -2.0671039 5 3206021314488 1 0
-5.673368 10.125 -2.3212442 18 3206021316792 1 0
-20.499548 32.725586 0 5 3206021316792 1 0
-9.279919 18.649303 -0.24250704 13 3206021319096 1 0
-8.818721 14.082804 -2.5850809 8 3206021319096 1 0
-9.414037 16.812265 -2.452634 19 3206021321400 1 0
0 0 0 19 3206021321400 1 0
-10.452516 18.673227 -0.124374956 29 3206021323704 1 0
-9.531814 15.231405 -1.9354578 2 3206021323704 1 0
-7.284064 14.65438 -1.5276287 25 3206021326008 1 0
-20.373161 32.565918 0.8938629 5 3206021326008 1 0
-9.368734 18.855288 0.24511465 17 3206021328312 1 0
0 0 0 1 3206021328312 1 0
0 0 0 46 3206021330616 1 0
0 0 0 221 3206021330616 1 0
-10.547566 18.86878 0.37732103 45 3206021332920 1 0
-11.729546 16.87346 -1.3170136 4 3206021332920 1 0
-8.686662 17.501722 -1.1378969 56 3206021335224 1 0
-10.992984 19.679037 0.91835624 48 3206021337528 1 0
-12.041556 19.273012 1.3234767 26 3206021335224 1 0
-11.548667 18.490107 -1.0154953 30 3206021337528 1 0
0 0 0 100 3206021339832 1 0
-10.05908 18.013367 -1.0812608 2 3206021339832 1 0
-10.901617 19.528818 1.8258188 9 3206021342136 1 0
0 0 0 26 3206021342136 1 0
-8.772867 17.701262 -0.68989325 18 3206021344440 1 0
-12.953224 20.75904 6.556404 31 3206021344440 1 0
-11.469958 20.560978 4.2926555 48 3206021346744 1 0
-11.297553 18.111502 -0.49671456 2 3206021346744 1 0
-2.0104105 3.6149635 -1.9288298 4 3206021367480 1 0
-13.237301 19.131355 -0.4060826 7 3206021367480 1 0
-11.2118435 20.167168 -0.6715259 22 3206021369784 1 0
-3.8969204 6.267571 -2.0660255 5 3206021369784 1 0
-5.639896 10.14817 -2.3220286 21 3206021372088 1 0
-20.298616 32.657658 0 5 3206021372088 1 0
-9.191763 18.63495 -0.24190171 31 3206021374392 1 0
-8.763251 14.10343 -2.583236 8 3206021374392 1 0
-9.35722 16.848494 -2.453139 14 3206021376696 1 0
0 0 0 1 3206021376696 1 0
-10.437751 18.800526 -0.12497939 38 3206021379000 1 0
-9.453413 15.224042 -1.9303172 4 3206021379000 1 0
-7.209983 14.633274 -1.5227956 23 3206021381304 1 0
-13.156141 21.193897 0.58046186 5 3206021381304 1 0
-9.288722 18.85917 0.24474213 14 3206021383608 1 0
0 0 0 1 3206021383608 1 0
-8.749631 15.7760935 -1.472697 61 3206021385912 1 0
-10.359465 18.685123 0.37292302 36 3206021388216 1 0
-12.373386 17.927317 0.63394094 111 3206021385912 1 0
-11.319188 16.405033 -1.27736 2 3206021388216 1 0
-7.248748 14.733564 -0.95627064 19 3206021390520 1 0
-12.20355 19.684868 1.3488253 23 3206021390520 1 0
-10.798325 19.490051 0.90777236 9 3206021392824 1 0
-11.437747 18.455587 -1.0114005 30 3206021392824 1 0
-9.986464 18.030897 -1.0802141 8 3206021395128 1 0
-11.659047 18.818783 2.7181737 28 3206021395128 1 0
-10.897108 19.68185 1.8365589 25 3206021397432 1 0
-12.64108 18.343689 -0.9076095 15 3206021397432 1 0
-10.182839 20.727737 -0.8064576 18 3206021399736 1 0
-12.195258 19.697073 6.207516 11 3206021399736 1 0
-11.531473 20.841917 4.342879 15 3206021402040 1 0
-11.299505 18.256237 -0.4995992 6 3206021402040 1 0
-1.9942778 3.6156104 -1.9254488 4 3206021422776 1 0
-12.586294 18.326874 -0.38807172 22 3206021422776 1 0
-9.9809675 18.101955 -0.60159224 5 3206021425080 1 0
-3.8810403 6.2909985 -2.0692606 5 3206021425080 1 0
-5.606183 10.171312 -2.3228133 22 3206021427384 1 0
0 0 0 38 3206021427384 1 0
-9.119225 18.652748 -0.24171545 22 3206021429688 1 0
-8.717808 14.140853 -2.584466 8 3206021429688 1 0
-9.297859 16.881325 -2.453139 7 3206021431992 1 0
-12.545126 18.290861 0.12890825 8 3206021431992 1 0
-10.369447 18.83372 -0.124956146 44 3206021434296 1 0
-9.410089 15.2742195 -1.9324591 2 3206021434296 1 0
-7.138996 14.619298 -1.5187061 30 3206021436600 1 0
0 0 0 17 3206021436600 1 0
-9.2131 18.873978 0.24450931 14 3206021438904 1 0
-9.495361 15.423179 -1.2664986 2 3206021438904 1 0
-8.705117 15.828005 -1.4746497 47 3206021441208 1 0
-12.361655 18.046984 0.63661724 56 3206021441208 1 0
-10.223588 18.595676 0.37040988 34 3206021443512 1 0
-7.203201 14.773658 -0.9572008 10 3206021445816 1 0
-10.692439 15.615183 -1.2128907 1 3206021443512 1 0
-11.936685 19.408495 1.326965 10 3206021445816 1 0
-10.301442 18.750849 0.8716243 27 3206021448120 1 0
-9.85651 17.94747 -1.0730964 5 3206021450424 1 0
-11.855654 19.289944 2.7800834 16 3206021450424 1 0
-10.839905 19.745256 1.8388371 15 3206021452728 1 0
-12.543649 18.342707 -0.90532994 40 3206021452728 1 0
-11.25877 18.312504 -1.0013498 50 3206021448120 1 0
-11.697759 19.046078 5.989073 7 3206021455032 1 0
-10.062817 20.670732 -0.802828 37 3206021455032 1 0
-11.204647 20.42443 4.2474546 9 3206021457336 1 0
-19.412628 31.618113 -0.8633416 11 3206021457336 1 0
-1.9792733 3.6197147 -1.9237583 3 3206021478072 1 0
-12.49877 18.343136 -0.38744342 20 3206021478072 1 0
-9.920439 18.148869 -0.60194135 24 3206021480376 1 0
-3.8580024 6.305153 -2.0692606 4 3206021480376 1 0
-5.569014 10.19171 -2.3228133 27 3206021482680 1 0
-10.782557 17.627745 0 35 3206021482680 1 0
-9.086078 18.757843 -0.24264674 29 3206021484984 1 0
-8.666229 14.172521 -2.584466 8 3206021484984 1 0
-9.154644 16.765268 -2.4314208 24 3206021487288 1 0
-12.458282 18.306595 0.12869902 17 3206021487288 1 0
-9.2882395 15.199673 -1.9187508 2 3206021489592 1 0
-10.279953 18.832603 -0.12470042 46 3206021489592 1 0
-10.957004 17.936373 0.48908427 26 3206021491896 1 0
-7.059985 14.59128 -1.5131295 31 3206021491896 1 0
-9.256283 19.137596 0.24748942 15 3206021494200 1 0
0 0 0 100 3206021494200 1 0
-12.336936 18.150978 0.63871175 112 3206021496504 1 0
-8.688049 15.932805 -1.4814843 47 3206021496504 1 0
-10.053218 18.442734 0.36664015 32 3206021498808 1 0
-10.631673 15.646968 -1.2123791 1 3206021498808 1 0
-7.1170745 14.731124 -0.9527823 1 3206021501112 1 0
-12.779881 20.947765 1.4290571 7 3206021501112 1 0
-10.17106 18.671839 0.86625093 49 3206021503416 1 0
-11.120226 18.233356 -0.99483544 59 3206021503416 1 0
-12.237107 20.071224 2.8863535 18 3206021505720 1 0
-9.744474 17.894918 -1.0678629 19 3206021505720 1 0
-10.794111 19.829355 1.843068 6 3206021508024 1 0
0 0 0 3 3206021508024 1 0
-9.99778 20.724463 -0.803526 25 3206021510328 1 0
0 0 0 86 3206021510328 1 0
-11.288018 20.75106 4.307005 30 3206021512632 1 0
-19.304228 31.693777 -0.8635278 5 3206021512632 1 0
-1.964898 3.6234148 -1.9220679 3 3206021533368 1 0
-12.427943 18.376715 -0.387234 4 3206021533368 1 0
-12.608535 23.259129 -0.7699683 8 3206021535672 1 0
-3.8299732 6.3087034 -2.0660255 4 3206021535672 1 0
-5.5315356 10.207639 -2.3220286 23 3206021537976 1 0
-10.934713 18.017487 0 38 3206021537976 1 0
-8.992848 18.731752 -0.24190171 27 3206021540280 1 0
-8.620806 14.209444 -2.5856957 8 3206021540280 1 0
0 0 0 22 3206021542584 1 0
-12.3965435 18.353285 0.12872227 6 3206021542584 1 0
-10.210344 18.861338 -0.12465393 42 3206021544888 1 0
0 0 0 95 3206021544888 1 0
-6.9848995 14.565559 -1.5079246 31 3206021547192 1 0
-10.794836 17.81036 0.48461774 24 3206021547192 1 0
-8.845361 18.45205 0.23822312 16 3206021549496 1 0
-9.323509 15.387872 -1.2581278 63 3206021549496 1 0
-8.670309 16.03317 -1.4879935 37 3206021551800 1 0
-12.307042 18.24365 0.6404572 198 3206021551800 1 0
-10.062953 18.614925 0.36936274 40 3206021554104 1 0
-10.574758 15.680675 -1.2121233 1 3206021554104 1 0
-7.119072 14.867527 -0.9599915 1 3206021556408 1 0
-10.159009 18.805687 0.87081015 33 3206021558712 1 0
-11.842338 19.564297 1.3318487 10 3206021556408 1 0
-11.008935 18.193436 -0.9905546 49 3206021558712 1 0
-12.479675 23.10959 -1.3764356 65 3206021561016 1 0
-11.856684 19.600866 2.8127444 28 3206021561016 1 0
-10.6339245 19.69852 1.8274461 21 3206021563320 1 0
-12.442839 18.473915 -0.9074467 4 3206021563320 1 0
-12.149793 25.411669 -0.9836074 31 3206021565624 1 0
0 0 0 67 3206021565624 1 0
-10.027264 18.587662 3.8506908 14 3206021567928 1 0
-10.899745 18.03667 -0.490387 6 3206021567928 1 0
-1.9556719 3.6366372 -1.9254488 3 3206021588664 1 0
-12.38601 18.453192 -0.3879321 2 3206021588664 1 0
-9.895728 18.407854 -0.60822487 33 3206021590968 1 0
