# .PCD v.7 - Point Cloud Data file format
VERSION .7
FIELDS x y z rgb timestamp_ns device_id active
SIZE 4 4 4 4 8 1 1
TYPE F F F F F U U
COUNT 1 1 1 1 1 1 1
WIDTH 986
HEIGHT 1
VIEWPOINT 0 0 0 1 0 0 0
POINTS 986               
DATA ascii
-25.2487 32.962284 0.48338434 5 3198218176496 1 0
-16.994904 18.191885 -1.7408426 5 3198218176496 1 0
-16.223532 19.168533 -2.0500593 9 3198218178800 1 0
-20.3035 19.714436 0.8236112 21 3198218178800 1 0
-27.093683 32.021347 0.73216337 68 3198218181104 1 0
-18.858818 18.316998 -1.6848974 5 3198218181104 1 0
-15.808631 20.656898 -1.5148703 3 3198218183408 1 0
-26.93676 28.859198 2.2990494 18 3198218183408 1 0
-28.50089 33.70437 1.7982848 28 3198218185712 1 0
-16.360065 19.35267 -1.3280772 3 3198218188016 1 0
-27.463512 29.440708 4.943508 24 3198218188016 1 0
-18.362158 19.678375 -1.2537346 3 3198218185712 1 0
-21.899286 25.912775 2.7696466 6 3198218190320 1 0
-16.156036 21.136314 -0.9290246 3 3198218192624 1 0
-20.283789 19.723974 -1.1526674 11 3198218190320 1 0
0 0 0 9 3198218192624 1 0
0 0 0 29 3198218194928 1 0
-27.502098 29.507874 -0.93862116 12 3198218194928 1 0
-2.6602268 3.158002 -1.9254488 3 3198218215664 1 0
-20.243017 19.747437 -0.49362385 21 3198218215664 1 0
-16.609354 19.723078 -0.75041944 19 3198218217968 1 0
-5.003086 5.383648 -2.0573993 4 3198218217968 1 0
-7.398979 8.788646 -2.2977102 2 3198218220272 1 0
-27.353384 29.442617 0 16 3198218220272 1 0
0 0 0 11 3198218222576 1 0
-10.9984255 11.841931 -2.5143661 2 3198218222576 1 0
-13.524244 16.073837 -2.673856 12 3198218224880 1 0
-20.27719 19.803808 0.16473289 11 3198218224880 1 0
-16.312138 17.573418 -2.5827525 7 3198218227184 1 0
0 0 0 28 3198218229488 1 0
-26.931986 32.01866 -0.24317047 18 3198218227184 1 0
-23.996729 25.859737 0.8209097 10 3198218229488 1 0
-25.116539 33.02793 0.4830584 5 3198218231792 1 0
-16.836315 18.14871 -1.7310766 2 3198218231792 1 0
-16.138569 19.203682 -2.047781 3 3198218234096 1 0
-27.089792 32.244335 0.7350954 38 3198218236400 1 0
-30.03737 29.370296 1.2226169 22 3198218234096 1 0
-18.703445 18.293398 -1.6767108 5 3198218236400 1 0
-15.917613 20.950426 -1.532312 3 3198218238704 1 0
-26.860289 28.979406 2.3011425 9 3198218238704 1 0
-28.616936 34.082184 1.8131022 19 3198218241008 1 0
-18.31508 19.765799 -1.2552236 3 3198218241008 1 0
-16.256458 19.366827 -1.3251464 3 3198218243312 1 0
-27.252657 29.419891 4.924009 23 3198218243312 1 0
-20.214815 19.794657 -1.1526674 7 3198218245616 1 0
-16.091825 21.205318 -0.929583 3 3198218247920 1 0
-21.603682 25.744745 2.7436101 6 3198218245616 1 0
0 0 0 9 3198218247920 1 0
0 0 0 29 3198218250224 1 0
-26.149448 28.25367 -0.895817 5 3198218250224 1 0
-2.6515129 3.1700494 -1.9271393 4 3198218270960 1 0
-27.420727 26.936867 -0.67094034 18 3198218270960 1 0
-4.9921002 5.409571 -2.0606341 4 3198218273264 1 0
-16.49937 19.73186 -0.7485576 23 3198218273264 1 0
-7.3581934 8.8023815 -2.2945724 3 3198218275568 1 0
-27.193485 29.47618 0 16 3198218275568 1 0
-24.83947 32.861546 -0.47956607 18 3198218277872 1 0
-10.965061 11.888967 -2.5162108 2 3198218277872 1 0
-13.462966 16.114859 -2.6728458 14 3198218280176 1 0
-26.367851 25.932732 0.21494782 11 3198218280176 1 0
-26.879028 32.183086 -0.24370517 18 3198218282480 1 0
-16.229132 17.606857 -2.5793252 7 3198218282480 1 0
-11.90244 15.760705 -1.8436385 59 3198218284784 1 0
-24.880598 32.955795 0.48073018 5 3198218287088 1 0
-16.656609 18.081175 -1.7190785 5 3198218287088 1 0
-16.183825 19.394585 -2.0621011 3 3198218289392 1 0
-23.819601 25.84924 0.817932 10 3198218284784 1 0
-26.353447 25.948744 1.0763497 9 3198218289392 1 0
-18.605349 18.32496 -1.6736408 2 3198218291696 1 0
-27.074427 32.455402 0.73774815 54 3198218291696 1 0
-15.844385 21.005861 -1.532312 3 3198218294000 1 0
-37.10018 40.308475 3.1904368 22 3198218294000 1 0
-28.786993 34.52875 1.831502 19 3198218296304 1 0
-18.240562 19.823729 -1.2548513 3 3198218296304 1 0
-16.201544 19.438797 -1.3261931 3 3198218298608 1 0
-27.098728 29.459324 4.9147468 15 3198218298608 1 0
-21.153017 20.858496 -1.2103089 4 3198218300912 1 0
-21.485613 25.786308 2.74003 6 3198218300912 1 0
0 0 0 9 3198218303216 1 0
0 0 0 29 3198218305520 1 0
-27.087065 29.472445 -0.93145615 18 3198218305520 1 0
-2.635799 3.173708 -1.9237583 4 3198218326256 1 0
-27.457321 27.1618 -0.67415154 12 3198218326256 1 0
-16.39478 19.746145 -0.7469286 19 3198218328560 1 0
-4.9758286 5.4297676 -2.0617123 4 3198218328560 1 0
-7.3325615 8.833942 -2.2961411 3 3198218330864 1 0
-27.207048 29.697351 0 22 3198218330864 1 0
-24.636501 32.829144 -0.4778432 13 3198218333168 1 0
-16.024923 21.270939 -0.9300018 3 3198218303216 1 0
-13.40457 16.15831 -2.6723406 12 3198218335472 1 0
-28.048544 27.77735 0.22943111 18 3198218335472 1 0
-26.872389 32.401978 -0.24465832 19 3198218337776 1 0
-10.953119 11.958993 -2.522975 3 3198218333168 1 0
-16.152103 17.64521 -2.576755 7 3198218337776 1 0
-11.788312 15.721977 -1.8343441 49 3198218340080 1 0
-23.657465 25.851542 0.8154196 10 3198218340080 1 0
-16.583542 18.126587 -1.7179624 7 3198218342384 1 0
-16.020496 19.33337 -2.0497339 3 3198218344688 1 0
-29.697027 29.442423 1.2170316 28 3198218344688 1 0
-24.757494 33.02838 0.4805439 5 3198218342384 1 0
-27.0524 32.655743 0.74019146 54 3198218346992 1 0
-18.550976 18.397013 -1.6744084 2 3198218346992 1 0
-15.868247 21.187742 -1.5416143 3 3198218349296 1 0
-27.03933 29.57986 2.3339329 18 3198218349296 1 0
-18.197104 19.912373 -1.2565265 3 3198218351600 1 0
-16.295753 19.687685 -1.3393818 3 3198218353904 1 0
-26.982243 29.533794 4.911822 7 3198218353904 1 0
-22.536562 27.235168 2.8858352 7 3198218356208 1 0
-21.107584 20.955555 -1.2117743 4 3198218356208 1 0
-16.070082 21.481972 -0.9368421 3 3198218358512 1 0
-29.347046 35.44561 1.8748145 19 3198218351600 1 0
0 0 0 9 3198218358512 1 0
0 0 0 29 3198218360816 1 0
0 0 0 8 3198218360816 1 0
-2.62526 3.182431 -1.9237583 4 3198218381552 1 0
0 0 0 21 3198218381552 1 0
-27.03134 32.77755 -1.236464 27 3198218383856 1 0
-4.9577956 5.446238 -2.0617123 5 3198218383856 1 0
-26.7665 29.411703 0 11 3198218386160 1 0
-7.313207 8.870316 -2.2992792 2 3198218386160 1 0
-24.49404 32.865765 -0.47719127 58 3198218388464 1 0
-10.916061 11.998173 -2.5235898 3 3198218388464 1 0
-13.358482 16.21186 -2.673856 12 3198218390768 1 0
-27.842968 27.757248 0.2285012 17 3198218390768 1 0
-26.925014 32.68541 -0.24612293 58 3198218393072 1 0
-16.077448 17.68102 -2.5741847 7 3198218393072 1 0
-23.474771 25.823324 0.8120697 10 3198218395376 1 0
-11.683782 15.690706 -1.8261651 44 3198218395376 1 0
-24.537968 32.962715 0.47840196 5 3198218397680 1 0
0 0 0 19 3198218397680 1 0
-16.067772 19.52183 -2.064054 3 3198218399984 1 0
-29.432259 29.374098 1.2101662 38 3198218399984 1 0
-27.035444 32.85645 0.74270463 62 3198218402288 1 0
-18.487041 18.455608 -1.6741525 2 3198218402288 1 0
-15.82173 21.272287 -1.5439398 3 3198218404592 1 0
0 0 0 9 3198218404592 1 0
-29.478125 35.84525 1.8907717 20 3198218406896 1 0
-18.147087 19.990356 -1.2576432 3 3198218406896 1 0
-16.126368 19.615107 -1.3307987 3 3198218409200 1 0
-22.582819 27.476068 2.90341 7 3198218411504 1 0
-26.902834 29.643688 4.9152346 15 3198218409200 1 0
-21.142574 21.129969 -1.217799 4 3198218411504 1 0
-16.103651 21.676338 -0.9429844 3 3198218413808 1 0
0 0 0 9 3198218413808 1 0
0 0 0 29 3198218416112 1 0
-26.784298 29.53767 -0.92782706 24 3198218416112 1 0
-2.6146922 3.1911192 -1.9237583 4 3198218437296 1 0
-27.013468 32.978558 -1.240653 45 3198218439600 1 0
-27.454521 27.521687 -0.6785496 6 3198218437296 1 0
-4.9370847 5.459828 -2.0606341 4 3198218439600 1 0
-7.2761674 8.88552 -2.2969258 2 3198218441904 1 0
-26.872253 29.726204 0 33 3198218441904 1 0
0 0 0 84 3198218444208 1 0
-10.883902 12.04334 -2.5254345 3 3198218444208 1 0
-13.319255 16.274881 -2.6768863 12 3198218446512 1 0
-27.645496 27.745394 0.22764103 17 3198218446512 1 0
-27.030579 33.03864 -0.24809897 66 3198218448816 1 0
-15.994092 17.70826 -2.5703292 7 3198218448816 1 0
-11.586009 15.669028 -1.8191013 48 3198218451120 1 0
-23.30748 25.813007 0.80927813 15 3198218451120 1 0
-24.4102 33.022633 0.478076 5 3198218453424 1 0
-16.488768 18.26663 -1.7207527 7 3198218453424 1 0
-16.125443 19.727184 -2.0800014 3 3198218455728 1 0
-29.237078 29.37689 1.2062099 38 3198218455728 1 0
-27.030472 33.077755 0.74563664 63 3198218458032 1 0
-18.52307 18.61706 -1.6831067 2 3198218458032 1 0
-15.849186 21.460695 -1.5537072 3 3198218460336 1 0
-26.840391 29.760492 2.3339329 18 3198218460336 1 0
-26.14807 32.01694 1.6841416 8 3198218462640 1 0
-17.624239 19.547384 -1.2260021 3 3198218462640 1 0
-16.099937 19.719385 -1.3341482 3 3198218464944 1 0
-26.881533 29.823547 4.9298587 23 3198218464944 1 0
-22.509144 27.577639 2.9060135 7 3198218467248 1 0
-21.10419 21.235975 -1.2197529 4 3198218467248 1 0
-15.9772625 21.660477 -0.9399133 3 3198218469552 1 0
0 0 0 9 3198218469552 1 0
-26.768602 29.724327 -0.9308048 36 3198218471856 1 0
-2.6058252 3.203039 -1.9254488 4 3198218492592 1 0
0 0 0 29 3198218471856 1 0
-44.84845 45.27314 -1.1123465 14 3198218492592 1 0
-25.974607 31.937538 -1.1980646 17 3198218494896 1 0
-4.915383 5.474198 -2.0595558 4 3198218494896 1 0
-7.2548747 8.923143 -2.3000636 2 3198218497200 1 0
-27.190065 30.290525 0 47 3198218497200 1 0
-24.114395 32.82327 -0.4741646 13 3198218499504 1 0
-10.846812 12.0873785 -2.5266643 3 3198218499504 1 0
-13.2744 16.337057 -2.6794116 14 3198218501808 1 0
-27.440763 27.734478 0.22675763 17 3198218501808 1 0
-15.915604 17.746796 -2.5677588 7 3198218504112 1 0
-11.476357 15.636033 -1.8105505 49 3198218506416 1 0
-25.963121 31.963284 -0.23933461 24 3198218504112 1 0
-23.14136 25.811852 0.80667263 9 3198218506416 1 0
-24.170057 32.941185 0.47565466 5 3198218508720 1 0
-16.346739 18.23874 -1.7126609 10 3198218508720 1 0
-16.055332 19.784286 -2.0800014 3 3198218511024 1 0
-29.05957 29.406519 1.2031845 33 3198218511024 1 0
-25.987951 32.033817 0.7200165 15 3198218513328 1 0
-18.462358 18.688492 -1.6836183 2 3198218513328 1 0
-15.885932 21.671627 -1.5648699 3 3198218515632 1 0
-37.26695 41.61864 3.2534597 47 3198218515632 1 0
-26.010927 32.08216 1.6826762 8 3198218517936 1 0
-17.466385 19.511946 -1.21986 3 3198218517936 1 0
-16.067009 19.82341 -1.3372884 3 3198218520240 1 0
0 0 0 1 3198218520240 1 0
-22.415148 27.664356 2.9066644 7 3198218522544 1 0
-21.145819 21.430988 -1.2265918 4 3198218522544 1 0
-15.97491 21.820953 -0.9443804 3 3198218524848 1 0
0 0 0 29 3198218527152 1 0
0 0 0 9 3198218524848 1 0
-27.111872 30.32431 -0.94653064 62 3198218527152 1 0
-2.5963454 3.2153888 -1.9271393 4 3198218547888 1 0
0 0 0 29 3198218547888 1 0
-27.00784 33.45724 -1.2513584 45 3198218550192 1 0
-7.249347 8.983145 -2.3086927 3 3198218552496 1 0
-4.8978887 5.4950166 -2.0606341 4 3198218550192 1 0
-27.16446 30.48515 0 52 3198218552496 1 0
-23.886255 32.762238 -0.47202265 13 3198218554800 1 0
-10.800073 12.123866 -2.5260494 3 3198218554800 1 0
-13.234838 16.409925 -2.6834524 17 3198218557104 1 0
-27.31451 27.80839 0.22654839 17 3198218557104 1 0
-27.011894 33.502125 -0.2501215 47 3198218559408 1 0
-15.824654 17.77473 -2.563475 7 3198218559408 1 0
-11.375102 15.616328 -1.8034867 49 3198218561712 1 0
-22.965311 25.802889 0.803788 9 3198218561712 1 0
-23.956661 32.898994 0.47379208 5 3198218564016 1 0
-16.28867 18.306646 -1.713498 5 3198218564016 1 0
-16.106415 19.9942 -2.095949 3 3198218566320 1 0
-28.838507 29.394129 1.1984136 26 3198218566320 1 0
-26.986235 33.510178 0.75101197 47 3198218568624 1 0
-15.817372 21.741472 -1.5658001 3 3198218570928 1 0
-18.400555 18.76053 -1.68413 2 3198218568624 1 0
-37.194134 41.838802 3.2602038 23 3198218570928 1 0
-29.90765 37.15997 1.9433656 20 3198218573232 1 0
-17.303417 19.469908 -1.2133455 3 3198218573232 1 0
-17.11378 19.262165 3.1637282 3 3198218575536 1 0
-22.331219 27.762856 2.9086173 7 3198218577840 1 0
-16.021019 19.911892 -1.3393818 3 3198218575536 1 0
-20.99644 21.432127 -1.2223582 4 3198218577840 1 0
-15.939351 21.935951 -0.94689316 3 3198218580144 1 0
0 0 0 9 3198218580144 1 0
0 0 0 29 3198218582448 1 0
-27.08616 30.51324 -0.94941527 51 3198218582448 1 0
-2.5783029 3.2159467 -1.9220679 4 3198218603184 1 0
-26.9951 27.643597 -0.6744308 19 3198218603184 1 0
-26.958403 33.635548 -1.2545002 45 3198218605488 1 0
-4.878678 5.51208 -2.0606341 4 3198218605488 1 0
-7.213041 9.002273 -2.307124 3 3198218607792 1 0
0 0 0 3 3198218607792 1 0
-23.769403 32.84218 -0.47197607 8 3198218610096 1 0
-10.765543 12.170373 -2.5278943 3 3198218610096 1 0
-13.199798 16.4839 -2.687998 21 3198218612400 1 0
-27.342958 28.032417 0.22759454 58 3198218612400 1 0
-26.994776 33.72111 -0.25105143 54 3198218614704 1 0
-15.736171 17.800064 -2.559191 7 3198218614704 1 0
-11.280849 15.601074 -1.7971665 50 3198218617008 1 0
-22.787712 25.784014 0.8007173 9 3198218617008 1 0
-23.818245 32.950005 0.47332644 5 3198218619312 1 0
-16.28015 18.42619 -1.7193576 2 3198218619312 1 0
-16.031544 20.044073 -2.0952978 3 3198218621616 1 0
-28.63249 29.388653 1.1941082 21 3198218621616 1 0
-26.993979 33.760357 0.7545024 24 3198218623920 1 0
-18.295963 18.784613 -1.6805483 2 3198218623920 1 0
0 0 0 3 3198218626224 1 0
-30.027254 37.576366 1.9596485 31 3198218628528 1 0
-17.171898 19.458288 -1.2088786 3 3198218628528 1 0
-15.790481 21.864536 -1.5706838 3 3198218626224 1 0
-16.041172 20.080048 -1.3469182 3 3198218630832 1 0
-16.965014 19.229494 3.1486163 7 3198218630832 1 0
-22.29388 27.915401 2.916428 7 3198218633136 1 0
-19.260489 19.797928 -1.1253121 7 3198218633136 1 0
-17.960402 24.899658 -1.0721126 4 3198218635440 1 0
0 0 0 29 3198218637744 1 0
-27.077322 30.718597 -0.9528582 57 3198218637744 1 0
-2.5738347 3.233436 -1.9271393 4 3198218658480 1 0
0 0 0 9 3198218635440 1 0
-26.98197 27.823792 -0.67652506 12 3198218658480 1 0
-26.953108 33.870037 -1.2597365 36 3198218660784 1 0
-7.186588 9.033431 -2.3086927 3 3198218663088 1 0
-4.8594475 5.529041 -2.0606341 4 3198218660784 1 0
0 0 0 42 3198218663088 1 0
-10.725869 12.210613 -2.5285091 3 3198218665392 1 0
-13.152536 16.541916 -2.6900182 14 3198218667696 1 0
0 0 0 12 3198218665392 1 0
-26.967733 33.926884 -0.25188833 55 3198218670000 1 0
-26.995287 27.868328 0.22550225 17 3198218667696 1 0
-15.6536 17.830406 -2.555764 7 3198218670000 1 0
-11.178233 15.571923 -1.7893592 50 3198218672304 1 0
-22.651218 25.808311 0.79904234 9 3198218672304 1 0
-23.609152 32.898506 0.4714173 5 3198218674608 1 0
-16.192987 18.455086 -1.7168463 2 3198218674608 1 0
-15.987443 20.130201 -2.0985525 3 3198218676912 1 0
-28.439695 29.391937 1.1902683 10 3198218676912 1 0
-26.975172 33.974773 0.75722504 24 3198218679216 1 0
-15.78779 22.018982 -1.577893 3 3198218681520 1 0
-17.637583 18.23318 -1.6258006 2 3198218679216 1 0
-30.129963 37.96972 1.9747916 31 3198218683824 1 0
0 0 0 3 3198218681520 1 0
-17.013254 19.411572 -1.2023642 3 3198218683824 1 0
-16.101831 20.297255 -1.3578041 3 3198218686128 1 0
-16.87069 19.254274 3.143254 10 3198218686128 1 0
-21.701014 27.363102 2.851011 7 3198218688432 1 0
-19.070946 19.736763 -1.1181476 10 3198218688432 1 0
-17.899193 24.99288 -1.0735085 4 3198218690736 1 0
0 0 0 9 3198218690736 1 0
-27.057583 30.906267 -0.9558359 52 3198218693040 1 0
0 0 0 29 3198218693040 1 0
-2.5653462 3.2447975 -1.9288298 4 3198218713776 1 0
-26.967245 27.993763 -0.67847973 12 3198218713776 1 0
-26.944277 34.09137 -1.2646236 36 3198218716080 1 0
-4.8435383 5.548097 -2.0617123 4 3198218716080 1 0
-7.197667 9.10974 -2.3220286 3 3198218718384 1 0
-27.124825 31.08008 0 48 3198218718384 1 0
0 0 0 56 3198218720688 1 0
-10.69258 12.255515 -2.5303538 3 3198218720688 1 0
-13.086808 16.573746 -2.687998 6 3198218722992 1 0
-27.303226 28.377207 0.22887316 52 3198218722992 1 0
-26.959175 34.153084 -0.252888 55 3198218725296 1 0
-15.566949 17.853376 -2.55148 7 3198218725296 1 0
-11.083565 15.551498 -1.7826673 50 3198218727600 1 0
-27.124775 31.118374 0.9605816 19 3198218727600 1 0
-23.389809 32.829163 0.46927536 5 3198218729904 1 0
-16.145542 18.528374 -1.7185205 2 3198218729904 1 0
-16.029345 20.325829 -2.113198 3 3198218732208 1 0
-26.961895 34.199467 0.760157 24 3198218734512 1 0
-17.447416 18.16145 -1.6140325 5 3198218734512 1 0
-15.82031 22.226404 -1.5888232 3 3198218736816 1 0
-27.332062 31.394876 2.4241645 10 3198218736816 1 0
-30.220404 38.35677 1.9894462 31 3198218739120 1 0
-28.177958 29.322174 1.1835192 10 3198218732208 1 0
-16.048183 20.375303 -1.3592695 3 3198218741424 1 0
-16.914198 19.434425 -1.2001307 3 3198218739120 1 0
-16.792952 19.301065 3.1413043 7 3198218741424 1 0
-21.619766 27.457794 2.852964 7 3198218743728 1 0
-18.95184 19.75158 -1.1152166 7 3198218743728 1 0
-17.96398 25.27077 -1.082722 4 3198218746032 1 0
0 0 0 9 3198218746032 1 0
0 0 0 29 3198218748336 1 0
-27.04525 31.113373 -0.9592788 52 3198218748336 1 0
-2.5534363 3.254178 -1.9288298 4 3198218769072 1 0
-26.947386 28.179129 -0.68057406 19 3198218769072 1 0
-26.923288 34.321632 -1.2695109 46 3198218771376 1 0
-4.828297 5.571564 -2.063869 5 3198218771376 1 0
-27.027351 31.196642 0 18 3198218773680 1 0
-7.103985 9.058691 -2.302417 2 3198218773680 1 0
-25.188246 35.57957 -0.50750464 10 3198218775984 1 0
-10.671414 12.321047 -2.535888 3 3198218775984 1 0
-12.4321375 15.861943 -2.5652652 3 3198218778288 1 0
-27.308445 28.588308 0.22977982 60 3198218778288 1 0
-26.937454 34.378803 -0.25384113 56 3198218780592 1 0
-15.481888 17.885128 -2.548053 7 3198218780592 1 0
-10.981854 15.526025 -1.7752317 52 3198218782896 1 0
-27.078682 31.290821 0.9629079 25 3198218782896 1 0
-23.201092 32.81106 0.46783185 5 3198218785200 1 0
-16.152517 18.670282 -1.7263333 2 3198218785200 1 0
0 0 0 26 3198218787504 1 0
-26.997253 28.293821 1.138138 14 3198218787504 1 0
-26.956709 34.44257 0.76343805 24 3198218789808 1 0
-17.339035 18.176786 -1.6099392 5 3198218789808 1 0
0 0 0 23 3198218792112 1 0
0 0 0 3 3198218792112 1 0
-30.255676 38.679676 2.0006814 31 3198218794416 1 0
-16.738855 19.369642 -1.1924996 3 3198218794416 1 0
-16.741049 19.377592 3.1442292 10 3198218796720 1 0
-16.050781 20.525597 -1.3655498 3 3198218796720 1 0
-21.62486 27.661556 2.8663077 7 3198218799024 1 0
0 0 0 22 3198218799024 1 0
-17.910969 25.381794 -1.084816 4 3198218801328 1 0
0 0 0 9 3198218801328 1 0
0 0 0 29 3198218803632 1 0
0 0 0 3 3198218803632 1 0
-2.5448594 3.2654872 -1.9305202 4 3198218824368 1 0
-26.941936 28.361122 -0.6828079 19 3198218824368 1 0
-26.887457 34.512047 -1.2732345 18 3198218826672 1 0
-4.8072004 5.5846953 -2.0627906 4 3198218826672 1 0
-7.0977426 9.11335 -2.3102617 3 3198218828976 1 0
-27.105474 31.499117 0 61 3198218828976 1 0
-25.18587 35.830883 -0.50987947 20 3198218831280 1 0
-10.6376915 12.36582 -2.5377328 2 3198218831280 1 0
-12.34686 15.863095 -2.5586994 5 3198218833584 1 0
-27.299925 28.773146 0.23052375 42 3198218833584 1 0
-19.9283 25.611708 -0.18860823 13 3198218835888 1 0
-15.397855 17.91035 -2.5441976 7 3198218835888 1 0
-10.89004 15.507901 -1.7689115 53 3198218838192 1 0
-27.068472 31.49501 0.96635085 31 3198218838192 1 0
-23.045147 32.827972 0.46694714 5 3198218840496 1 0
-16.208227 18.864605 -1.7391684 2 3198218840496 1 0
-12.380794 15.926756 -1.646817 35 3198218842800 1 0
-26.95498 28.444366 1.1404653 14 3198218842800 1 0
-19.909956 25.620407 0.5663655 14 3198218845104 1 0
-17.191172 18.146612 -1.6020085 2 3198218845104 1 0
-11.120326 15.856424 -1.127897 20 3198218847408 1 0
0 0 0 3 3198218847408 1 0
-19.949947 25.688059 1.3251034 16 3198218849712 1 0
-16.65321 19.406485 -1.1911968 3 3198218849712 1 0
-16.02558 20.641449 -1.3695273 3 3198218852016 1 0
-16.619022 19.372631 3.133992 7 3198218852016 1 0
-19.97069 25.730988 2.658991 6 3198218854320 1 0
-18.478365 19.529226 -1.0953515 24 3198218854320 1 0
-17.92472 25.592022 -1.0910978 4 3198218856624 1 0
0 0 0 29 3198218858928 1 0
-27.035566 31.544329 -0.966723 53 3198218858928 1 0
0 0 0 9 3198218856624 1 0
-2.52622 3.2661898 -1.9254488 3 3198218879664 1 0
-19.837212 25.655554 -0.94381326 5 3198218881968 1 0
-4.7867403 5.6022425 -2.0627906 4 3198218881968 1 0
-26.931099 28.558607 -0.6851815 13 3198218879664 1 0
-27.076035 31.698229 0 43 3198218884272 1 0
-25.142105 36.047066 -0.5116489 5 3198218886576 1 0
-10.595134 12.4075 -2.5383477 3 3198218886576 1 0
-7.062027 9.136097 -2.3094773 3 3198218884272 1 0
-12.238157 15.841943 -2.5480928 16 3198218888880 1 0
-27.271914 28.953747 0.23117468 48 3198218888880 1 0
-19.845009 25.696518 -0.18870121 4 3198218891184 1 0
-15.296617 17.923758 -2.5382001 7 3198218891184 1 0
-10.799651 15.498224 -1.7633349 55 3198218893488 1 0
-27.050266 31.705393 0.9697938 39 3198218893488 1 0
-22.837183 32.783054 0.46513113 5 3198218895792 1 0
-16.163244 18.950386 -1.7416797 2 3198218895792 1 0
-12.250202 15.876618 -1.6370533 37 3198218898096 1 0
-27.575499 29.3102 1.1711849 41 3198218898096 1 0
-25.35275 32.867786 0.7245541 7 3198218900400 1 0
0 0 0 12 3198218902704 1 0
-17.07104 18.150223 -1.5968919 2 3198218900400 1 0
0 0 0 3 3198218902704 1 0
-30.233128 39.218384 2.0174527 21 3198218905008 1 0
-16.557613 19.43565 -1.1893355 3 3198218905008 1 0
-16.027212 20.796738 -1.376017 3 3198218907312 1 0
-16.598513 19.489397 3.143254 7 3198218907312 1 0
-21.667038 28.123375 2.8982024 7 3198218909616 1 0
-18.424934 19.612558 -1.0963285 24 3198218909616 1 0
-13.276948 19.100653 -0.8123207 3 3198218911920 1 0
0 0 0 9 3198218911920 1 0
0 0 0 29 3198218914224 1 0
-26.9906 31.719456 -0.96914244 46 3198218914224 1 0
-2.5170114 3.2778633 -1.9271393 4 3198218934960 1 0
-26.932392 28.760452 -0.6877644 19 3198218934960 1 0
-25.19435 32.819088 -1.2041154 8 3198218937264 1 0
-4.772221 5.624722 -2.0649474 3 3198218937264 1 0
-7.0160313 9.141818 -2.3047705 3 3198218939568 1 0
-27.072231 31.916832 0 43 3198218939568 1 0
0 0 0 32 3198218941872 1 0
-10.554858 12.446963 -2.5389626 3 3198218941872 1 0
-27.254345 29.134819 0.23187211 36 3198218944176 1 0
-12.178878 15.87756 -2.5470827 7 3198218944176 1 0
-25.209303 32.874187 -0.24077596 6 3198218946480 1 0
-15.209552 17.945597 -2.5339162 7 3198218946480 1 0
-10.703792 15.472659 -1.7562711 50 3198218948784 1 0
-27.04044 31.91321 0.9733298 32 3198218948784 1 0
0 0 0 10 3198218951088 1 0
-16.09893 19.005053 -1.7416797 2 3198218951088 1 0
-27.375433 29.294992 1.1668795 35 3198218953392 1 0
-12.14564 15.851407 -1.6302186 35 3198218953392 1 0
-25.203268 32.90198 0.72343713 7 3198218955696 1 0
-16.999062 18.195807 -1.5958685 4 3198218955696 1 0
0 0 0 12 3198218958000 1 0
0 0 0 3 3198218958000 1 0
-30.338005 39.626682 2.0332472 32 3198218960304 1 0
-16.415358 19.399185 -1.1837518 3 3198218960304 1 0
-16.140247 21.087675 -1.3917178 4 3198218962608 1 0
-16.313272 19.28366 3.101331 7 3198218962608 1 0
-21.53046 28.137766 2.8923442 7 3198218964912 1 0
-18.417347 19.734644 -1.0997479 21 3198218964912 1 0
0 0 0 86 3198218967216 1 0
0 0 0 9 3198218967216 1 0
0 0 0 29 3198218969520 1 0
-26.89956 31.822882 -0.9696077 13 3198218969520 1 0
-2.5023036 3.2799902 -1.9237583 3 3198218990256 1 0
-26.961784 28.973745 -0.6908361 19 3198218990256 1 0
-19.254059 25.246368 -0.92403173 5 3198218992560 1 0
-4.746915 5.6309896 -2.0617123 4 3198218992560 1 0
-6.993878 9.173578 -2.307124 2 3198218994864 1 0
0 0 0 28 3198218997168 1 0
-27.073072 32.12564 0 51 3198218994864 1 0
-10.537533 12.508183 -2.5444968 3 3198218997168 1 0
-27.254587 29.326006 0.23268577 36 3198218999472 1 0
-24.996895 32.820045 -0.23977631 6 3198219001776 1 0
-15.124867 17.96507 -2.5296323 7 3198219001776 1 0
-10.611835 15.448977 -1.7495792 53 3198219004080 1 0
-12.028491 15.787745 -2.5263746 5 3198218999472 1 0
-27.058062 32.14956 0.9777963 6 3198219004080 1 0
0 0 0 21 3198219006384 1 0
-16.050678 19.07712 -1.7433538 2 3198219006384 1 0
-12.038974 15.822499 -1.6230586 35 3198219008688 1 0
-27.300907 29.413574 1.1679268 15 3198219008688 1 0
-16.847437 18.156992 -1.5874262 2 3198219010992 1 0
-10.835579 15.796363 -1.1155715 30 3198219013296 1 0
-25.006401 32.876152 0.7209938 7 3198219010992 1 0
0 0 0 3 3198219013296 1 0
-30.39172 39.982826 2.0461106 22 3198219015600 1 0
-16.319834 19.422241 -1.1817044 3 3198219015600 1 0
-15.955369 20.997583 -1.382088 4 3198219017904 1 0
-16.243307 19.337448 3.1008437 3 3198219017904 1 0
-21.527752 28.34036 2.9053626 7 3198219020208 1 0
-18.407537 19.863838 -1.1033301 7 3198219020208 1 0
-12.565464 18.343384 -0.776444 15 3198219022512 1 0
0 0 0 9 3198219022512 1 0
0 0 0 29 3198219024816 1 0
-26.991177 32.163982 -0.9770519 67 3198219024816 1 0
-2.487503 3.2866833 -1.9220679 4 3198219045552 1 0
-19.043594 25.170252 -0.9185627 5 3198219047856 1 0
-4.7302012 5.655084 -2.063869 4 3198219047856 1 0
-6.9680667 9.212879 -2.3102617 2 3198219050160 1 0
-26.893747 29.12407 -0.691953 19 3198219045552 1 0
-12.518297 18.356298 -0.25866488 19 3198219052464 1 0
-27.03676 32.33369 0 51 3198219050160 1 0
-10.484358 12.542487 -2.543267 3 3198219052464 1 0
0 0 0 3 3198219054768 1 0
-11.912752 15.761008 -2.5147579 3 3198219054768 1 0
-15.048126 18.013857 -2.528347 7 3198219057072 1 0
-10.51656 15.436947 -1.7436308 53 3198219059376 1 0
0 0 0 12 3198219059376 1 0
-12.481782 18.327942 0.25815266 6 3198219061680 1 0
-24.829697 32.86153 -0.2393811 6 3198219057072 1 0
-11.920486 15.792241 -1.6152475 35 3198219063984 1 0
-27.236525 29.571121 1.1700213 10 3198219063984 1 0
-16.089827 19.273388 -1.755631 2 3198219061680 1 0
-24.781212 32.841038 0.7181316 7 3198219066288 1 0
-16.75326 18.195118 -1.5851237 2 3198219066288 1 0
-10.7456455 15.79493 -1.1125484 20 3198219068592 1 0
0 0 0 3 3198219068592 1 0
-30.71202 40.727875 2.0781882 25 3198219070896 1 0
-16.21955 19.454071 -1.1798432 3 3198219070896 1 0
-15.896267 21.0874 -1.383972 4 3198219073200 1 0
-16.273153 19.524715 3.12083 7 3198219073200 1 0
-21.457163 28.473755 2.91057 7 3198219075504 1 0
-18.333836 19.937313 -1.103493 3 3198219075504 1 0
-12.472473 18.35843 -0.775048 54 3198219077808 1 0
0 0 0 9 3198219077808 1 0
0 0 0 29 3198219080112 1 0
-26.959595 32.378014 -0.98040175 60 3198219080112 1 0
-2.4858801 3.306072 -1.9288298 4 3198219100296 1 0
-26.983288 29.40585 -0.69663024 13 3198219100296 1 0
-18.878122 25.114758 -0.9143737 5 3198219102600 1 0
-4.709991 5.66692 -2.0627906 4 3198219102600 1 0
-6.934511 9.228352 -2.3086927 3 3198219104904 1 0
-27.030102 32.53191 0 52 3198219104904 1 0
-12.440781 18.365461 -0.2582458 17 3198219107208 1 0
-10.440125 12.569054 -2.542037 4 3198219107208 1 0
-11.8827 15.823394 -2.5187986 3 3198219109512 1 0
-26.944649 29.399773 0.23177911 18 3198219109512 1 0
-14.974336 18.039076 -2.5253484 7 3198219111816 1 0
-10.430739 15.413381 -1.7373105 55 3198219114120 1 0
-27.00802 32.545765 0.9841239 33 3198219114120 1 0
-24.621872 32.797726 -0.2383582 6 3198219111816 1 0
-12.402665 18.333303 0.257687 16 3198219116424 1 0
-16.032728 19.326096 -1.7559099 2 3198219116424 1 0
-11.814326 15.752377 -1.6074365 35 3198219118728 1 0
-26.94814 29.439665 1.1615268 15 3198219118728 1 0
-24.639286 32.862713 0.7169449 7 3198219121032 1 0
-16.675652 18.223007 -1.5830771 2 3198219121032 1 0
0 0 0 12 3198219123336 1 0
0 0 0 3 3198219123336 1 0
-30.980219 41.346256 2.104892 27 3198219125640 1 0
-16.28228 19.651323 -1.1887771 3 3198219125640 1 0
-16.312214 19.693573 3.1398418 7 3198219127944 1 0
-21.422874 28.609211 2.91773 7 3198219130248 1 0
-18.299963 20.022587 -1.1051213 3 3198219130248 1 0
0 0 0 21 3198219132552 1 0
0 0 0 9 3198219132552 1 0
-15.913207 21.244555 -1.3910897 4 3198219127944 1 0
0 0 0 29 3198219134856 1 0
-2.4759142 3.3180664 -1.9305202 4 3198219155592 1 0
-26.960714 32.579773 -0.98403084 55 3198219134856 1 0
0 0 0 36 3198219155592 1 0
-18.747877 25.132366 -0.9125119 5 3198219157896 1 0
-4.691682 5.6870823 -2.063869 4 3198219157896 1 0
-6.931258 9.294481 -2.3188908 3 3198219160200 1 0
-27.01296 32.753807 0 52 3198219160200 1 0
-12.349243 18.37415 -0.25773358 3 3198219162504 1 0
-10.404321 12.619206 -2.5444968 4 3198219162504 1 0
-12.666856 16.995955 -2.6980994 6 3198219164808 1 0
-26.872564 29.536013 0.23208134 18 3198219164808 1 0
-24.426218 32.784218 -0.23761427 5 3198219167112 1 0
-14.886015 18.065674 -2.521493 7 3198219167112 1 0
-26.986595 32.76065 0.9876599 33 3198219169416 1 0
-12.334093 18.37469 0.25764045 4 3198219171720 1 0
-10.3348875 15.391539 -1.7306186 53 3198219169416 1 0
-15.977994 19.402397 -1.7575841 2 3198219171720 1 0
-11.70982 15.730928 -1.6009274 33 3198219174024 1 0
-26.906311 29.60769 1.1643195 15 3198219174024 1 0
-24.434875 32.83569 0.7144317 7 3198219176328 1 0
-10.555676 15.740132 -1.1037111 2 3198219178632 1 0
-16.52405 18.188372 -1.5748905 2 3198219176328 1 0
-31.194315 41.944523 2.129642 30 3198219180936 1 0
-16.122883 19.601566 -1.1822628 3 3198219180936 1 0
-15.860928 21.33341 -1.3931831 4 3198219183240 1 0
-16.241648 19.75181 3.1398418 10 3198219183240 1 0
0 0 0 3 3198219178632 1 0
-21.330097 28.69832 2.9190319 7 3198219185544 1 0
-18.23641 20.096682 -1.1056098 3 3198219185544 1 0
0 0 0 9 3198219187848 1 0
0 0 0 29 3198219190152 1 0
-26.941149 32.79286 -0.9875668 55 3198219190152 1 0
-12.388797 18.496851 -0.7774212 6 3198219187848 1 0
-2.4556851 3.3150365 -1.9237583 3 3198219210888 1 0
-26.85266 29.687164 -0.69872457 27 3198219210888 1 0
-18.58389 25.094835 -0.90878826 5 3198219213192 1 0
-4.6742425 5.706404 -2.0649474 3 3198219213192 1 0
-6.870766 9.28079 -2.3094773 2 3198219215496 1 0
-27.004902 32.977882 0 53 3198219215496 1 0
-12.320542 18.470383 -0.2584786 1 3198219217800 1 0
-10.362711 12.658505 -2.5451117 8 3198219217800 1 0
-12.619252 17.056015 -2.7006247 14 3198219220104 1 0
-26.825611 29.691965 0.23256955 12 3198219220104 1 0
-24.259302 32.79853 -0.23710284 5 3198219222408 1 0
-14.79768 18.086744 -2.517209 6 3198219222408 1 0
-10.245761 15.374494 -1.7246702 49 3198219224712 1 0
-26.975876 32.981564 0.99147505 33 3198219224712 1 0
-12.265444 18.410973 0.25754732 2 3198219227016 1 0
-15.91017 19.458054 -1.7575841 2 3198219227016 1 0
0 0 0 9 3198219229320 1 0
-27.244778 30.191212 1.1835192 15 3198219229320 1 0
-16.46046 18.245941 -1.5748905 2 3198219231624 1 0
0 0 0 12 3198219233928 1 0
-24.248817 32.82428 0.71233743 7 3198219231624 1 0
0 0 0 3 3198219233928 1 0
-31.486876 42.64799 2.1597655 32 3198219236232 1 0
-16.117548 19.735094 -1.1869159 3 3198219236232 1 0
-15.8504095 21.475422 -1.3988354 4 3198219238536 1 0
-16.13996 19.768404 3.1335046 7 3198219238536 1 0
-20.664074 28.005888 2.8412473 7 3198219240840 1 0
-18.307945 20.317577 -1.1142397 3 3198219240840 1 0
0 0 0 20 3198219243144 1 0
0 0 0 9 3198219243144 1 0
0 0 0 29 3198219245448 1 0
-26.930153 33.01375 -0.991382 56 3198219245448 1 0
-2.448394 3.3294294 -1.9271393 4 3198219266184 1 0
-27.197845 30.280582 -0.71045256 55 3198219266184 1 0
-4.6543365 5.722652 -2.0649474 4 3198219268488 1 0
-6.838464 9.304618 -2.3094773 2 3198219270792 1 0
-26.973377 33.173973 0 19 3198219270792 1 0
-25.042707 37.82644 -0.5281327 11 3198219273096 1 0
-18.451365 25.09821 -0.9065774 5 3198219268488 1 0
-10.333697 12.712778 -2.5488012 8 3198219273096 1 0
-12.550739 17.086803 -2.6986046 14 3198219275400 1 0
-24.065369 32.772514 -0.2363124 5 3198219277704 1 0
-27.203485 30.320555 0.23675412 38 3198219275400 1 0
-14.715054 18.113058 -2.513782 6 3198219277704 1 0
-10.139971 15.329996 -1.7157475 49 3198219280008 1 0
-12.246164 18.519781 0.2584786 2 3198219282312 1 0
-26.935139 33.16437 0.9941736 20 3198219280008 1 0
-15.906024 19.590109 -1.7645597 2 3198219282312 1 0
-11.508658 15.686258 -1.5882345 31 3198219284616 1 0
-27.213036 30.364944 1.1866611 42 3198219284616 1 0
-24.067648 32.81362 0.71031296 7 3198219286920 1 0
0 0 0 12 3198219289224 1 0
-26.106207 32.18006 2.4132345 10 3198219289224 1 0
-16.379221 18.281403 -1.5730996 2 3198219286920 1 0
-31.62478 43.14194 2.179305 34 3198219291528 1 0
-15.904731 21.70323 -1.41014 4 3198219293832 1 0
-16.113068 19.867535 -1.191569 3 3198219291528 1 0
-20.566486 28.07269 2.8409219 7 3198219296136 1 0
-16.09509 19.850975 3.1378918 10 3198219293832 1 0
-18.23884 20.379637 -1.1142397 3 3198219296136 1 0
0 0 0 9 3198219298440 1 0
0 0 0 29 3198219300744 1 0
-26.901428 33.207165 -0.9944527 14 3198219300744 1 0
-12.5783 19.062115 -0.7975233 59 3198219298440 1 0
-2.439478 3.340458 -1.9288298 4 3198219321480 1 0
-27.185148 30.469088 -0.7127563 55 3198219321480 1 0
-18.34645 25.130463 -0.90553015 5 3198219323784 1 0
-4.6304097 5.732129 -2.0627906 4 3198219323784 1 0
-6.811924 9.333778 -2.3110461 2 3198219326088 1 0
-26.995447 33.42895 0 27 3198219326088 1 0
-24.9001 37.886963 -0.5278067 5 3198219328392 1 0
-10.300858 12.759727 -2.5512607 9 3198219328392 1 0
-12.48366 17.116232 -2.6965842 14 3198219330696 1 0
-23.914108 32.798935 -0.2359172 5 3198219333000 1 0
-14.631112 18.134964 -2.5099263 6 3198219333000 1 0
-27.188837 30.510721 0.23752129 26 3198219330696 1 0
-10.046207 15.301163 -1.7086837 53 3198219335304 1 0
-26.96772 33.436386 0.9995706 13 3198219335304 1 0
-21.547588 32.829597 0.4571686 5 3198219337608 1 0
-15.964203 19.799675 -1.778511 2 3198219337608 1 0
-11.414844 15.670887 -1.5827017 31 3198219339912 1 0
-27.116623 30.467133 1.1870102 10 3198219339912 1 0
-23.88377 32.799397 0.70821863 7 3198219342216 1 0
-16.401018 18.433184 -1.5812862 2 3198219342216 1 0
0 0 0 12 3198219344520 1 0
-26.019707 32.301334 2.41556 10 3198219344520 1 0
-31.80856 43.7105 2.2024267 36 3198219346824 1 0
-16.043907 19.923424 -1.191569 3 3198219346824 1 0
-15.819476 21.745695 -1.4093026 4 3198219349128 1 0
-16.01823 19.897758 3.1364293 10 3198219349128 1 0
-20.582857 28.302595 2.8568695 7 3198219351432 1 0
-17.52747 19.723455 -1.0749979 3 3198219351432 1 0
-12.561497 19.18319 -0.80073404 53 3198219353736 1 0
0 0 0 9 3198219353736 1 0
0 0 0 29 3198219356040 1 0
-25.793943 32.071163 -0.957697 58 3198219356040 1 0
-2.427218 3.3493767 -1.9288298 4 3198219376776 1 0
-18.207489 25.132645 -0.9032029 5 3198219379080 1 0
-27.166098 30.673311 -0.7151996 55 3198219376776 1 0
-4.61182 5.7520337 -2.063869 4 3198219379080 1 0
-6.780105 9.36176 -2.3118305 3 3198219381384 1 0
-26.970795 33.649006 0 67 3198219381384 1 0
-24.75753 37.97073 -0.5277136 10 3198219383688 1 0
-10.254301 12.797172 -2.5512607 8 3198219383688 1 0
-12.432973 17.177584 -2.6991096 10 3198219385992 1 0
-27.173128 30.717234 0.2383582 39 3198219385992 1 0
-23.687069 32.736435 -0.23484781 5 3198219388296 1 0
-14.552777 18.172417 -2.5077846 6 3198219388296 1 0
-9.95812 15.287388 -1.7031071 57 3198219390600 1 0
-21.339306 32.76984 0.45525947 5 3198219392904 1 0
-26.936424 33.646214 1.0029205 33 3198219390600 1 0
-15.929937 19.903975 -1.7826965 2 3198219392904 1 0
-11.304524 15.637648 -1.5752162 33 3198219395208 1 0
-27.202461 30.786467 1.1956209 32 3198219395208 1 0
-23.695269 32.787914 0.70612437 7 3198219397512 1 0
-16.339844 18.498089 -1.5817978 2 3198219397512 1 0
0 0 0 12 3198219399816 1 0
-37.43002 46.80953 3.4904342 28 3198219399816 1 0
-31.906712 44.177418 2.220175 38 3198219402120 1 0
-16.034748 20.058844 -1.1962222 3 3198219402120 1 0
-15.441313 19.32224 3.036984 6 3198219404424 1 0
-15.788337 21.866928 -1.4134895 4 3198219404424 1 0
-20.586666 28.521376 2.871515 7 3198219406728 1 0
-17.377605 19.696005 -1.070113 3 3198219406728 1 0
-12.534443 19.29152 -0.8033864 53 3198219409032 1 0
0 0 0 9 3198219409032 1 0
-14.786784 20.498611 4.608345 10 3198219411336 1 0
-25.739614 32.237686 -0.95993024 13 3198219411336 1 0
-27.122252 30.840029 -0.7168751 13 3198219432072 1 0
-18.115164 25.189425 -0.9029702 5 3198219434376 1 0
-2.4176288 3.3607717 -1.9305202 4 3198219432072 1 0
-4.594155 5.771077 -2.0649474 4 3198219434376 1 0
-26.938353 33.84897 0 55 3198219436680 1 0
-6.749811 9.388457 -2.3126152 3 3198219436680 1 0
-24.540924 37.92542 -0.52589756 10 3198219438984 1 0
-10.2049265 12.826479 -2.550031 9 3198219438984 1 0
-12.3410225 17.175404 -2.6920385 19 3198219441288 1 0
-27.135271 30.889244 0.23896265 6 3198219441288 1 0
-23.55051 32.785572 -0.23461533 5 3198219443592 1 0
-12.697861 15.968881 -2.1976314 11 3198219443592 1 0
-9.864283 15.258076 -1.6960434 56 3198219445896 1 0
-26.909868 33.85156 1.0062704 34 3198219445896 1 0
-21.128761 32.691883 0.45316407 5 3198219448200 1 0
-15.911031 20.021132 -1.7882769 2 3198219448200 1 0
-11.206616 15.614819 -1.5690325 33 3198219450504 1 0
-23.519875 32.781147 0.7042395 7 3198219452808 1 0
-16.315874 18.598959 -1.5856353 2 3198219452808 1 0
-10.050912 15.565616 -1.0790602 1 3198219455112 1 0
-37.28719 46.95908 3.492062 28 3198219455112 1 0
-32.028343 44.665997 2.239226 39 3198219457416 1 0
-16.122747 20.310575 -1.207948 3 3198219457416 1 0
-27.175741 30.969816 1.1991118 21 3198219450504 1 0
-15.806915 22.050396 -1.4218633 4 3198219459720 1 0
-15.306359 19.287603 3.0233347 6 3198219459720 1 0
-20.538452 28.659178 2.8783495 7 3198219462024 1 0
-17.178917 19.604612 -1.0619715 3 3198219462024 1 0
0 0 0 21 3198219464328 1 0
0 0 0 9 3198219464328 1 0
-14.715091 20.545298 4.6076274 14 3198219466632 1 0
-26.875204 33.894394 -1.0065496 58 3198219466632 1 0
-2.4043636 3.3658204 -1.9288298 4 3198219487368 1 0
-27.164549 31.095457 -0.72071457 42 3198219487368 1 0
-18.028841 25.246367 -0.9028538 5 3198219489672 1 0
-4.579686 5.79239 -2.0671039 4 3198219489672 1 0
-26.934107 34.076973 0 48 3198219491976 1 0
-6.729762 9.426946 -2.3165374 3 3198219491976 1 0
-24.365808 37.93362 -0.52487314 10 3198219494280 1 0
-10.151974 12.848288 -2.5475714 15 3198219494280 1 0
-12.248429 17.168495 -2.6844625 19 3198219496584 1 0
-23.346367 32.734932 -0.23368542 5 3198219498888 1 0
-27.017738 30.96556 0.2388464 13 3198219496584 1 0
-12.609167 15.9681225 -2.191634 3 3198219498888 1 0
-9.784335 15.247984 -1.6912103 55 3198219501192 1 0
-26.89609 34.071636 1.0100856 20 3198219501192 1 0
-20.947794 32.656178 0.451674 5 3198219503496 1 0
-15.953743 20.216352 -1.8008331 5 3198219503496 1 0
-11.104371 15.585009 -1.5621979 35 3198219505800 1 0
-27.171724 31.180475 1.2036499 33 3198219505800 1 0
-23.35337 32.7871 0.70263386 7 3198219508104 1 0
-16.264776 18.67014 -1.5869144 2 3198219508104 1 0
-9.943108 15.516261 -1.0732464 1 3198219510408 1 0
-36.17257 45.88057 3.402528 26 3198219510408 1 0
-16.064417 20.382187 -1.2088786 3 3198219512712 1 0
-17.800297 25.015076 -1.6090167 5 3198219515016 1 0
-32.25762 45.317562 2.2662556 21 3198219512712 1 0
-15.202084 19.294138 3.0160224 6 3198219515016 1 0
-20.530308 28.860937 2.891368 7 3198219517320 1 0
-17.057623 19.604404 -1.058715 3 3198219517320 1 0
-17.667196 27.606844 -1.1445639 5 3198219519624 1 0
0 0 0 9 3198219519624 1 0
-14.683426 20.654907 4.620542 7 3198219521928 1 0
-26.859129 34.12114 -1.0104578 58 3198219521928 1 0
-2.3941073 3.377568 -1.9305202 4 3198219542664 1 0
-27.13686 31.294523 -0.7230183 49 3198219542664 1 0
-17.999157 25.399965 -0.9059956 5 3198219544968 1 0
-6.684241 9.435253 -2.3126152 2 3198219547272 1 0
-26.92656 34.322205 0 49 3198219547272 1 0
-20.804956 32.647808 -0.45069617 8 3198219549576 1 0
-4.551418 5.7999463 -2.063869 4 3198219544968 1 0
-10.122732 12.906519 -2.5518756 10 3198219549576 1 0
0 0 0 8 3198219551880 1 0
-12.228196 17.2705 -2.6935537 10 3198219551880 1 0
-23.15355 32.71001 -0.23291825 5 3198219554184 1 0
-12.449254 15.881403 -2.1736417 3 3198219554184 1 0
-9.700437 15.235436 -1.6860054 60 3198219556488 1 0
-26.879103 34.29868 1.0139937 20 3198219556488 1 0
-20.785711 32.655323 0.45064962 5 3198219558792 1 0
-15.897401 20.291111 -1.8025073 6 3198219558792 1 0
-11.001558 15.555322 -1.5553633 35 3198219561096 1 0
-27.154287 31.380955 1.2077227 38 3198219561096 1 0
-23.151758 32.74382 0.6999811 7 3198219563400 1 0
-16.286098 18.82607 -1.5953568 2 3198219563400 1 0
-9.919564 15.597617 -1.0765021 1 3198219565704 1 0
-36.00928 45.998695 3.402063 26 3198219565704 1 0
-32.56813 46.087105 2.2991471 22 3198219568008 1 0
-15.994509 20.437092 -1.2088786 3 3198219568008 1 0
-17.721973 25.0853 -1.6096447 5 3198219570312 1 0
-15.077615 19.270721 3.004323 6 3198219570312 1 0
-20.545292 29.089764 2.9073153 7 3198219572616 1 0
-16.923288 19.58335 -1.0544814 3 3198219572616 1 0
-17.74368 27.932615 -1.1555921 5 3198219574920 1 0
0 0 0 9 3198219574920 1 0
-14.432855 20.446613 4.5631437 10 3198219577224 1 0
-26.846066 34.33977 -1.0142729 58 3198219577224 1 0
-2.3813975 3.3821084 -1.9288298 3 3198219597960 1 0
-27.119343 31.473545 -0.7251824 28 3198219597960 1 0
-17.962444 25.518898 -0.90820646 5 3198219600264 1 0
-4.537784 5.8203907 -2.0660255 3 3198219600264 1 0
-6.649639 9.450081 -2.3110461 2 3198219602568 1 0
-26.900703 34.515068 0 35 3198219602568 1 0
0 0 0 29 3198219604872 1 0
-12.014879 17.085934 -2.6587038 26 3198219607176 1 0
-27.132483 31.527721 0.24175236 27 3198219607176 1 0
-23.001091 32.719654 -0.2324533 5 3198219609480 1 0
-12.38046 15.899822 -2.170643 18 3198219609480 1 0
-10.091005 12.951387 -2.5543354 8 3198219604872 1 0
-9.620735 15.219968 -1.6808006 60 3198219611784 1 0
-26.869883 34.518993 1.017902 21 3198219611784 1 0
-20.598967 32.598515 0.44892672 5 3198219614088 1 0
-15.908887 20.444145 -1.811436 3 3198219614088 1 0
-10.910963 15.536255 -1.5498304 36 3198219616392 1 0
-27.141294 31.576954 1.2117953 33 3198219616392 1 0
-23.012457 32.778366 0.6990736 7 3198219618696 1 0
-16.24398 18.904549 -1.5974035 2 3198219618696 1 0
-9.837262 15.583582 -1.0732464 1 3198219621000 1 0
-20.038736 25.775675 1.9013785 6 3198219621000 1 0
-32.997444 47.031265 2.3406687 24 3198219623304 1 0
-16.065067 20.67089 -1.2194877 3 3198219623304 1 0
-17.748888 25.305716 -1.6199025 5 3198219625608 1 0
-20.516485 29.261158 2.9174047 7 3198219627912 1 0
-14.965661 19.262356 2.995061 6 3198219625608 1 0
-16.81707 19.595707 -1.0520389 3 3198219627912 1 0
-20.5615 32.61638 -1.3464226 7 3198219630216 1 0
0 0 0 9 3198219630216 1 0
-14.386682 20.532007 4.571036 10 3198219632520 1 0
-26.822412 34.55589 -1.017902 36 3198219632520 1 0
-2.3689857 3.390814 -1.9288298 4 3198219653256 1 0
-26.85563 31.399488 -0.72120327 14 3198219653256 1 0
-17.947004 25.695753 -0.9121628 5 3198219655560 1 0
-4.5141487 5.8338714 -2.0649474 4 3198219655560 1 0
-6.6197248 9.480629 -2.3126152 3 3198219657864 1 0
-19.853657 25.665249 0 13 3198219657864 1 0
-11.089234 17.666622 -0.24283299 22 3198219660168 1 0
-10.039199 12.981595 -2.5531056 7 3198219660168 1 0
-12.07125 17.298368 -2.6849675 12 3198219662472 1 0
-27.114717 31.737907 0.24261253 27 3198219662472 1 0
-13.292007 19.05335 -0.13502237 7 3198219664776 1 0
-12.255162 15.85609 -2.158648 30 3198219664776 1 0
-9.534478 15.203681 -1.675224 61 3198219667080 1 0
-19.84388 25.681927 0.7552146 13 3198219667080 1 0
-20.459307 32.63443 0.44841453 5 3198219669384 1 0
-15.792028 20.443863 -1.8064137 3 3198219669384 1 0
-10.817004 15.519277 -1.5442977 36 3198219671688 1 0
-27.122498 31.782566 1.2159843 33 3198219671688 1 0
-13.295681 19.081081 0.40594298 7 3198219673992 1 0
-16.306606 19.113682 -1.610195 2 3198219673992 1 0
-9.746316 15.560578 -1.0692929 1 3198219676296 1 0
-19.962526 25.865015 1.9027739 6 3198219676296 1 0
0 0 0 96 3198219678600 1 0
-15.992514 20.727074 -1.2194877 3 3198219678600 1 0
-17.71294 25.442917 -1.6247175 5 3198219680904 1 0
-13.304592 19.116386 1.901325 9 3198219683208 1 0
0 0 0 21 3198219683208 1 0
-20.399712 32.609413 -1.3432118 7 3198219685512 1 0
0 0 0 9 3198219685512 1 0
-14.336045 20.61055 4.577493 16 3198219687816 1 0
-19.777752 25.662241 -0.75391185 9 3198219687816 1 0
-2.3597946 3.4016297 -1.9305202 4 3198219708552 1 0
-27.137184 31.942518 -0.7316049 21 3198219708552 1 0
-14.840136 19.23903 2.9833615 6 3198219680904 1 0
0 0 0 84 3198219710856 1 0
-4.4924307 5.8457546 -2.063869 4 3198219710856 1 0
-6.5882497 9.502528 -2.3126152 2 3198219713160 1 0
-25.263733 32.883717 0 6 3198219713160 1 0
-11.020013 17.686325 -0.24260017 27 3198219715464 1 0
-9.996096 13.014814 -2.5531056 8 3198219715464 1 0
-12.049979 17.390488 -2.6930487 8 3198219717768 1 0
-27.099905 31.934391 0.24342619 35 3198219717768 1 0
0 0 0 85 3198219720072 1 0
-12.163769 15.846166 -2.151794 19 3198219720072 1 0
-9.460856 15.198023 -1.6711344 57 3198219722376 1 0
-25.27037 32.930016 0.9658856 6 3198219722376 1 0
-20.353086 32.705494 0.4484611 5 3198219724680 1 0
-15.991317 20.84437 -1.8371065 3 3198219724680 1 0
-10.715568 15.482942 -1.5371376 35 3198219726984 1 0
-27.120369 31.994331 1.2206388 33 3198219726984 1 0
-13.23916 19.134933 0.4061524 5 3198219729288 1 0
-16.209583 19.128061 -1.6068692 2 3198219729288 1 0
-110.825294 144.58267 10.609208 28 3198219731592 1 0
-9.679903 15.569075 -1.067665 1 3198219731592 1 0
-12.5725355 18.182178 0.9006079 8 3198219733896 1 0
-15.984451 20.859282 -1.2241408 3 3198219733896 1 0
0 0 0 51 3198219736200 1 0
-14.730381 19.228256 2.9740994 6 3198219736200 1 0
-13.23886 19.157122 1.9009995 3 3198219738504 1 0
-16.590624 19.59966 -1.0461771 28 3198219738504 1 0
-19.79588 31.878807 -1.3104063 6 3198219740808 1 0
-13.804002 18.029327 6.084318 2 3198219740808 1 0
-14.24302 20.62236 4.569601 10 3198219743112 1 0
-25.156485 32.86615 -0.963094 6 3198219743112 1 0
-2.3411448 3.4012973 -1.9254488 2 3198219764296 1 0
-27.066334 32.096798 -0.73286146 21 3198219764296 1 0
-12.619799 18.340199 -0.6479044 9 3198219766600 1 0
-4.475604 5.868339 -2.0660255 4 3198219766600 1 0
-6.564353 9.542865 -2.3165374 2 3198219768904 1 0
-10.988371 17.781275 -0.2433452 6 3198219771208 1 0
-9.945645 13.048438 -2.5524905 8 3198219771208 1 0
-11.963173 17.402187 -2.687998 8 3198219773512 1 0
-25.169237 33.011448 0 6 3198219768904 1 0
-27.082241 32.153603 0.24433285 35 3198219773512 1 0
0 0 0 19 3198219775816 1 0
-9.377226 15.1889515 -1.6663013 60 3198219778120 1 0
0 0 0 6 3198219775816 1 0
-25.080229 32.93443 0.9632801 6 3198219778120 1 0
-19.540295 31.661089 0.4331414 9 3198219780424 1 0
-15.846069 20.814753 -1.8292937 3 3198219780424 1 0
-10.628509 15.480006 -1.5329067 37 3198219782728 1 0
-27.091143 32.202175 1.2247115 16 3198219782728 1 0
-22.471968 32.739742 0.6931398 7 3198219785032 1 0
-16.145819 19.197565 -1.6076367 2 3198219785032 1 0
-9.590203 15.554162 -1.0641767 1 3198219787336 1 0
0 0 0 3 3198219787336 1 0
-12.409399 18.090714 0.893769 8 3198219789640 1 0
-16.04407 21.100296 -1.2347499 3 3198219789640 1 0
-12.6011 18.37591 -1.1677198 18 3198219791944 1 0
-14.619682 19.232824 2.9662998 6 3198219791944 1 0
-13.227604 19.295544 1.9097869 3 3198219794248 1 0
-19.50168 31.67062 -1.2988197 6 3198219796552 1 0
-16.48597 19.625175 -1.0442232 18 3198219794248 1 0
0 0 0 67 3198219796552 1 0
-13.889299 20.273422 4.480634 22 3198219798856 1 0
0 0 0 13 3198219798856 1 0
-2.331303 3.4124422 -1.9271393 3 3198219819592 1 0
-27.067102 32.326004 -0.73593307 21 3198219819592 1 0
-12.531032 18.347727 -0.6466244 21 3198219821896 1 0
-4.45281 5.8808227 -2.0649474 4 3198219821896 1 0
-6.533353 9.568865 -2.317322 3 3198219824200 1 0
-24.921553 32.92333 0 6 3198219824200 1 0
-11.152432 18.187536 -0.24837415 14 3198219826504 1 0
-9.895553 13.076556 -2.5512607 7 3198219826504 1 0
-11.842476 17.354998 -2.674361 4 3198219828808 1 0
-27.065727 32.36068 0.24519302 35 3198219828808 1 0
-12.503438 18.32907 -0.12895474 24 3198219831112 1 0
-11.932515 15.777375 -2.1308029 2 3198219831112 1 0
-9.295687 15.17364 -1.6610963 66 3198219833416 1 0
-24.923143 32.96327 0.9616052 6 3198219833416 1 0
0 0 0 12 3198219835720 1 0
-15.848968 20.967815 -1.8379436 3 3198219835720 1 0
-10.534897 15.457099 -1.5270485 42 3198219838024 1 0
-27.108624 32.448395 1.2305295 11 3198219838024 1 0
0 0 0 9 3198219840328 1 0
-16.246296 19.4519 -1.6242657 2 3198219840328 1 0
0 0 0 10 3198219842632 1 0
-12.354374 18.142843 0.89425755 14 3198219844936 1 0
-16.000902 21.193161 -1.2369834 3 3198219844936 1 0
-12.520504 18.392273 -1.1660451 12 3198219847240 1 0
0 0 0 3 3198219842632 1 0
-14.501521 19.212755 2.9555752 6 3198219847240 1 0
-19.651033 28.875399 2.8513365 7 3198219849544 1 0
-16.411545 19.671844 -1.0437347 3 3198219849544 1 0
-19.433846 31.801336 -1.3014721 13 3198219851848 1 0
-13.7409935 20.203136 4.454805 9 3198219854152 1 0
0 0 0 1 3198219854152 1 0
-2.3179388 3.417154 -1.9254488 3 3198219874888 1 0
-27.10297 32.58778 -0.7398424 21 3198219874888 1 0
-12.436326 18.339634 -0.644879 12 3198219877192 1 0
-13.702556 18.16466 6.096741 7 3198219851848 1 0
-6.501446 9.590572 -2.317322 2 3198219879496 1 0
-4.4332414 5.895589 -2.0649474 4 3198219877192 1 0
-24.782915 32.96778 0 6 3198219879496 1 0
-10.690332 17.565237 -0.23938723 24 3198219881800 1 0
-9.856598 13.115833 -2.5524905 8 3198219881800 1 0
