# .PCD v.7 - Point Cloud Data file format
VERSION .7
FIELDS x y z rgb timestamp_ns device_id active
SIZE 4 4 4 4 8 1 1
TYPE F F F F F U U
COUNT 1 1 1 1 1 1 1
WIDTH 987
HEIGHT 1
VIEWPOINT 0 0 0 1 0 0 0
POINTS 987               
DATA ascii
0.04239293 -6.201442 -1.7360654 6 3200579965856 1 0
-0.37444237 -8.872238 -1.7760382 4 3200579968160 1 0
0.4870596 -72.79837 0 67 3200579968160 1 0
-5.7969394 -63.391182 -0.74107134 10 3200579970464 1 0
0.070052065 -10.703013 -1.6651758 23 3200579970464 1 0
-0.47592315 -11.199449 -1.4268309 12 3200579972768 1 0
4.0868535 -73.86978 0.42998862 69 3200579972768 1 0
0 0 0 19 3200579975072 1 0
0.10366793 -16.575788 -1.785522 2 3200579975072 1 0
-1.537497 -16.73246 -1.5685241 1 3200579977376 1 0
0.44517305 -72.874916 1.6957898 67 3200579977376 1 0
-6.401987 -69.56129 0.8132461 38 3200579979680 1 0
0.1006749 -16.882473 -1.1805586 3 3200579979680 1 1
-0.70794666 -16.434038 -1.3428392 5 3200579981984 1 1
4.5263143 -82.68514 2.4099762 41 3200579981984 1 0
-2.8949242 -66.97525 1.170149 58 3200579984288 1 0
1.5650623 -28.66641 -1.8399305 9 3200579984288 1 0
-1.5380921 -16.632732 -0.9727821 1 3200579986592 1 1
0.4022919 -72.78756 4.2390323 56 3200579986592 1 0
-2.8564858 -65.64337 2.6769109 58 3200579988896 1 0
0.16614833 -30.874075 -1.438184 42 3200579988896 1 0
-0.7415588 -16.984488 -0.8909673 7 3200579991200 1 1
0 0 0 1 3200579991200 1 0
0 0 0 8 3200579993504 1 0
1.6358508 -30.286692 -1.2357103 39 3200579993504 1 0
-1.5798205 -16.976257 -0.59538543 2 3200579995808 1 1
0 0 0 9 3200579995808 1 0
0 0 0 29 3200579998112 1 0
0.15285586 -31.847012 -0.74107057 8 3200579998112 1 0
-0.16971377 -3.7373872 -1.7445682 1 3200580019296 1 0
3.8705964 -73.85538 -1.2909195 23 3200580019296 1 0
-2.009116 -44.095566 -1.2846379 28 3200580021600 1 0
0.020739071 -6.2131076 -1.7393003 5 3200580021600 1 0
-0.405539 -8.870872 -1.7760382 6 3200580023904 1 0
0.23117056 -72.57563 0 67 3200580023904 1 0
-3.0133748 -31.723042 -0.37097803 29 3200580026208 1 0
-0.5151569 -11.193741 -1.4263258 11 3200580028512 1 0
3.869654 -74.71059 0.4348009 35 3200580028512 1 0
-2.031898 -44.004368 -0.25602642 14 3200580030816 1 0
0.032517567 -10.722956 -1.6682503 21 3200580026208 1 0
0.04524766 -16.591959 -1.7872355 2 3200580030816 1 0
-1.5932188 -16.69124 -1.5651782 1 3200580033120 1 0
0.18667279 -72.51213 1.6873221 67 3200580033120 1 0
-6.6372633 -69.422714 0.8118957 58 3200580035424 1 0
0.040516842 -16.731094 -1.1699556 2 3200580035424 1 1
-0.7679353 -16.467264 -1.3457683 24 3200580037728 1 1
4.740727 -92.62349 2.699136 34 3200580037728 1 0
-3.1244783 -66.78076 1.1669377 58 3200580040032 1 0
1.4647393 -28.703688 -1.8419771 9 3200580040032 1 0
-1.5973511 -16.627146 -0.9727821 1 3200580042336 1 1
0.14244968 -72.548935 4.225079 28 3200580042336 1 0
-3.1310906 -66.4871 2.7117562 29 3200580044640 1 0
-0.8017576 -16.969757 -0.8903393 7 3200580046944 1 1
0 0 0 1 3200580046944 1 0
0 0 0 8 3200580049248 1 0
1.5294704 -30.336271 -1.2375014 39 3200580049248 1 0
-1.6157906 -16.711836 -0.5863115 2 3200580051552 1 1
0.055957556 -30.902441 -1.4394869 42 3200580044640 1 0
0 0 0 9 3200580051552 1 0
0 0 0 29 3200580053856 1 0
0 0 0 14 3200580053856 1 0
-0.18323311 -3.7331192 -1.7428777 1 3200580074592 1 0
3.4752867 -71.31249 -1.2462415 21 3200580074592 1 0
-2.1659517 -44.004074 -1.2821944 9 3200580076896 1 0
-0.0019416751 -6.20929 -1.7382219 6 3200580076896 1 0
-0.43837175 -8.881091 -1.7783916 3 3200580079200 1 0
-0.032484766 -72.04799 0 44 3200580079200 1 0
-3.132168 -31.751724 -0.3714437 3 3200580081504 1 0
-0.0063186996 -10.726956 -1.6688652 22 3200580081504 1 0
-0.5555295 -11.19181 -1.4263258 9 3200580083808 1 0
3.599185 -74.70409 0.43468463 71 3200580083808 1 0
-2.1828103 -43.852966 -0.2551895 14 3200580086112 1 0
-0.01436549 -16.599968 -1.7880924 2 3200580086112 1 0
-1.6564621 -16.721102 -1.5685241 1 3200580088416 1 0
-0.072437726 -72.18043 1.6795987 44 3200580088416 1 0
-6.8964453 -69.51803 0.8132926 58 3200580090720 1 0
-0.82696944 -16.47638 -1.3467448 59 3200580093024 1 1
4.381179 -91.99274 2.6802855 35 3200580093024 1 0
-0.019034212 -16.67128 -1.1657702 3 3200580090720 1 1
-3.389832 -67.35248 1.1771299 39 3200580095328 1 0
1.3651766 -28.748558 -1.8445355 9 3200580095328 1 0
-1.6784282 -16.847914 -0.9860378 1 3200580097632 1 1
-0.11235772 -72.197586 4.204614 56 3200580097632 1 0
-3.5489526 -70.128006 2.860745 87 3200580099936 1 0
-0.052416056 -30.934412 -1.4409758 42 3200580099936 1 0
-0.8601784 -16.950897 -0.8895019 7 3200580102240 1 1
0 0 0 1 3200580102240 1 0
0 0 0 8 3200580104544 1 0
1.4258827 -30.381327 -1.2391297 40 3200580104544 1 0
-1.6815996 -16.785696 -0.5891035 2 3200580106848 1 1
0 0 0 9 3200580106848 1 0
0 0 0 29 3200580109152 1 0
0 0 0 3 3200580109152 1 0
-0.1958013 -3.7361114 -1.7445682 1 3200580129888 1 0
-3.4259918 -65.1904 -1.8998446 23 3200580132192 1 0
1.3848118 -30.495924 -0.5328569 4 3200580129888 1 0
-0.022577567 -6.2092495 -1.7382219 6 3200580132192 1 0
-0.46794927 -8.879581 -1.7783916 4 3200580134496 1 0
-0.2717867 -71.87148 0 21 3200580134496 1 0
-0.042140078 -10.730827 -1.6694801 20 3200580136800 1 0
-4.239575 -41.557476 -0.4863179 4 3200580136800 1 0
-0.5929653 -11.189888 -1.4263258 10 3200580139104 1 0
3.3569665 -74.88753 0.4356843 72 3200580139104 1 0
-2.3238714 -43.733562 -0.25453857 7 3200580141408 1 0
-0.07001647 -16.599827 -1.7880924 2 3200580141408 1 0
-1.7126315 -16.715443 -1.5685241 1 3200580143712 1 0
-0.291111 -66.71731 1.5524889 17 3200580143712 1 0
-7.1296587 -69.48646 0.8131995 58 3200580146016 1 0
-0.07480689 -16.591316 -1.1601896 3 3200580146016 1 1
0 0 0 47 3200580148320 1 0
3.5776732 -80.862625 2.3556352 43 3200580148320 1 0
-3.7604532 -70.00039 1.2236232 65 3200580150624 1 0
1.2704155 -28.808842 -1.8481171 9 3200580150624 1 0
-1.7125915 -16.619686 -0.97301465 1 3200580152928 1 1
-0.3558779 -71.96518 4.191126 28 3200580152928 1 0
-3.7795503 -69.97587 2.8550458 87 3200580155232 1 0
-0.15763524 -30.96602 -1.4424648 42 3200580155232 1 0
-0.9172158 -16.935905 -0.8888739 6 3200580157536 1 1
0 0 0 1 3200580157536 1 0
0 0 0 8 3200580159840 1 0
1.3239917 -30.425941 -1.240758 40 3200580159840 1 0
-1.7513244 -16.899137 -0.59329146 2 3200580162144 1 1
0 0 0 9 3200580162144 1 0
0 0 0 29 3200580164448 1 0
-0.39996967 -70.51178 -1.6407958 21 3200580164448 1 0
-0.2086392 -3.7317855 -1.7428777 1 3200580185184 1 0
2.0057058 -47.85469 -0.8360401 16 3200580185184 1 0
-3.7166314 -66.303795 -1.9326587 23 3200580187488 1 0
-0.044251755 -6.2091327 -1.7382219 6 3200580187488 1 0
-0.49872184 -8.873978 -1.7776071 3 3200580189792 1 0
-0.51396585 -70.67413 0 41 3200580189792 1 0
-7.250311 -68.69376 -0.804166 11 3200580192096 1 0
-0.07962672 -10.734568 -1.670095 25 3200580192096 1 0
-0.63179785 -11.183788 -1.4258208 10 3200580194400 1 0
3.1013207 -75.03867 0.43649796 72 3200580194400 1 0
-2.4674685 -43.56544 -0.25360867 7 3200580196704 1 0
-0.12805222 -16.611412 -1.7893775 2 3200580196704 1 0
-1.7701293 -16.70144 -1.5677805 1 3200580199008 1 0
-0.5243102 -66.75587 1.5534195 35 3200580199008 1 0
-7.374701 -69.48501 0.8134789 58 3200580201312 1 0
-0.13243367 -16.555044 -1.1576785 3 3200580201312 1 1
-0.94142187 -16.494196 -1.3486975 31 3200580203616 1 1
3.318992 -81.453896 2.3725076 42 3200580203616 1 0
-4.0024924 -69.94691 1.2229251 64 3200580205920 1 0
1.170656 -28.833042 -1.8493962 9 3200580205920 1 0
-1.7913306 -16.808174 -0.9844099 1 3200580208224 1 1
-0.5670627 -67.21971 3.914849 28 3200580208224 1 0
-4.0228705 -69.94629 2.8543944 87 3200580210528 1 0
-0.26603445 -31.001242 -1.44414 42 3200580210528 1 0
-0.97609764 -16.928612 -0.88866454 4 3200580212832 1 1
0 0 0 1 3200580212832 1 0
0 0 0 8 3200580215136 1 0
1.2193754 -30.470314 -1.2423862 36 3200580215136 1 0
-1.8183959 -16.968443 -0.5959438 2 3200580217440 1 1
0 0 0 9 3200580217440 1 0
0 0 0 29 3200580219744 1 0
-0.64390075 -70.27003 -1.6352127 20 3200580219744 1 0
-0.2220943 -3.7382722 -1.7462586 1 3200580240480 1 0
1.8348113 -47.76149 -0.83429486 8 3200580240480 1 0
-3.9599376 -66.48998 -1.9384768 23 3200580242784 1 0
-0.065925404 -6.2089405 -1.7382219 6 3200580242784 1 0
-0.5296948 -8.872183 -1.7776071 3 3200580245088 1 0
-0.75962824 -70.57591 0 41 3200580245088 1 0
-4.520921 -41.447342 -0.4853866 13 3200580247392 1 0
-0.6722585 -11.20528 -1.4288512 11 3200580249696 1 0
-0.11713998 -10.738176 -1.67071 23 3200580247392 1 0
2.8419387 -75.11699 0.43689317 72 3200580249696 1 0
-2.6149628 -43.4807 -0.25316697 6 3200580252000 1 0
-1.828851 -16.69912 -1.5681523 1 3200580254304 1 0
-0.18621425 -16.62677 -1.7910911 2 3200580252000 1 0
-0.75955135 -66.94957 1.557979 17 3200580254304 1 0
-7.60456 -69.343544 0.81212854 38 3200580256608 1 0
-0.18953303 -16.49463 -1.153493 11 3200580256608 1 1
-0.9992327 -16.49479 -1.349023 11 3200580258912 1 1
3.0280955 -81.28918 2.3673878 42 3200580258912 1 0
-4.245416 -69.91255 1.222576 64 3200580261216 1 0
1.072223 -28.89679 -1.8532337 10 3200580261216 1 0
-1.8499911 -16.801819 -0.9844099 1 3200580263520 1 1
-0.85113335 -71.362 4.1562424 28 3200580263520 1 0
-4.265057 -69.89991 2.853092 87 3200580265824 1 0
-0.37468147 -31.036083 -1.4458151 43 3200580265824 1 0
-1.036159 -16.94105 -0.8895019 2 3200580268128 1 1
0 0 0 1 3200580268128 1 0
0 0 0 8 3200580270432 1 0
-1.869259 -16.8865 -0.59329146 2 3200580272736 1 1
1.1140277 -30.502342 -1.243526 40 3200580270432 1 0
0 0 0 9 3200580272736 1 0
0 0 0 29 3200580275040 1 0
-0.8815951 -69.667564 -1.6212548 20 3200580275040 1 0
-0.23468669 -3.730238 -1.7428777 1 3200580295776 1 0
1.0715305 -30.68462 -0.5359285 4 3200580295776 1 0
-2.6029243 -41.2765 -1.2036499 26 3200580298080 1 0
-0.08759825 -6.2086725 -1.7382219 6 3200580298080 1 0
-0.5614035 -8.882024 -1.7799605 3 3200580300384 1 0
-1.0014186 -70.25286 0 61 3200580300384 1 0
-7.3823814 -65.557175 -0.7680321 10 3200580302688 1 0
-0.15473631 -10.745606 -1.6719397 19 3200580302688 1 0
-0.7111167 -11.198906 -1.4283462 10 3200580304992 1 0
2.4833508 -72.32015 0.42057332 32 3200580304992 1 0
-4.128489 -64.86765 -0.3777744 15 3200580307296 1 0
-0.2443098 -16.629995 -1.7915194 2 3200580307296 1 0
-1.894289 -16.755953 -1.5741007 1 3200580309600 1 0
-0.98956627 -66.6986 1.5522097 35 3200580309600 1 0
-7.843418 -69.28876 0.81180257 58 3200580311904 1 0
0 0 0 92 3200580311904 1 0
-1.058079 -16.511093 -1.3506503 4 3200580314208 1 1
2.5330882 -75.041466 2.1851645 70 3200580314208 1 0
-4.4871235 -69.86138 1.2219477 64 3200580316512 1 0
0.97416365 -28.984137 -1.8586061 10 3200580316512 1 0
-1.905022 -16.763517 -0.9825494 1 3200580318816 1 1
-1.0941334 -70.96331 4.1332192 28 3200580318816 1 0
-4.50877 -69.88061 2.852929 87 3200580321120 1 0
-0.48369932 -31.078533 -1.4478624 43 3200580321120 1 0
-1.095288 -16.93733 -0.8895019 2 3200580323424 1 1
0 0 0 1 3200580323424 1 0
0 0 0 8 3200580325728 1 0
1.0086035 -30.538002 -1.2448286 40 3200580325728 1 0
0 0 0 10 3200580328032 1 0
0 0 0 9 3200580328032 1 0
0 0 0 29 3200580330336 1 0
-0.73485124 -45.513744 -1.0592173 8 3200580330336 1 0
-0.24770622 -3.729396 -1.7428777 1 3200580351072 1 0
0.96441466 -30.688173 -0.5359285 4 3200580351072 1 0
-1.8576177 -27.906399 -0.81395316 13 3200580353376 1 1
-0.1094056 -6.2160316 -1.7403785 6 3200580353376 1 0
-0.5924041 -8.88001 -1.7799605 3 3200580355680 1 0
-1.2360657 -69.65303 0 60 3200580355680 1 0
-7.607482 -65.49922 -0.7676596 21 3200580357984 1 0
-0.19224453 -10.745001 -1.6719397 23 3200580357984 1 0
-0.7507344 -11.204273 -1.4293563 11 3200580360288 1 0
2.2368104 -72.52029 0.4216892 32 3200580360288 1 0
-4.3398867 -64.62936 -0.37647253 14 3200580362592 1 0
-0.30257472 -16.64097 -1.7928046 2 3200580362592 1 0
-1.9504607 -16.72946 -1.5722419 1 3200580364896 1 0
-1.228171 -67.010605 1.5595609 35 3200580364896 1 0
-8.082914 -69.24109 0.81156975 57 3200580367200 1 0
-0.3030603 -16.405134 -1.1473545 103 3200580367200 1 1
-1.1294181 -16.710161 -1.3672487 4 3200580369504 1 1
-4.729877 -69.82933 1.2216685 64 3200580371808 1 0
2.2601235 -74.68617 2.1745756 69 3200580369504 1 0
0.87418586 -29.02726 -1.8611645 10 3200580371808 1 0
-1.9649202 -16.768663 -0.9832471 1 3200580374112 1 1
-1.2677709 -67.0424 3.9050817 28 3200580374112 1 0
-4.75023 -69.82855 2.8514636 58 3200580376416 1 0
-0.5926374 -31.100624 -1.4489791 43 3200580376416 1 0
-1.1530452 -16.913477 -0.8884552 2 3200580378720 1 1
0 0 0 1 3200580378720 1 0
0 0 0 8 3200580381024 1 0
0.9031796 -30.581285 -1.246457 36 3200580381024 1 0
-1.9871025 -16.87304 -0.59329146 2 3200580383328 1 1
0 0 0 9 3200580383328 1 0
0 0 0 29 3200580385632 1 0
0 0 0 8 3200580385632 1 0
-0.2609756 -3.732125 -1.7445682 1 3200580406368 1 0
0.8570638 -30.683357 -0.5357889 4 3200580406368 1 0
0 0 0 28 3200580408672 1 0
-0.13118416 -6.219463 -1.7414569 5 3200580408672 1 0
-0.6236723 -8.881801 -1.780745 4 3200580410976 1 0
-1.4278082 -67.228836 0 18 3200580410976 1 0
-9.470209 -79.12589 -0.9277478 14 3200580413280 1 0
-0.2302574 -10.767973 -1.6756293 22 3200580413280 1 0
-0.7895609 -11.197626 -1.4288512 12 3200580415584 1 0
1.954783 -71.47207 0.41555184 62 3200580415584 1 0
-4.549953 -64.39436 -0.3751939 14 3200580417888 1 0
-2.022146 -16.83327 -1.5826516 1 3200580420192 1 0
-0.36083305 -16.647764 -1.7936614 2 3200580417888 1 0
-1.4393928 -65.96644 1.5353673 17 3200580420192 1 0
-8.33698 -69.315704 0.81278044 38 3200580422496 1 0
-0.36032304 -16.403976 -1.1473545 53 3200580422496 1 1
-1.1795415 -16.590792 -1.3578104 6 3200580424800 1 1
1.9898844 -74.33788 2.1642194 68 3200580424800 1 0
-4.9710402 -69.7765 1.2210401 64 3200580427104 1 0
0.774025 -29.07403 -1.8639785 10 3200580427104 1 0
-2.0263133 -16.785488 -0.98464245 1 3200580429408 1 1
-1.5157366 -67.660355 3.9413605 28 3200580429408 1 0
-4.9913816 -69.775665 2.8499982 58 3200580431712 1 0
-0.70182574 -31.12633 -1.4502821 43 3200580431712 1 0
-1.2106493 -16.889427 -0.8874085 2 3200580434016 1 1
0 0 0 1 3200580434016 1 0
0 0 0 8 3200580436320 1 0
0.79767394 -30.632196 -1.2484108 36 3200580436320 1 0
-2.0219178 -16.667576 -0.5863115 2 3200580438624 1 1
0 0 0 9 3200580438624 1 0
0 0 0 29 3200580440928 1 0
0 0 0 1 3200580440928 1 0
-0.2745326 -3.7384224 -1.7479491 1 3200580461664 1 0
1.699048 -69.520645 -1.2138498 19 3200580461664 1 0
-2.023547 -27.49797 -0.8024333 56 3200580463968 1 1
-0.15293856 -6.218966 -1.7414569 5 3200580463968 1 0
-0.6548009 -8.8795595 -1.780745 4 3200580466272 1 0
-1.7414223 -70.37446 0 61 3200580466272 1 0
-9.8552265 -79.9615 -0.93794537 28 3200580468576 1 0
-0.26837328 -10.778952 -1.6774739 22 3200580468576 1 0
-0.82926184 -11.198735 -1.4293563 10 3200580470880 1 0
1.7010163 -71.38653 0.41501713 30 3200580470880 1 0
-3.1943655 -43.048916 -0.25088868 6 3200580473184 1 0
-0.4196479 -16.650364 -1.7940898 2 3200580473184 1 0
-2.0874949 -16.873447 -1.5871129 1 3200580475488 1 0
-1.6967542 -66.916374 1.5576068 35 3200580475488 1 0
-10.023059 -80.91606 0.9492139 28 3200580477792 1 0
0 0 0 10 3200580477792 1 0
-1.2348498 -16.538794 -1.3539048 1 3200580480096 1 1
1.72012 -74.08865 2.1567721 100 3200580480096 1 0
-5.217649 -69.738434 1.2206911 64 3200580482400 1 0
0.6712743 -29.104534 -1.8657694 10 3200580482400 1 0
-2.0890696 -16.801937 -0.9860378 1 3200580484704 1 1
-1.8218207 -70.15744 4.087173 28 3200580484704 1 0
-5.238997 -69.73747 2.849184 87 3200580487008 1 0
-0.8140057 -31.163567 -1.4521433 39 3200580487008 1 0
-1.2701709 -16.87304 -0.88678044 2 3200580489312 1 1
0 0 0 1 3200580489312 1 0
0 0 0 8 3200580491616 1 0
0.6889232 -30.682806 -1.2503648 36 3200580491616 1 0
-2.1140006 -16.918041 -0.59538543 2 3200580493920 1 1
0 0 0 9 3200580493920 1 0
0 0 0 29 3200580496224 1 0
-1.8177915 -68.0013 -1.5829171 38 3200580496224 1 0
-0.28711772 -3.722933 -1.7411872 1 3200580516960 1 0
0.93242085 -44.887478 -0.7836829 22 3200580516960 1 0
-2.1288464 -27.554184 -0.80429506 13 3200580519264 1 1
-0.17564075 -6.218366 -1.7414569 5 3200580519264 1 0
-0.6870835 -8.87712 -1.780745 5 3200580521568 1 0
-1.9941213 -70.25571 0 20 3200580521568 1 0
-5.1693234 -40.726463 -0.4779363 4 3200580523872 1 0
-0.30740803 -10.777909 -1.6774739 20 3200580523872 1 0
-0.8705722 -11.20754 -1.4308715 11 3200580526176 1 0
1.4457777 -71.50418 0.41566807 31 3200580526176 1 0
-5.0486307 -64.87876 -0.3782161 15 3200580528480 1 0
-0.47991893 -16.664652 -1.7958033 2 3200580528480 1 0
-2.0344822 -70.30753 1.6367015 20 3200580530784 1 0
-2.1458406 -16.850067 -1.5856258 1 3200580530784 1 0
-10.310318 -80.871895 0.9491208 85 3200580533088 1 0
-0.4766304 -16.393024 -1.1467965 5 3200580533088 1 1
-1.2938464 -16.538282 -1.3542303 1 3200580535392 1 1
1.450027 -73.73052 2.1461833 99 3200580535392 1 0
-5.4631543 -69.707596 1.2204816 64 3200580537696 1 0
0.5687961 -29.12668 -1.8670485 10 3200580537696 1 0
-2.1451552 -16.770716 -0.98464245 1 3200580540000 1 1
-2.0692163 -70.16656 4.0881033 28 3200580540000 1 0
-5.481841 -69.69876 2.8483698 87 3200580542304 1 0
-1.3133733 -16.669394 -0.87631327 2 3200580544608 1 1
-0.9247734 -31.212444 -1.4545629 43 3200580542304 1 0
0 0 0 1 3200580544608 1 0
0 0 0 8 3200580546912 1 0
0.5830964 -30.728971 -1.2521559 36 3200580546912 1 0
-2.1521752 -16.752024 -0.5898015 2 3200580549216 1 1
0 0 0 9 3200580549216 1 0
-2.0223846 -67.00734 -1.5599332 18 3200580551520 1 0
-0.29946184 -3.7219605 -1.7411872 3 3200580572256 1 0
0.5372428 -30.778622 -0.53732467 38 3200580572256 1 0
-3.4542892 -42.854805 -1.251242 9 3200580574560 1 0
-0.19642739 -6.221598 -1.7425351 6 3200580574560 1 0
0 0 0 29 3200580551520 1 0
-0.7163307 -8.8708725 -1.7799605 5 3200580576864 1 0
-2.2282352 -70.25267 0 41 3200580576864 1 0
-9.959208 -76.42056 -0.89720154 13 3200580579168 1 0
-0.34363404 -10.784724 -1.6787038 22 3200580579168 1 0
-0.9077384 -11.200609 -1.4303664 11 3200580581472 1 0
1.2403816 -73.51229 0.42731515 33 3200580581472 1 0
-5.1770926 -63.7651 -0.37182298 14 3200580583776 1 0
-0.53616756 -16.674873 -1.7970885 2 3200580583776 1 0
-2.2060554 -16.870405 -1.5882282 1 3200580586080 1 0
-2.1297128 -65.93575 1.5350881 17 3200580586080 1 0
-10.597613 -80.95174 0.95047116 57 3200580588384 1 0
-0.5318234 -16.391327 -1.1467965 3 3200580588384 1 1
-1.3493197 -16.529848 -1.3539048 1 3200580590688 1 1
1.1971921 -73.48713 2.1389687 97 3200580590688 1 0
-5.6962366 -69.65684 1.2199233 64 3200580592992 1 0
0.4705567 -29.144402 -1.8680718 6 3200580592992 1 0
-2.2082171 -16.81086 -0.98743314 1 3200580595296 1 1
-2.3062003 -70.13519 4.086708 28 3200580595296 1 0
-5.716226 -69.651855 2.84723 87 3200580597600 1 0
-1.0319562 -31.245064 -1.456238 43 3200580597600 1 0
-1.3661705 -16.617054 -0.8738011 2 3200580599904 1 1
0 0 0 1 3200580599904 1 0
0 0 0 8 3200580602208 1 0
0.47872236 -30.758755 -1.2532958 31 3200580602208 1 0
-2.2486403 -17.041811 -0.60027134 2 3200580604512 1 1
0 0 0 9 3200580604512 1 0
0 0 0 29 3200580606816 1 0
-2.2473192 -66.864136 -1.5567694 54 3200580606816 1 0
-0.31184536 -3.7136674 -1.7378063 1 3200580627552 1 0
0.43024886 -30.812302 -0.53788316 8 3200580627552 1 0
-2.6630955 -31.658737 -0.92461354 5 3200580629856 1 0
-0.21814363 -6.220875 -1.7425351 6 3200580629856 1 0
-0.74795014 -8.876136 -1.7815294 5 3200580632160 1 0
-2.3502834 -66.746635 0 17 3200580632160 1 0
-10.2211275 -76.349655 -0.89678246 13 3200580634464 1 0
-0.381557 -10.791359 -1.6799335 21 3200580634464 1 0
-0.9474989 -11.20528 -1.4313766 9 3200580636768 1 0
0.97911185 -73.16821 0.42529258 66 3200580636768 1 0
-5.370609 -63.403873 -0.3698237 13 3200580639072 1 0
-0.5942288 -16.668926 -1.7966601 2 3200580639072 1 0
-2.2633402 -16.850761 -1.5871129 1 3200580641376 1 0
-2.3717315 -66.25962 1.5428115 34 3200580641376 1 0
-10.880123 -80.914246 0.95047116 85 3200580643680 1 0
-0.5891799 -16.393358 -1.1470754 2 3200580643680 1 1
-1.4073496 -16.529009 -1.3542303 1 3200580645984 1 1
0.9359078 -73.11905 2.1281471 96 3200580645984 1 0
-5.93799 -69.62059 1.219644 64 3200580648288 1 0
0.21693861 -17.143454 -1.0987905 3 3200580648288 1 1
-2.2834349 -16.925728 -0.9946424 1 3200580650592 1 1
-2.5501328 -70.102776 4.085313 28 3200580650592 1 0
-5.958299 -69.61953 2.8467414 87 3200580652896 1 0
-1.1429113 -31.29318 -1.4586576 24 3200580652896 1 0
-1.4306493 -16.687801 -0.87777865 2 3200580655200 1 1
0 0 0 1 3200580655200 1 0
0 0 0 8 3200580657504 1 0
0.37178558 -30.796206 -1.2547612 36 3200580657504 1 0
-2.281275 -16.835789 -0.59329146 2 3200580659808 1 1
0 0 0 9 3200580659808 1 0
0 0 0 29 3200580662112 1 0
-2.4669151 -66.48424 -1.5481155 17 3200580662112 1 0
-0.3254385 -3.719779 -1.7411872 1 3200580682296 1 0
0.3286802 -31.385498 -0.5478659 8 3200580682296 1 0
-2.785457 -31.784672 -0.92856985 5 3200580684600 1 0
-0.23970878 -6.216226 -1.7414569 6 3200580684600 1 0
-0.77961504 -8.881285 -1.7830985 4 3200580686904 1 0
-2.5680964 -66.34631 0 17 3200580686904 1 0
0 0 0 17 3200580689208 1 0
-0.41968387 -10.801809 -1.6817783 21 3200580689208 1 0
0.720576 -72.85521 0.42345604 65 3200580691512 1 0
-0.9866069 -11.201904 -1.4313766 11 3200580691512 1 0
-5.5697513 -63.13372 -0.3683591 13 3200580693816 1 0
-0.65318835 -16.686619 -1.798802 2 3200580693816 1 0
-2.3243222 -16.85854 -1.5886 1 3200580696120 1 0
-2.5909176 -65.94326 1.5356464 17 3200580696120 1 0
-11.15047 -80.788605 0.94944674 85 3200580698424 1 0
-0.64655703 -16.39519 -1.1473545 2 3200580698424 1 1
-1.4682069 -16.559736 -1.3571594 1 3200580700728 1 1
0.6784359 -72.88198 2.1211653 94 3200580700728 1 0
-6.179206 -69.57951 1.2192949 64 3200580703032 1 0
0.1550472 -16.920574 -1.0844641 7 3200580703032 1 1
-2.3189518 -16.747568 -0.98464245 1 3200580705336 1 1
-2.7945035 -70.085464 4.0848475 28 3200580705336 1 0
-6.199507 -69.57841 2.8459275 58 3200580707640 1 0
-0.7031593 -17.570868 -0.8191339 3 3200580707640 1 1
-1.4782392 -16.563345 -0.87149835 2 3200580709944 1 1
0 0 0 1 3200580709944 1 0
0 0 0 8 3200580712248 1 0
0.26455885 -30.829288 -1.2560638 40 3200580712248 1 0
-2.3499398 -16.898994 -0.5958042 2 3200580714552 1 1
0 0 0 9 3200580714552 1 0
0 0 0 29 3200580716856 1 0
0 0 0 11 3200580716856 1 0
-0.33809242 -3.7150102 -1.7394967 2 3200580737592 1 0
0.22238907 -31.854372 -0.5560337 9 3200580737592 1 0
-1.6155173 -17.722986 -0.5179279 2 3200580739896 1 1
-0.26156786 -6.2192 -1.7425351 6 3200580739896 1 0
-0.80989856 -8.870697 -1.7815294 5 3200580742200 1 0
-2.7936008 -66.19308 0 17 3200580742200 1 0
0 0 0 28 3200580744504 1 0
-0.45788836 -10.812125 -1.6836231 21 3200580744504 1 0
0.46428844 -72.549286 0.42166597 65 3200580746808 1 0
-1.0253409 -11.194441 -1.4308715 11 3200580746808 1 0
-0.7075347 -16.59285 -1.7889491 2 3200580749112 1 0
-2.4010026 -16.976513 -1.6004969 1 3200580751416 1 0
-2.8533952 -66.68892 1.5532334 17 3200580751416 1 0
-5.990711 -65.300674 -0.38112205 15 3200580749112 1 0
-11.431285 -80.74127 0.94935364 57 3200580753720 1 0
-0.7041253 -16.400806 -1.1479125 2 3200580753720 1 1
-1.5260022 -16.55451 -1.3571594 1 3200580756024 1 1
0.42216527 -72.56405 2.1118565 31 3200580756024 1 0
-6.418737 -69.52168 1.2186667 64 3200580758328 1 0
0.095439 -16.82521 -1.0783241 5 3200580758328 1 1
-2.3858202 -16.798676 -0.9881308 1 3200580760632 1 1
-3.0334206 -69.94363 4.077173 28 3200580760632 1 0
-6.4382887 -69.512566 2.8441362 58 3200580762936 1 0
-0.7641413 -17.560322 -0.81876165 5 3200580762936 1 1
-1.5463784 -16.669453 -0.87736 2 3200580765240 1 1
0 0 0 1 3200580765240 1 0
0 0 0 8 3200580767544 1 0
0.15712605 -30.865993 -1.2575293 37 3200580767544 1 0
-2.4326193 -17.056904 -0.60166734 2 3200580769848 1 1
0 0 0 9 3200580769848 1 0
0 0 0 29 3200580772152 1 0
0 0 0 3 3200580772152 1 0
-0.35139933 -3.7174165 -1.7411872 2 3200580792888 1 0
0 0 0 87 3200580792888 1 0
-1.6592833 -17.526176 -0.5123425 2 3200580795192 1 1
-0.2834506 -6.222097 -1.7436135 6 3200580795192 1 0
-0.84122837 -8.871721 -1.782314 5 3200580797496 1 0
-3.0096662 -65.85526 0 17 3200580797496 1 0
-5.7821255 -40.001526 -0.4705326 13 3200580799800 1 0
-0.495989 -10.818357 -1.6848528 23 3200580799800 1 0
-1.0647862 -11.194744 -1.4313766 11 3200580802104 1 0
0.21037814 -72.32247 0.42034084 64 3200580802104 1 0
-6.6002154 -69.285164 -0.4045092 19 3200580804408 1 0
-0.7592181 -16.455206 -1.7743839 3 3200580804408 1 0
-2.4459598 -16.869492 -1.5912025 1 3200580806712 1 0
-3.0978136 -66.930214 1.5590956 35 3200580806712 1 0
-11.7245455 -80.780045 0.9502849 57 3200580809016 1 0
-0.7678479 -16.537758 -1.1576785 3 3200580809016 1 1
-1.5925144 -16.640362 -1.3646449 1 3200580811320 1 1
0.15522656 -66.703575 1.9412695 21 3200580811320 1 0
-6.6606107 -69.49089 1.218527 64 3200580813624 1 0
0.03666393 -16.805483 -1.077045 1 3200580813624 1 1
-2.435239 -16.727018 -0.9844099 1 3200580815928 1 1
-3.277177 -69.92464 4.0767083 28 3200580815928 1 0
-6.681276 -69.493645 2.844299 87 3200580818232 1 0
-0.8308753 -17.673294 -0.82415926 3 3200580818232 1 1
-1.5834991 -16.445267 -0.86584604 2 3200580820536 1 1
0 0 0 1 3200580820536 1 0
0 0 0 8 3200580822840 1 0
0.049440213 -30.902325 -1.2589948 37 3200580822840 1 0
-2.4938788 -17.060175 -0.6020861 2 3200580825144 1 1
0 0 0 9 3200580825144 1 0
-2.1000402 -44.122093 -1.0278586 30 3200580827448 1 0
-0.36401963 -3.7125592 -1.7394967 3 3200580848184 1 0
0 0 0 29 3200580827448 1 0
-1.7134175 -17.448652 -0.51024795 2 3200580850488 1 1
0 0 0 7 3200580848184 1 0
-0.30516806 -6.22107 -1.7436135 5 3200580850488 1 0
-0.8721913 -8.868731 -1.782314 4 3200580852792 1 0
-3.2346117 -65.74448 0 16 3200580852792 1 0
-4.7549577 -32.103577 -0.377823 6 3200580855096 1 0
-0.5339439 -10.820508 -1.6854677 25 3200580855096 1 0
-1.1042463 -11.194907 -1.4318817 10 3200580857400 1 0
-0.041789457 -71.83077 0.4174814 31 3200580857400 1 0
-6.8211846 -69.05073 -0.40327707 19 3200580859704 1 0
-0.8158642 -16.436565 -1.7726704 3 3200580859704 1 0
-2.520632 -16.967216 -1.6012404 1 3200580862008 1 0
-3.3175066 -66.63941 1.552582 35 3200580862008 1 0
-12.012332 -80.77819 0.9507505 57 3200580864312 1 0
-0.8325351 -16.674461 -1.1674443 6 3200580864312 1 1
-1.6521649 -16.65057 -1.3659468 1 3200580866616 1 1
-0.083712414 -71.94549 2.0938203 30 3200580866616 1 0
-6.9019523 -69.45528 1.2183176 64 3200580868920 1 0
0 0 0 46 3200580868920 1 0
-2.5006816 -16.765812 -0.98720056 1 3200580871224 1 1
-3.5198336 -69.88486 4.0750804 28 3200580871224 1 0
-6.9218316 -69.45002 2.8434849 87 3200580873528 1 0
-0.8992134 -17.801975 -0.83030134 3 3200580873528 1 1
-1.6440679 -16.471437 -0.8675208 2 3200580875832 1 1
0 0 0 1 3200580875832 1 0
0 0 0 8 3200580878136 1 0
-0.058497343 -30.938278 -1.2604603 37 3200580878136 1 0
-2.5457184 -16.99997 -0.60027134 2 3200580880440 1 1
0 0 0 9 3200580880440 1 0
0 0 0 29 3200580882744 1 0
-3.3516788 -65.59665 -1.5283883 17 3200580882744 1 0
-0.377343 -3.7148726 -1.7411872 1 3200580903480 1 0
-0.24816148 -71.092735 -1.2409359 21 3200580903480 1 0
-1.7606826 -17.307306 -0.5062916 2 3200580905784 1 1
-0.3271292 -6.2238107 -1.7446917 5 3200580905784 1 0
-0.90406775 -8.873424 -1.7838829 3 3200580908088 1 0
-3.449247 -65.43315 0 16 3200580908088 1 0
-4.8808894 -32.173676 -0.37884742 13 3200580910392 1 0
-1.144046 -11.194899 -1.4323868 10 3200580912696 1 0
-0.28870878 -70.39022 0.40911222 58 3200580912696 1 0
-0.57236457 -10.82646 -1.6866976 26 3200580910392 1 0
-7.053689 -68.91881 -0.40264937 18 3200580915000 1 0
-0.87383115 -16.433586 -1.7726704 3 3200580915000 1 0
-2.5674016 -16.87158 -1.5930613 1 3200580917304 1 0
-3.5834596 -67.1983 1.5658885 18 3200580917304 1 0
-0.8917965 -16.675392 -1.1677234 10 3200580919608 1 1
-12.301951 -80.758865 0.95102996 57 3200580919608 1 0
-1.7132833 -16.66443 -1.3675741 1 3200580921912 1 1
-0.32202023 -68.334305 1.9887452 23 3200580921912 1 0
-7.1468506 -69.4104 1.2179686 64 3200580924216 1 0
-0.08141074 -16.73347 -1.07244 15 3200580924216 1 1
-2.5604086 -16.756794 -0.98720056 1 3200580926520 1 1
-3.7684069 -69.86389 4.074615 28 3200580926520 1 0
-7.1673055 -69.401 2.842508 58 3200580928824 1 0
-0.94248515 -17.423607 -0.81280565 1 3200580928824 1 1
-1.7255933 -16.68398 -0.8790347 2 3200580931128 1 1
0 0 0 1 3200580931128 1 0
0 0 0 8 3200580933432 1 0
-0.16961353 -30.97384 -1.2619257 37 3200580933432 1 0
-2.6182919 -17.06579 -0.6029237 2 3200580935736 1 1
0 0 0 9 3200580935736 1 0
0 0 0 29 3200580938040 1 0
-3.6279795 -66.31886 -1.5455099 17 3200580938040 1 0
-0.39095616 -3.7134647 -1.7411872 2 3200580958776 1 0
-1.817985 -17.245096 -0.5046626 2 3200580961080 1 1
-0.3496317 -6.2187295 -1.7436135 6 3200580961080 1 0
-0.9363264 -8.870077 -1.7838829 4 3200580963384 1 0
-3.754671 -66.61828 0 17 3200580963384 1 0
-9.536536 -61.36317 -0.72295785 19 3200580965688 1 0
-0.507354 -70.89938 -1.2375851 20 3200580958776 1 0
-0.6122383 -10.836155 -1.6885424 23 3200580965688 1 0
-1.1856714 -11.202538 -1.4339019 10 3200580967992 1 0
-0.543499 -70.504715 0.4097864 29 3200580967992 1 0
-7.309663 -68.97257 -0.40311432 19 3200580970296 1 0
-2.6320431 -16.889832 -1.5956638 1 3200580972600 1 0
-0.9342151 -16.454165 -1.7752407 3 3200580970296 1 0
-3.985429 -70.02369 1.6320488 20 3200580972600 1 0
-12.593962 -80.74218 0.9513559 57 3200580974904 1 0
-0.957121 -16.775688 -1.174978 8 3200580974904 1 1
-1.7724117 -16.658247 -1.3675741 1 3200580977208 1 1
-0.5500906 -66.58553 1.937895 20 3200580977208 1 0
-7.3912745 -69.376755 1.2178289 64 3200580979512 1 0
-0.1395117 -16.609337 -1.0645093 4 3200580979512 1 1
-2.6428201 -16.897598 -0.9960377 1 3200580981816 1 1
-4.0133696 -69.83425 4.0736847 28 3200580981816 1 0
-7.4088273 -69.35956 2.8418567 58 3200580984120 1 0
-0.9922921 -17.224733 -0.80368555 1 3200580984120 1 1
-1.7838207 -16.677856 -0.8790347 2 3200580986424 1 1
0 0 0 1 3200580986424 1 0
0 0 0 8 3200580988728 1 0
-0.27760288 -31.009031 -1.2633911 37 3200580988728 1 0
-2.650075 -16.88286 -0.5967814 2 3200580991032 1 1
0 0 0 9 3200580991032 1 0
0 0 0 29 3200580993336 1 0
-1.8294804 -31.454311 -0.73316115 4 3200580993336 1 0
-0.4028768 -3.7085438 -1.7394967 1 3200581014072 1 0
-0.73869276 -70.537384 -1.2313021 20 3200581014072 1 0
-1.8644774 -17.139587 -0.5017535 2 3200581016376 1 1
-0.370297 -6.217533 -1.7436135 5 3200581016376 1 0
-0.96501493 -8.859111 -1.782314 3 3200581018680 1 0
-3.964614 -66.405754 0 17 3200581018680 1 0
-9.744447 -61.350746 -0.72319067 19 3200581020984 1 0
-0.64911366 -10.845887 -1.690387 23 3200581020984 1 0
-1.2227088 -11.194564 -1.4333969 10 3200581023288 1 0
-0.7778457 -70.366516 0.408996 58 3200581023288 1 0
-7.5799904 -69.30554 -0.40520662 38 3200581025592 1 0
-0.9936696 -16.522398 -1.7829517 3 3200581025592 1 0
-2.6925328 -16.904493 -1.5978944 1 3200581027896 1 0
-4.218744 -69.977974 1.6313044 20 3200581027896 1 0
-12.872048 -80.738815 0.9518215 57 3200581030200 1 0
-1.0116742 -16.740505 -1.1727458 3 3200581030200 1 1
-1.8307873 -16.671986 -1.3692013 1 3200581032504 1 1
-0.77853507 -66.90714 1.9473203 21 3200581032504 1 0
-0.19426574 -16.489025 -1.0568343 3 3200581034808 1 1
-7.624086 -69.335464 1.2175497 64 3200581034808 1 0
-2.7000682 -16.888546 -0.9960377 1 3200581037112 1 1
-4.2415123 -69.68074 4.0655456 28 3200581037112 1 0
-7.6430235 -69.32208 2.8413682 87 3200581039416 1 0
-1.0485934 -17.18537 -0.8020105 1 3200581039416 1 1
-1.85153 -16.770948 -0.88426834 2 3200581041720 1 1
0 0 0 1 3200581041720 1 0
0 0 0 8 3200581044024 1 0
-0.38385656 -31.047869 -1.2650194 37 3200581044024 1 0
-2.7134645 -16.909227 -0.5980378 2 3200581046328 1 1
0 0 0 29 3200581048632 1 0
-1.937207 -31.44786 -0.73316115 4 3200581048632 1 0
0 0 0 9 3200581046328 1 0
-0.41622368 -3.7107177 -1.7411872 1 3200581069368 1 0
-0.9813918 -70.28244 -1.2269042 20 3200581069368 1 0
-0.39199802 -6.2162027 -1.7436135 6 3200581071672 1 0
-0.9972482 -8.867382 -1.7846674 6 3200581073976 1 0
-4.0853667 -64.63502 0 16 3200581073976 1 0
-9.969441 -61.383476 -0.7239822 19 3200581076280 1 0
-1.9184929 -17.081322 -0.5002408 2 3200581071672 1 1
-0.6872188 -10.8475 -1.691002 26 3200581076280 1 0
-1.2640007 -11.209943 -1.4359223 11 3200581078584 1 0
-1.0202081 -70.1394 0.40769413 58 3200581078584 1 0
0 0 0 16 3200581080888 1 0
-1.0634625 -16.70934 -1.8035142 2 3200581080888 1 0
-2.7508838 -16.89106 -1.5975226 1 3200581083192 1 0
-4.45484 -69.83511 1.6283268 40 3200581083192 1 0
-13.157019 -80.71313 0.9520543 57 3200581085496 1 0
-1.0527902 -16.466087 -1.1537721 2 3200581085496 1 1
-1.8903193 -16.677378 -1.3701777 1 3200581087800 1 1
-1.016918 -67.22385 1.9566293 22 3200581087800 1 0
-7.8638105 -69.28856 1.2172006 64 3200581090104 1 0
-0.25115144 -16.444342 -1.0540203 3 3200581090104 1 1
-2.7557828 -16.859312 -0.99487495 1 3200581092408 1 1
-4.4847174 -69.66551 4.0655456 28 3200581092408 1 0
-7.882245 -69.27115 2.8403912 58 3200581094712 1 0
0 0 0 8 3200581097016 1 0
0 0 0 1 3200581097016 1 0
0 0 0 8 3200581099320 1 0
-0.49280173 -31.082306 -1.2664849 37 3200581099320 1 0
-1.1044588 -17.117807 -0.79903245 1 3200581094712 1 1
-2.799006 -17.06139 -0.6037613 2 3200581101624 1 1
0 0 0 9 3200581101624 1 0
0 0 0 29 3200581103928 1 0
-2.6920536 -41.349243 -0.9642106 13 3200581103928 1 0
-0.4300073 -3.7164445 -1.7445682 1 3200581124664 1 0
-0.792079 -45.378174 -0.7921996 15 3200581124664 1 0
-1.9785663 -17.078493 -0.5003572 2 3200581126968 1 1
-0.41395006 -6.21864 -1.7446917 6 3200581126968 1 0
-1.0277431 -8.85995 -1.7838829 5 3200581129272 1 0
-4.408144 -66.077126 0 17 3200581129272 1 0
-10.18234 -61.34041 -0.7238891 19 3200581131576 1 0
-0.72587043 -10.856865 -1.6928467 24 3200581131576 1 0
-1.3035814 -11.209404 -1.4364274 10 3200581133880 1 0
-1.2113655 -67.15994 0.39039788 24 3200581133880 1 0
0 0 0 9 3200581136184 1 0
-1.1228483 -16.721397 -1.8052279 2 3200581136184 1 0
-2.8235598 -16.963856 -1.60533 1 3200581138488 1 0
-4.7020736 -69.871 1.6295364 61 3200581138488 1 0
-13.443281 -80.69433 0.9523803 57 3200581140792 1 0
-1.1113352 -16.478237 -1.1548882 3 3200581140792 1 1
-1.9485227 -16.670677 -1.3701777 1 3200581143096 1 1
-1.2211243 -65.58486 1.9090372 38 3200581143096 1 0
-8.110273 -69.30041 1.2178987 100 3200581145400 1 0
-0.30952495 -16.495249 -1.057346 8 3200581145400 1 1
-2.8225112 -16.896854 -0.9976656 1 3200581147704 1 1
-4.7267866 -69.6335 4.0646152 28 3200581147704 1 0
-8.121204 -69.2194 2.8394141 87 3200581150008 1 0
-1.154984 -16.978308 -0.7927042 1 3200581150008 1 1
0 0 0 8 3200581152312 1 0
0 0 0 1 3200581152312 1 0
0 0 0 8 3200581154616 1 0
-0.6019147 -31.112364 -1.2677876 37 3200581154616 1 0
-2.842021 -16.952951 -0.60027134 2 3200581156920 1 1
0 0 0 9 3200581156920 1 0
0 0 0 29 3200581159224 1 0
0 0 0 29 3200581159224 1 0
-0.44254825 -3.711321 -1.7428777 2 3200581179960 1 0
-1.4398652 -68.73845 -1.2000973 18 3200581179960 1 0
-2.0353253 -17.04766 -0.499659 2 3200581182264 1 1
-0.4359239 -6.2209992 -1.7457701 6 3200581182264 1 0
-1.0586638 -8.856309 -1.7838829 4 3200581184568 1 0
-4.622799 -65.83389 0 17 3200581184568 1 0
-10.412445 -61.399136 -0.72500664 19 3200581186872 1 0
-0.7643184 -10.862151 -1.6940765 24 3200581186872 1 0
-1.3436458 -11.212665 -1.4374374 12 3200581189176 1 0
-1.5099307 -70.13456 0.40771738 58 3200581189176 1 0
-9.605208 -80.05648 -0.46862623 57 3200581191480 1 0
-1.18121 -16.717375 -1.8052279 2 3200581191480 1 0
-4.9431157 -69.81428 1.628606 61 3200581193784 1 0
-13.732927 -80.69423 0.9529391 57 3200581196088 1 0
-2.8860955 -16.973528 -1.6071888 1 3200581193784 1 0
-1.1691306 -16.478237 -1.1551672 1 3200581196088 1 1
-2.012899 -16.715229 -1.3744087 1 3200581198392 1 1
-1.4949505 -67.61084 1.9681492 22 3200581198392 1 0
-9.75532 -80.90961 1.4225107 6 3200581200696 1 0
-0.36683577 -16.482096 -1.0565785 16 3200581200696 1 1
-2.8767734 -16.859344 -0.9960377 1 3200581203000 1 1
-4.9695396 -69.612595 4.0643826 28 3200581203000 1 0
-8.362776 -69.19063 2.8394141 87 3200581205304 1 0
-1.2116765 -16.938303 -0.7910291 1 3200581205304 1 1
0 0 0 8 3200581207608 1 0
0 0 0 1 3200581207608 1 0
0 0 0 8 3200581209912 1 0
-0.7111522 -31.138042 -1.2689273 37 3200581209912 1 0
-2.924795 -17.080835 -0.60515726 2 3200581212216 1 1
0 0 0 9 3200581212216 1 0
0 0 0 29 3200581214520 1 0
-1.9942964 -27.652674 -0.6451334 100 3200581214520 1 1
-0.45594227 -3.713352 -1.7445682 2 3200581235256 1 0
-1.6834139 -68.880936 -1.2026802 19 3200581235256 1 0
-2.0909176 -17.008705 -0.49872813 2 3200581237560 1 1
-0.45763656 -6.21944 -1.7457701 6 3200581237560 1 0
-1.0895717 -8.85256 -1.7838829 5 3200581239864 1 0
-4.837868 -65.6179 0 16 3200581239864 1 0
-6.272281 -36.218407 -0.4279262 19 3200581242168 1 0
-0.8033945 -10.875184 -1.6965362 22 3200581242168 1 0
-1.383263 -11.211844 -1.4379425 13 3200581244472 1 0
-1.6888016 -67.49374 0.39239717 25 3200581244472 1 0
-9.894406 -80.10186 -0.46909118 85 3200581246776 1 0
-1.2401457 -16.721083 -1.8060846 2 3200581246776 1 0
-2.971898 -17.116386 -1.6216881 1 3200581249080 1 0
-5.1847086 -69.768684 1.6279546 60 3200581249080 1 0
-14.020682 -80.68127 0.9533582 57 3200581251384 1 0
-1.2281246 -16.493952 -1.1565623 1 3200581251384 1 1
-2.0697622 -16.696232 -1.3734323 1 3200581253688 1 1
-1.7080235 -66.709885 1.9420841 42 3200581253688 1 0
-15.585336 -125.57324 2.2087069 118 3200581255992 1 0
-0.42272276 -16.416866 -1.0524852 10 3200581255992 1 1
-2.9452016 -16.904276 -0.9992935 1 3200581258296 1 1
-5.2113094 -69.578896 4.0634522 28 3200581258296 1 0
-8.604245 -69.16102 2.8394141 87 3200581260600 1 0
-1.2675056 -16.89014 -0.78898174 1 3200581260600 1 1
-2.0978518 -16.84256 -0.8895019 2 3200581262904 1 1
0 0 0 1 3200581262904 1 0
0 0 0 8 3200581265208 1 0
-0.8207868 -31.171328 -1.2703928 37 3200581265208 1 0
-2.9837117 -17.066586 -0.60501766 2 3200581267512 1 1
0 0 0 9 3200581267512 1 0
0 0 0 29 3200581269816 1 0
-2.0826676 -27.537882 -0.642621 98 3200581269816 1 1
-0.46890152 -3.7117379 -1.7445682 1 3200581290552 1 0
-0.878616 -31.454939 -0.5492621 4 3200581290552 1 0
-2.1527848 -17.021137 -0.49930993 2 3200581292856 1 1
-0.47963977 -6.221645 -1.7468483 5 3200581292856 1 0
-1.1209589 -8.852593 -1.7846674 3 3200581295160 1 0
-5.069044 -65.62853 0 16 3200581295160 1 0
-6.3875284 -36.133274 -0.42718118 11 3200581297464 1 0
-0.84257084 -10.888076 -1.6989958 21 3200581297464 1 0
-1.4248892 -11.226629 -1.440468 13 3200581299768 1 0
-2.004424 -70.29424 0.408717 58 3200581299768 1 0
-10.180004 -80.11445 -0.46937016 28 3200581302072 1 0
-1.2988136 -16.720617 -1.8065131 2 3200581302072 1 0
-3.0045218 -16.952967 -1.6071888 1 3200581304376 1 0
-5.425733 -69.71826 1.6272101 60 3200581304376 1 0
-12.19678 -68.76193 0.81301326 19 3200581306680 1 0
-1.2897241 -16.54128 -1.1601896 3 3200581306680 1 1
-2.1376114 -16.764046 -1.379616 1 3200581308984 1 1
-1.9468049 -66.90734 1.9480186 21 3200581308984 1 0
-16.02408 -125.52204 2.2087765 94 3200581311288 1 0
0 0 0 9 3200581311288 1 0
-5.453217 -69.54833 4.0627546 28 3200581313592 1 0
-8.8425665 -69.10677 2.8384373 87 3200581315896 1 0
-1.3295847 -16.925447 -0.79084295 1 3200581315896 1 1
-2.1789632 -17.009468 -0.89871305 2 3200581318200 1 1
0 0 0 1 3200581318200 1 0
0 0 0 8 3200581320504 1 0
-0.93113893 -31.220207 -1.2725096 37 3200581320504 1 0
-3.025864 -17.01577 -1.0065027 1 3200581313592 1 1
-3.0650349 -17.178062 -0.6093452 2 3200581322808 1 1
0 0 0 9 3200581322808 1 0
0 0 0 29 3200581325112 1 0
0 0 0 4 3200581325112 1 0
-0.48027495 -3.7029722 -1.7411872 1 3200581346296 1 0
-2.0828948 -66.64931 -1.1639359 34 3200581346296 1 0
-2.2087023 -17.00994 -0.49919358 2 3200581348600 1 1
-0.5002688 -6.2200203 -1.7468483 6 3200581348600 1 0
-1.1508147 -8.852717 -1.7854518 4 3200581350904 1 0
-6.488873 -36.00955 -0.42597052 11 3200581353208 1 0
-5.256771 -65.24056 0 16 3200581350904 1 0
-0.8789904 -10.889161 -1.6996107 22 3200581353208 1 0
-1.4641609 -11.237581 -1.4424882 12 3200581355512 1 0
-2.237008 -70.27122 0.40862402 29 3200581355512 1 0
-10.447169 -80.09215 -0.4694399 57 3200581357816 1 0
-1.3552175 -16.72811 -1.8077981 2 3200581357816 1 0
-3.0727596 -17.009537 -1.613509 1 3200581360120 1 0
-5.6556034 -69.683945 1.626838 60 3200581360120 1 0
-12.406946 -68.62271 0.8118491 19 3200581362424 1 0
-1.3442465 -16.532936 -1.1599107 1 3200581362424 1 1
-2.196813 -16.784536 -1.3818942 1 3200581364728 1 1
-2.1682782 -66.88853 1.9476694 21 3200581364728 1 0
0 0 0 8 3200581367032 1 0
-0.53510773 -16.433558 -1.0537645 2 3200581367032 1 1
-3.0601964 -16.883837 -0.9992935 1 3200581369336 1 1
-5.6847935 -69.54181 4.0634522 28 3200581369336 1 0
-9.069602 -69.06122 2.837786 58 3200581371640 1 0
-1.366789 -16.68997 -0.7800478 1 3200581371640 1 1
-2.2254634 -16.9269 -0.8947355 2 3200581373944 1 1
0 0 0 1 3200581373944 1 0
0 0 0 8 3200581376248 1 0
-1.0355905 -31.24491 -1.2736493 37 3200581376248 1 0
-3.1284196 -17.203203 -0.6106016 2 3200581378552 1 1
0 0 0 29 3200581380856 1 0
-3.5286882 -42.783104 -0.99891925 7 3200581380856 1 0
-0.4931978 -3.7012732 -1.7411872 2 3200581401592 1 0
-2.2952552 -66.05807 -1.1537437 33 3200581401592 1 0
0 0 0 9 3200581378552 1 0
-2.2633064 -16.966457 -0.4981463 2 3200581403896 1 1
-0.5219777 -6.218236 -1.7468483 7 3200581403896 1 0
-1.1811903 -8.844758 -1.7846674 5 3200581406200 1 0
-5.4844713 -65.22181 0 16 3200581406200 1 0
-6.631884 -36.08109 -0.42708805 11 3200581408504 1 0
-0.9173271 -10.889965 -1.7002256 25 3200581408504 1 0
-1.505484 -11.248134 -1.4445084 14 3200581410808 1 0
-2.4817219 -70.24699 0.40853104 58 3200581410808 1 0
-10.805299 -80.64194 -0.47288054 85 3200581413112 1 0
-1.4142711 -16.731203 -1.8086549 2 3200581413112 1 0
-3.1364453 -17.022207 -1.6157397 5 3200581415416 1 0
-5.8964496 -69.63589 1.6261866 60 3200581415416 1 0
-12.647859 -68.58685 0.8119423 19 3200581417720 1 0
-1.4002628 -16.508265 -1.1585156 1 3200581417720 1 1
-2.254326 -16.768862 -1.3812433 1 3200581420024 1 1
-2.5178337 -70.1131 2.0418065 27 3200581420024 1 0
-10.880082 -80.84272 1.4238372 12 3200581422328 1 0
-0.5905984 -16.37973 -1.0504386 2 3200581422328 1 1
-3.1503263 -17.0419 -1.0092934 1 3200581424632 1 1
-5.9264874 -69.509605 4.0627546 28 3200581424632 1 0
-9.31115 -69.033104 2.8379488 87 3200581426936 1 0
-1.4209592 -16.637323 -0.77781427 1 3200581426936 1 1
-2.2765179 -16.859652 -0.89159536 2 3200581429240 1 1
0 0 0 1 3200581429240 1 0
0 0 0 8 3200581431544 1 0
-1.1459663 -31.27705 -1.2751149 38 3200581431544 1 0
-3.2146933 -17.333677 -0.6156271 2 3200581433848 1 1
0 0 0 9 3200581433848 1 0
0 0 0 29 3200581436152 1 0
-5.4678454 -63.584057 -1.4850258 15 3200581436152 1 0
-0.5056233 -3.6959372 -1.7394967 2 3200581456888 1 0
0 0 0 43 3200581456888 1 0
-2.3485575 -17.148598 -0.50373167 2 3200581459192 1 1
-0.5440158 -6.2202134 -1.7479266 5 3200581459192 1 0
-1.2125897 -8.844467 -1.7854518 3 3200581461496 1 0
-5.5316267 -63.142162 0 14 3200581461496 1 0
-6.107209 -32.5864 -0.38597175 6 3200581463800 1 0
-0.9560256 -10.894571 -1.7014555 24 3200581463800 1 0
-1.5463585 -11.254603 -1.4460237 14 3200581466104 1 0
-2.7216384 -70.102005 0.40774062 58 3200581466104 1 0
-11.124333 -80.87715 -0.47448462 85 3200581468408 1 0
-1.4737117 -16.738049 -1.8099401 2 3200581468408 1 0
-3.1973155 -17.018984 -1.6164832 2 3200581470712 1 0
-6.1377316 -69.59496 1.6257213 60 3200581470712 1 0
-12.886456 -68.53835 0.8118957 19 3200581473016 1 0
-2.3150265 -16.77669 -1.3825451 1 3200581475320 1 1
-1.4592834 -16.519175 -1.1596316 1 3200581473016 1 1
-2.7624013 -70.09989 2.04169 27 3200581475320 1 0
-11.16604 -80.831985 1.4243258 5 3200581477624 1 0
-0.6485595 -16.397512 -1.0517178 2 3200581477624 1 1
-3.2467735 -17.227007 -1.0209212 1 3200581479928 1 1
-6.152488 -69.301544 4.0518246 28 3200581479928 1 0
-9.552064 -69.00018 2.8379488 87 3200581482232 1 0
-1.4829187 -16.676043 -0.7798616 1 3200581482232 1 1
-2.3326135 -16.831818 -0.89054865 2 3200581484536 1 1
0 0 0 1 3200581484536 1 0
0 0 0 8 3200581486840 1 0
-1.2572203 -31.324774 -1.2772316 42 3200581486840 1 0
-3.2187364 -17.023825 -0.60501766 2 3200581489144 1 1
0 0 0 9 3200581489144 1 0
0 0 0 29 3200581491448 1 0
-5.6601706 -63.233994 -1.4773024 15 3200581491448 1 0
0 0 0 14 3200581512184 1 0
-0.5195292 -3.70133 -1.7428777 1 3200581512184 1 0
-2.4146476 -17.18383 -0.5050117 2 3200581514488 1 1
-0.5657703 -6.2182727 -1.7479266 6 3200581514488 1 0
-1.2446767 -8.847931 -1.7870208 5 3200581516792 1 0
-6.3396096 -69.55971 0 20 3200581516792 1 0
-0.9957239 -10.906891 -1.703915 23 3200581519096 1 0
-1.5865161 -11.25302 -1.4465288 15 3200581521400 1 0
-6.8889036 -36.057335 -0.42736745 7 3200581519096 1 0
-11.4156685 -80.88098 -0.47474036 85 3200581523704 1 0
-2.967347 -70.06801 0.40760112 29 3200581521400 1 0
-3.2581947 -17.01149 -1.616855 3 3200581526008 1 0
-6.3800077 -69.53301 1.6247908 40 3200581526008 1 0
-13.12986 -68.49621 0.8119423 19 3200581528312 1 0
-1.5331006 -16.736708 -1.8103685 2 3200581523704 1 0
-1.5185082 -16.52185 -1.1601896 1 3200581528312 1 1
-2.3779035 -16.792051 -1.3844979 1 3200581530616 1 1
-2.8996067 -67.49314 1.9660547 22 3200581530616 1 0
-11.458468 -80.8274 1.424954 87 3200581532920 1 0
-0.70652276 -16.387125 -1.0512061 2 3200581532920 1 1
-3.2938213 -17.14082 -1.0165026 1 3200581535224 1 1
-6.520604 -70.59136 4.128568 28 3200581535224 1 0
-9.795567 -68.94585 2.8371346 87 3200581537528 1 0
-1.5435579 -16.682577 -0.78042 1 3200581537528 1 1
-2.3950715 -16.839184 -0.89138603 2 3200581539832 1 1
0 0 0 1 3200581539832 1 0
-1.3712633 -31.359993 -1.27886 38 3200581542136 1 0
0 0 0 8 3200581542136 1 0
-3.3109012 -17.173088 -0.6107412 2 3200581544440 1 1
0 0 0 9 3200581544440 1 0
0 0 0 29 3200581546744 1 0
-5.908157 -63.4322 -1.4824203 15 3200581546744 1 0
-0.5325747 -3.6958127 -1.7411872 2 3200581567480 1 0
-2.001473 -44.07586 -0.7701398 15 3200581567480 1 0
-2.4569378 -17.03242 -0.50082266 2 3200581569784 1 1
-0.5888755 -6.219996 -1.749005 5 3200581569784 1 0
-1.276969 -8.843328 -1.7870208 4 3200581572088 1 0
0 0 0 11 3200581572088 1 0
-6.3800087 -32.74601 -0.3883931 10 3200581574392 1 0
-1.0373235 -10.922864 -1.7069896 21 3200581574392 1 0
-1.627991 -11.251104 -1.4470339 15 3200581576696 1 0
-3.2221012 -70.056755 0.40760112 29 3200581576696 1 0
-11.709096 -80.83902 -0.47474036 28 3200581579000 1 0
-1.5953337 -16.74687 -1.812082 2 3200581579000 1 0
-3.3442082 -17.12466 -1.6287519 3 3200581581304 1 0
-6.626846 -69.4577 1.623581 60 3200581581304 1 0
-12.330904 -63.09398 0.7484285 14 3200581583608 1 0
-1.5797311 -16.532143 -1.1613058 1 3200581583608 1 1
-2.4447625 -16.826763 -1.3880779 1 3200581585912 1 1
-3.1309445 -67.22263 1.9584911 22 3200581585912 1 0
-12.276035 -84.406975 1.4888299 29 3200581588216 1 0
-0.7707239 -16.496124 -1.0583694 2 3200581588216 1 1
-6.7962904 -70.798035 4.1420565 28 3200581590520 1 0
-3.336187 -17.030909 -1.0106888 1 3200581590520 1 1
-10.042111 -68.906334 2.8369718 87 3200581592824 1 0
-1.6029758 -16.672958 -0.78023386 1 3200581592824 1 1
-2.4720275 -16.945133 -0.897457 2 3200581595128 1 1
0 0 0 1 3200581595128 1 0
0 0 0 8 3200581597432 1 0
-1.4853073 -31.398811 -1.2806511 28 3200581597432 1 0
-3.410612 -17.357307 -0.6177211 2 3200581599736 1 1
0 0 0 9 3200581599736 1 0
0 0 0 29 3200581602040 1 0
0 0 0 16 3200581602040 1 0
-0.54653144 -3.7011037 -1.7445682 3 3200581622776 1 0
-3.244303 -66.334595 -1.1592586 16 3200581622776 1 0
-2.540933 -17.189863 -0.5057098 2 3200581625080 1 1
-0.6105837 -6.2179027 -1.749005 5 3200581625080 1 0
-1.3078302 -8.838817 -1.7870208 5 3200581627384 1 0
-6.8307104 -69.456924 0 20 3200581627384 1 0
-6.167264 -31.075788 -0.36883608 6 3200581629688 1 1
-1.6672547 -11.245353 -1.4470339 13 3200581631992 1 0
-1.0758325 -10.92311 -1.7076045 24 3200581629688 1 0
-3.466823 -70.04908 0.40762436 29 3200581631992 1 0
-9.100421 -61.319332 -0.36029217 37 3200581634296 1 0
-1.6537814 -16.7412 -1.812082 2 3200581634296 1 0
-3.4125109 -17.155851 -1.6328413 3 3200581636600 1 0
-6.8735886 -69.47792 1.6246047 60 3200581636600 1 0
-13.599788 -68.31882 0.8109644 38 3200581638904 1 0
-1.6496255 -16.649622 -1.1699556 1 3200581638904 1 1
-2.501723 -16.806297 -1.3871015 1 3200581641208 1 1
-3.5059502 -70.014595 2.0401773 26 3200581641208 1 0
-12.604193 -84.58908 1.492809 29 3200581643512 1 0
-0.82830137 -16.493334 -1.0583694 2 3200581643512 1 1
-3.3909276 -16.995663 -1.0092934 1 3200581645816 1 1
-7.020444 -70.54341 4.128568 28 3200581645816 1 0
-10.281398 -68.86295 2.836646 58 3200581648120 1 0
-1.6445222 -16.50027 -0.77241665 1 3200581648120 1 1
-2.5329335 -16.948254 -0.898085 2 3200581650424 1 1
0 0 0 1 3200581650424 1 0
0 0 0 8 3200581652728 1 0
-1.3986051 -27.529629 -1.1230325 7 3200581652728 1 1
-3.466473 -17.321777 -0.6168835 2 3200581655032 1 1
0 0 0 9 3200581655032 1 0
