# .PCD v.7 - Point Cloud Data file format
VERSION .7
FIELDS x y z rgb timestamp_ns device_id active
SIZE 4 4 4 4 8 1 1
TYPE F F F F F U U
COUNT 1 1 1 1 1 1 1
WIDTH 1004
HEIGHT 1
VIEWPOINT 0 0 0 1 0 0 0
POINTS 1004               
DATA ascii
0 0 0 4 3207770656368 1 0
10.54917 -14.029764 -0.30639446 9 3207770656368 1 1
3.3673377 -4.967543 -1.6799936 2 3207770658672 1 0
8.742656 -14.361022 -0.48930278 12 3207770658672 1 1
4.3821 -7.200445 -1.6858243 3 3207770660976 1 0
9.631045 -14.212079 0 11 3207770660976 1 1
8.63477 -15.892518 -0.21056391 4 3207770663280 1 1
5.9543986 -8.78924 -1.6516477 7 3207770663280 1 0
5.8744583 -9.658622 -1.4389527 51 3207770665584 1 0
10.538037 -14.031096 0.10198746 9 3207770665584 1 1
8.740347 -14.375109 -0.09777964 13 3207770667888 1 1
0 0 0 44 3207770667888 1 0
9.62731 -14.223487 0.39966074 7 3207770670192 1 1
8.60691 -15.862133 0.21009827 4 3207770672496 1 1
8.612315 -15.866863 -1.6852618 2 3207770670192 1 0
9.689472 -14.319589 -1.2090192 2 3207770672496 1 1
10.446276 -17.196877 -1.642586 5 3207770674800 1 0
10.518804 -14.02162 0.5101316 5 3207770674800 1 1
8.727066 -14.371153 0.29347968 12 3207770677104 1 1
11.100928 -14.801856 -1.1857728 3 3207770677104 1 1
12.898582 -23.79501 -1.5762651 7 3207770679408 1 0
0 0 0 3 3207770679408 1 0
39.749893 -65.49828 3.1214342 58 3207770681712 1 0
9.614139 -14.22519 -0.799777 40 3207770681712 1 1
8.722915 -14.377747 -0.8813375 56 3207770684016 1 1
22.655813 -33.531784 4.968857 8 3207770684016 1 0
0 0 0 8 3207770686320 1 0
10.519226 -14.042382 -0.71481985 60 3207770686320 1 1
8.703003 -16.076302 -0.6383816 45 3207770688624 1 1
0 0 0 9 3207770688624 1 0
16.801426 -27.719244 5.9098454 38 3207770690928 1 0
9.600665 -14.22219 -0.39928854 13 3207770690928 1 1
0 0 0 4 3207770711664 1 0
10.4810505 -14.035829 -0.30576617 9 3207770711664 1 1
8.686609 -14.376309 -0.48883733 10 3207770713968 1 1
3.3486593 -4.975511 -1.6789154 2 3207770713968 1 0
9.568027 -14.220846 0 11 3207770716272 1 1
4.3580937 -7.2150006 -1.6858243 3 3207770716272 1 0
16.652851 -30.895397 -0.40860203 36 3207770718576 1 0
5.82366 -9.647645 -1.434407 54 3207770720880 1 0
5.9228215 -8.805786 -1.6510328 8 3207770718576 1 0
10.474301 -14.043826 0.10182473 11 3207770720880 1 1
8.677639 -14.380357 -0.0976169 12 3207770723184 1 1
6.485053 -9.647746 -1.2521787 30 3207770723184 1 0
8.560845 -15.899216 -1.6856337 2 3207770725488 1 0
9.5683155 -14.239157 0.3991955 7 3207770725488 1 1
8.642551 -16.056555 0.2122868 3 3207770727792 1 1
9.601151 -14.292511 -1.2039968 3 3207770727792 1 1
10.392305 -17.238857 -1.6432369 3 3207770730096 1 0
10.459488 -14.041001 0.5095498 5 3207770730096 1 1
8.666033 -14.38003 0.2930608 12 3207770732400 1 1
12.846238 -23.89134 -1.5797535 7 3207770734704 1 0
10.82908 -14.541563 -1.1619806 2 3207770732400 1 1
0 0 0 3 3207770734704 1 0
39.450935 -65.50622 3.1154096 29 3207770737008 1 0
9.55019 -14.234532 -0.7984741 43 3207770737008 1 1
8.66363 -14.390241 -0.8802908 56 3207770739312 1 1
22.523869 -33.58232 4.964957 8 3207770739312 1 0
18.987427 -31.548393 3.005929 8 3207770741616 1 0
10.45696 -14.058937 -0.71384287 57 3207770741616 1 1
0 0 0 21 3207770743920 1 0
0 0 0 9 3207770743920 1 0
9.536312 -14.231736 -0.39863718 13 3207770746224 1 1
16.692186 -27.753025 5.904823 38 3207770746224 1 0
0 0 0 4 3207770766960 1 0
10.412938 -14.046626 -0.30520767 11 3207770766960 1 1
8.623935 -14.38603 -0.48813915 12 3207770769264 1 1
3.3440719 -5.006412 -1.6853851 2 3207770769264 1 0
4.336809 -7.2369614 -1.6873932 3 3207770771568 1 0
9.504793 -14.234338 0 11 3207770771568 1 1
14.411861 -26.964111 -0.35593775 30 3207770773872 1 0
5.8940496 -8.8298235 -1.6516477 8 3207770773872 1 0
5.779474 -9.651062 -1.4318817 55 3207770776176 1 0
10.398624 -14.045243 0.101569004 9 3207770776176 1 1
8.618648 -14.397146 -0.09752391 13 3207770778480 1 1
6.4355364 -9.6474 -1.24918 13 3207770778480 1 0
8.5046 -15.929373 -1.6856337 2 3207770780784 1 0
9.50462 -14.252922 0.39863718 7 3207770780784 1 1
18.257887 -34.210148 0.4514412 5 3207770783088 1 0
9.526128 -14.289903 -1.2009275 3 3207770783088 1 1
10.335155 -17.282473 -1.6438878 3 3207770785392 1 0
10.388199 -14.049098 0.50850254 6 3207770785392 1 1
8.604581 -14.393592 0.29271176 12 3207770787696 1 1
10.73459 -14.5222 -1.1573757 3 3207770787696 1 1
12.762901 -23.940489 -1.579986 7 3207770790000 1 0
0 0 0 3 3207770790000 1 0
0 0 0 15 3207770792304 1 0
9.486017 -14.248586 -0.7973573 47 3207770792304 1 1
8.601847 -14.403998 -0.8792441 58 3207770794608 1 1
22.407969 -33.669304 4.965932 8 3207770794608 1 0
0 0 0 68 3207770796912 1 0
10.387499 -14.070614 -0.7125402 60 3207770796912 1 1
14.277993 -26.821936 -1.0610843 100 3207770799216 1 0
0 0 0 9 3207770799216 1 0
16.567982 -27.772379 5.896213 38 3207770801520 1 0
9.4695215 -14.242662 -0.39798582 13 3207770801520 1 1
0 0 0 4 3207770822256 1 0
10.342425 -14.058925 -0.3046492 11 3207770822256 1 1
8.558995 -14.396859 -0.487441 12 3207770824560 1 1
3.31297 -4.999346 -1.6789154 2 3207770824560 1 0
4.310361 -7.252745 -1.6873932 4 3207770826864 1 0
9.437302 -14.245599 0 11 3207770826864 1 1
16.463177 -31.073854 -0.4093936 32 3207770829168 1 0
5.8662047 -8.857829 -1.6528776 7 3207770829168 1 0
5.742317 -9.668601 -1.4313766 41 3207770831472 1 0
10.338013 -14.070067 0.10147601 9 3207770831472 1 1
6.4048753 -9.677322 -1.2500367 12 3207770833776 1 0
8.554093 -14.40769 -0.09738442 13 3207770833776 1 1
8.459896 -15.984709 -1.688236 2 3207770836080 1 0
9.43308 -14.257236 0.3977997 8 3207770836080 1 1
18.233257 -34.46329 0.45390913 5 3207770838384 1 0
9.465612 -14.310927 -1.1998113 3 3207770838384 1 1
10.282918 -17.336782 -1.6455151 3 3207770840688 1 0
10.320897 -14.063912 0.507688 5 3207770840688 1 1
8.544553 -14.410712 0.29243252 12 3207770842992 1 1
10.660993 -14.53178 -1.1550732 3 3207770842992 1 1
12.688008 -24.007366 -1.5813813 7 3207770845296 1 0
0 0 0 3 3207770845296 1 0
18.731665 -31.612621 1.497051 65 3207770847600 1 0
9.4216585 -14.2625 -0.79624057 43 3207770847600 1 1
22.241415 -33.679688 4.955695 8 3207770849904 1 0
8.542112 -14.420936 -0.8784067 56 3207770849904 1 1
18.712435 -31.601126 2.9981182 32 3207770852208 1 0
10.323018 -14.088271 -0.7115633 60 3207770852208 1 1
14.23457 -26.971634 -1.064993 39 3207770854512 1 0
0 0 0 9 3207770854512 1 0
16.453083 -27.804028 5.8904734 38 3207770856816 1 0
9.4011965 -14.249543 -0.39724138 13 3207770856816 1 1
0 0 0 4 3207770877552 1 0
10.276777 -14.072331 -0.30416054 11 3207770877552 1 1
8.500564 -14.412871 -0.48697555 18 3207770879856 1 1
3.2933822 -5.0076613 -1.677837 2 3207770879856 1 0
4.2870097 -7.271126 -1.6881776 6 3207770882160 1 0
9.376531 -14.261743 0 11 3207770882160 1 1
16.308104 -31.042612 -0.4082295 76 3207770884464 1 0
0 0 0 22 3207770886768 1 0
5.8374205 -8.881556 -1.6534925 8 3207770884464 1 0
10.2699795 -14.080215 0.10129003 9 3207770886768 1 1
8.499689 -14.430569 -0.09733793 28 3207770889072 1 1
6.3688726 -9.696297 -1.2496084 6 3207770889072 1 0
8.404047 -16.014141 -1.688236 2 3207770891376 1 0
9.376671 -14.280047 0.39752054 8 3207770891376 1 1
18.179737 -34.654236 0.45558542 5 3207770893680 1 0
10.230426 -17.386316 -1.646817 3 3207770895984 1 0
10.257616 -14.080463 0.50698984 5 3207770895984 1 1
8.486087 -14.4266615 0.29215327 25 3207770898288 1 1
9.494429 -14.463969 -1.2098563 4 3207770893680 1 1
10.582003 -14.530184 -1.1520032 3 3207770898288 1 1
12.60413 -24.05151 -1.5813813 7 3207770900592 1 0
18.602974 -31.646805 1.4955854 72 3207770902896 1 0
0 0 0 3 3207770900592 1 0
9.363052 -14.281935 -0.7954961 42 3207770902896 1 1
8.477555 -14.426558 -0.87694126 51 3207770905200 1 1
22.0976 -33.717274 4.9498453 8 3207770905200 1 0
18.5798 -31.628439 2.994538 40 3207770907504 1 0
10.259672 -14.104827 -0.7105863 61 3207770907504 1 1
13.949425 -26.656342 -1.0506145 42 3207770909808 1 0
0 0 0 9 3207770909808 1 0
16.341984 -27.837536 5.8854513 38 3207770912112 1 0
9.336065 -14.258854 -0.39659002 13 3207770912112 1 1
0 0 0 4 3207770933296 1 0
10.215967 -14.086907 -0.3037417 11 3207770933296 1 1
8.444643 -14.427178 -0.4865101 14 3207770935600 1 1
3.2830756 -5.028231 -1.681072 2 3207770935600 1 0
4.2608933 -7.2819166 -1.6873932 3 3207770937904 1 0
9.316067 -14.27266 0 11 3207770937904 1 1
16.21986 -31.124897 -0.40860203 39 3207770940208 1 0
5.810096 -8.904174 -1.6541073 8 3207770940208 1 0
5.6683607 -9.693763 -1.4293563 3 3207770942512 1 0
10.20446 -14.088279 0.10110405 9 3207770942512 1 1
8.447752 -14.451769 -0.09729143 13 3207770944816 1 1
6.3432 -9.727357 -1.2508935 3 3207770944816 1 0
8.360091 -16.059586 -1.690095 2 3207770947120 1 0
9.313978 -14.287614 0.39686918 8 3207770947120 1 1
18.033333 -34.654015 0.45479384 5 3207770949424 1 0
9.348375 -14.344938 -1.1973001 10 3207770949424 1 1
10.184777 -17.440802 -1.6487697 3 3207770951728 1 0
10.185088 -14.078768 0.5057098 5 3207770951728 1 1
8.440216 -14.458178 0.2922231 10 3207770954032 1 1
10.377029 -14.34848 -1.1348625 3 3207770954032 1 1
12.579557 -24.199469 -1.588358 7 3207770956336 1 0
0 0 0 3 3207770956336 1 0
9.302563 -14.292812 -0.79437935 42 3207770958640 1 1
18.477787 -31.673798 1.4939572 72 3207770958640 1 0
21.99433 -33.803677 4.951795 8 3207770960944 1 0
8.417594 -14.4338875 -0.8756852 36 3207770960944 1 1
18.454735 -31.655436 2.9912834 40 3207770963248 1 0
10.19412 -14.112852 -0.70928365 60 3207770963248 1 1
13.811225 -26.606657 -1.0468453 57 3207770965552 1 0
0 0 0 9 3207770965552 1 0
16.22383 -27.847372 5.876124 38 3207770967856 1 0
9.273474 -14.266265 -0.39593863 12 3207770967856 1 1
0 0 0 4 3207770988592 1 0
10.152713 -14.103007 -0.30332282 11 3207770988592 1 1
8.454462 -14.560299 -0.49000096 6 3207770990896 1 1
3.2675984 -5.042893 -1.6821502 2 3207770990896 1 0
4.241356 -7.306922 -1.6897466 4 3207770993200 1 0
9.250967 -14.281592 0 11 3207770993200 1 1
17.464266 -33.8002 -0.44291994 40 3207770995504 1 0
5.7768307 -8.921083 -1.6534925 8 3207770995504 1 0
5.622543 -9.692896 -1.4263258 3 3207770997808 1 0
10.138875 -14.10108 0.100941315 9 3207770997808 1 1
8.459456 -14.588437 -0.09801211 6 3207771000112 1 1
6.3070464 -9.7461 -1.2504652 4 3207771000112 1 0
8.305809 -16.092209 -1.6904668 2 3207771002416 1 0
9.251016 -14.299893 0.39631087 8 3207771002416 1 1
9.293911 -14.370782 -1.196742 11 3207771004720 1 1
0 0 0 44 3207771004720 1 0
10.127832 -17.483147 -1.6494206 3 3207771007024 1 0
10.124221 -14.097996 0.505128 6 3207771007024 1 1
8.463853 -14.615606 0.29480606 4 3207771009328 1 1
10.350161 -14.417043 -1.1374209 9 3207771009328 1 1
12.496839 -24.24678 -1.5885906 7 3207771011632 1 0
0 0 0 3 3207771011632 1 0
18.34509 -31.700054 1.492166 72 3207771013936 1 0
9.2417755 -14.308414 -0.79344875 45 3207771013936 1 1
8.44317 -14.594571 -0.8836403 18 3207771016240 1 1
18.318178 -31.674797 2.9870524 39 3207771018544 1 0
10.1261635 -14.122367 -0.70798105 58 3207771018544 1 1
13.79144 -26.796883 -1.0524292 55 3207771020848 1 0
0 0 0 9 3207771020848 1 0
16.102896 -27.86295 5.867514 33 3207771023152 1 0
21.871891 -33.873577 4.95082 8 3207771016240 1 0
9.219283 -14.291828 -0.39575255 12 3207771023152 1 1
0 0 0 4 3207771043888 1 0
10.082495 -14.109076 -0.30269453 11 3207771043888 1 1
8.4734335 -14.710985 -0.49407363 6 3207771046192 1 1
3.2437255 -5.0445485 -1.6789154 2 3207771046192 1 0
9.183755 -14.286879 0 11 3207771048496 1 1
17.327938 -33.82536 -0.44245428 52 3207771050800 1 0
4.215824 -7.321683 -1.6897466 5 3207771048496 1 0
5.745655 -8.941194 -1.6534925 8 3207771050800 1 0
5.580758 -9.698706 -1.4243056 3 3207771053104 1 0
10.073325 -14.113595 0.10077858 9 3207771053104 1 1
8.480281 -14.742698 -0.09884903 4 3207771055408 1 1
6.2708387 -9.76471 -1.2500367 4 3207771055408 1 0
8.284058 -16.188467 -1.6975305 2 3207771057712 1 0
20.393942 -39.867554 0.5213343 40 3207771060016 1 0
9.185921 -14.308542 0.39565948 8 3207771057712 1 1
9.312657 -14.510597 -1.2056708 6 3207771060016 1 1
10.082634 -17.546045 -1.6520243 3 3207771062320 1 0
10.05406 -14.103949 0.5040808 6 3207771062320 1 1
8.488484 -14.776843 0.29745883 4 3207771064624 1 1
10.088958 -14.15726 -1.1141404 5 3207771064624 1 1
12.415759 -24.297367 -1.5890558 7 3207771066928 1 0
0 0 0 3 3207771066928 1 0
18.214428 -31.729235 1.4905378 65 3207771069232 1 0
9.176681 -14.3170395 -0.79214585 52 3207771069232 1 1
8.47369 -14.766003 -0.89222336 16 3207771071536 1 1
21.747091 -33.93969 4.949358 8 3207771071536 1 0
10.058265 -14.131578 -0.7066784 61 3207771073840 1 1
18.191631 -31.710882 2.984449 39 3207771073840 1 0
13.823186 -27.090555 -1.0620614 39 3207771076144 1 0
0 0 0 9 3207771076144 1 0
15.985967 -27.884851 5.8603396 33 3207771078448 1 0
9.152091 -14.296979 -0.39500812 12 3207771078448 1 1
0 0 0 4 3207771099184 1 0
10.0192995 -14.124612 -0.3022757 10 3207771099184 1 1
8.503463 -14.882748 -0.49884447 4 3207771101488 1 1
3.2323499 -5.065559 -1.6821502 2 3207771101488 1 0
4.1903477 -7.336293 -1.6897466 5 3207771103792 1 0
9.123281 -14.301855 0 11 3207771103792 1 1
5.7209806 -8.971068 -1.6553372 8 3207771106096 1 0
5.5412507 -9.707627 -1.4227903 12 3207771108400 1 0
10.008223 -14.125534 0.10061585 10 3207771108400 1 1
8.506619 -14.907393 -0.09975569 4 3207771110704 1 1
6.2434835 -9.796375 -1.2513219 7 3207771110704 1 0
8.226404 -16.213375 -1.6971587 2 3207771113008 1 0
17.19782 -33.8603 -0.44212833 52 3207771106096 1 0
9.1236515 -14.319886 0.39510116 8 3207771113008 1 1
20.242214 -39.90893 0.52096176 6 3207771115312 1 0
9.219817 -14.475233 -1.2000904 3 3207771115312 1 1
10.022347 -17.580551 -1.6520243 3 3207771117616 1 0
9.989422 -14.11553 0.5032662 6 3207771117616 1 1
8.520991 -14.95177 0.3003908 9 3207771119920 1 1
10.162599 -14.364446 -1.1276994 6 3207771119920 1 1
12.336249 -24.346786 -1.5895208 7 3207771122224 1 0
18.133797 -31.839794 1.4928174 21 3207771124528 1 0
50.4276 -79.24447 5.4701843 28 3207771122224 1 0
9.108494 -14.317913 -0.7904707 59 3207771124528 1 1
8.502442 -14.933609 -0.90059716 19 3207771126832 1 1
21.633585 -34.016857 4.9498453 8 3207771126832 1 0
18.113413 -31.824453 2.9893308 16 3207771129136 1 0
9.996376 -14.146072 -0.7057014 60 3207771129136 1 1
13.724081 -27.122976 -1.061503 43 3207771131440 1 0
0 0 0 9 3207771131440 1 0
15.879907 -27.918226 5.8560348 27 3207771133744 1 0
9.090825 -14.307593 -0.3944498 12 3207771133744 1 1
0 0 0 4 3207771154480 1 0
9.96089 -14.141411 -0.30192664 15 3207771154480 1 1
8.528782 -15.043159 -0.5032662 4 3207771156784 1 1
3.2092767 -5.0665345 -1.6789154 2 3207771156784 1 0
4.165783 -7.35027 -1.6897466 5 3207771159088 1 0
17.071367 -33.892883 -0.44180238 48 3207771161392 1 0
9.056128 -14.301879 0 11 3207771159088 1 1
5.6865797 -8.98356 -1.6541073 9 3207771161392 1 0
5.504552 -9.719365 -1.4217802 60 3207771163696 1 0
9.944392 -14.136323 0.100453116 11 3207771163696 1 1
8.54276 -15.089291 -0.10077858 4 3207771166000 1 1
6.223006 -9.837643 -1.2538923 11 3207771166000 1 0
8.130007 -16.15945 -1.6886078 2 3207771168304 1 0
9.055628 -14.320436 0.3942637 8 3207771168304 1 1
0 0 0 12 3207771170608 1 0
9.136173 -14.452696 -1.1956259 2 3207771170608 1 1
9.977644 -17.64261 -1.6546279 3 3207771172912 1 0
9.931718 -14.136648 0.50280076 7 3207771172912 1 1
8.554036 -15.130759 0.30339262 4 3207771175216 1 1
10.23003 -14.56599 -1.1407467 9 3207771175216 1 1
12.264445 -24.41432 -1.5911487 7 3207771177520 1 0
0 0 0 3 3207771177520 1 0
9.043737 -14.325837 -0.7891679 63 3207771179824 1 1
18.233355 -32.274975 1.5102401 22 3207771179824 1 0
8.524904 -15.095368 -0.9085522 26 3207771182128 1 1
21.495644 -34.061947 4.945458 8 3207771182128 1 0
18.215382 -32.266167 3.0248055 16 3207771184432 1 0
9.930664 -14.15812 -0.7045616 55 3207771184432 1 1
13.617777 -27.149673 -1.0606655 39 3207771186736 1 0
0 0 0 9 3207771186736 1 0
15.765669 -27.946756 5.8502946 27 3207771189040 1 0
9.027406 -14.319337 -0.39389148 12 3207771189040 1 1
0 0 0 4 3207771209776 1 0
9.890663 -14.1516 -0.30136815 18 3207771209776 1 1
8.561864 -15.231097 -0.50850254 6 3207771212080 1 1
3.1989193 -5.0912857 -1.6832286 2 3207771212080 1 0
4.1408434 -7.368848 -1.690531 5 3207771214384 1 0
8.995346 -14.321295 0 11 3207771214384 1 1
5.6559134 -9.0075655 -1.6547223 8 3207771216688 1 0
16.929907 -33.919067 -0.44133675 32 3207771216688 1 0
5.463346 -9.728936 -1.420265 59 3207771218992 1 0
8.570184 -15.266685 -0.101754986 4 3207771221296 1 1
9.883767 -14.159269 0.100360125 13 3207771218992 1 1
6.1724687 -9.836579 -1.2508935 14 3207771221296 1 0
8.110527 -16.2672 -1.6967869 2 3207771223600 1 0
8.993081 -14.336199 0.39379844 8 3207771223600 1 1
0 0 0 43 3207771225904 1 0
9.079638 -14.478861 -1.1950679 3 3207771225904 1 1
9.913942 -17.678486 -1.6546279 3 3207771228208 1 0
9.860082 -14.142861 0.5017535 6 3207771228208 1 1
8.589477 -15.321929 0.30660388 4 3207771230512 1 1
10.202638 -14.638745 -1.1435608 7 3207771230512 1 1
0 0 0 3 3207771232816 1 0
12.185557 -24.476097 -1.5923115 7 3207771232816 1 0
28.73801 -51.29791 2.3955421 53 3207771235120 1 0
8.981714 -14.341237 -0.7882372 64 3207771235120 1 1
8.562574 -15.2895775 -0.91839135 14 3207771237424 1 1
21.371529 -34.135273 4.9449706 8 3207771237424 1 0
18.185743 -32.484062 3.039126 8 3207771239728 1 0
9.864064 -14.170527 -0.70342183 55 3207771239728 1 1
13.2397785 -26.632446 -1.038609 37 3207771242032 1 0
0 0 0 9 3207771242032 1 0
15.645053 -27.964869 5.8424025 26 3207771244336 1 0
8.965825 -14.334397 -0.39342624 12 3207771244336 1 1
0 0 0 4 3207771265072 1 0
8.592368 -15.411056 -0.5135061 4 3207771267376 1 1
9.834366 -14.17618 -0.30115873 10 3207771265072 1 1
3.1933553 -5.122033 -1.6896983 2 3207771267376 1 0
4.115096 -7.3832574 -1.690531 3 3207771269680 1 0
8.932607 -14.332239 0 12 3207771269680 1 1
5.626527 -9.030608 -1.6553372 8 3207771271984 1 0
5.4216294 -9.734081 -1.4182447 54 3207771274288 1 0
16.793667 -33.94211 -0.4408711 48 3207771271984 1 0
9.820614 -14.173956 0.10022064 7 3207771274288 1 1
6.140197 -9.861442 -1.2513219 12 3207771276592 1 0
8.064282 -16.316835 -1.6990175 2 3207771278896 1 0
8.93453 -14.353924 0.39342624 8 3207771278896 1 1
0 0 0 50 3207771281200 1 0
9.014285 -14.486751 -1.1931148 3 3207771281200 1 1
8.600511 -15.446781 -0.10275464 4 3207771276592 1 1
9.859924 -17.72692 -1.6559298 3 3207771283504 1 0
9.794727 -14.154179 0.500939 5 3207771283504 1 1
8.619513 -15.502121 0.3096057 4 3207771285808 1 1
9.833533 -14.214673 -1.1077446 3 3207771285808 1 1
12.156596 -24.633072 -1.5997533 7 3207771288112 1 0
0 0 0 3 3207771288112 1 0
28.527712 -51.34201 2.3929367 79 3207771290416 1 0
8.921055 -14.355534 -0.7873066 66 3207771290416 1 1
8.590616 -15.466037 -0.9271838 19 3207771292720 1 1
21.250149 -34.20629 4.944483 8 3207771292720 1 0
0 0 0 8 3207771295024 1 0
9.798636 -14.181856 -0.702282 52 3207771295024 1 1
13.132597 -26.649813 -1.0374923 53 3207771297328 1 0
0 0 0 9 3207771297328 1 0
8.907299 -14.3520155 -0.393054 12 3207771299632 1 1
15.52825 -27.9849 5.835228 21 3207771299632 1 0
0 0 0 4 3207771320368 1 0
9.76214 -14.177482 -0.30046064 9 3207771320368 1 1
8.635378 -15.61584 -0.51932424 6 3207771322672 1 1
3.163335 -5.1134715 -1.6832286 1 3207771322672 1 0
8.874316 -14.349596 0 12 3207771324976 1 1
16.665258 -33.978615 -0.44059172 48 3207771327280 1 0
4.0875087 -7.3940845 -1.6897466 6 3207771324976 1 0
5.5930886 -9.046709 -1.6547223 9 3207771327280 1 0
5.3821454 -9.742371 -1.4167295 56 3207771329584 1 0
9.748824 -14.174909 0.09998816 7 3207771329584 1 1
6.095644 -9.865676 -1.24918 11 3207771331888 1 0
8.630253 -15.62696 -0.10375428 4 3207771331888 1 1
8.00799 -16.344536 -1.6990175 2 3207771334192 1 0
8.874492 -14.367624 0.39296097 8 3207771334192 1 1
0 0 0 43 3207771336496 1 0
8.949726 -14.493906 -1.1911615 3 3207771336496 1 1
9.806723 -17.774622 -1.6572316 3 3207771338800 1 0
9.734767 -14.171237 0.5003572 7 3207771338800 1 1
8.641694 -15.668133 0.31232828 4 3207771341104 1 1
9.76219 -14.215365 -1.1051862 3 3207771341104 1 1
12.026702 -24.581219 -1.5937068 7 3207771343408 1 0
40.716 -65.99995 4.516239 28 3207771343408 1 0
28.331215 -51.40051 2.3911457 79 3207771345712 1 0
8.861554 -14.368872 -0.786376 68 3207771345712 1 1
8.634316 -15.670114 -0.937651 16 3207771348016 1 1
21.016928 -34.089165 4.9171844 7 3207771348016 1 0
0 0 0 8 3207771350320 1 0
9.73233 -14.188684 -0.70097935 58 3207771350320 1 1
13.019396 -26.64747 -1.0356774 53 3207771352624 1 0
0 0 0 9 3207771352624 1 0
15.422142 -28.016565 5.830923 21 3207771354928 1 0
8.837743 -14.348006 -0.3921235 12 3207771354928 1 1
0 0 0 4 3207771375664 1 0
9.697015 -14.183364 -0.29990214 9 3207771375664 1 1
3.1463234 -5.123956 -1.6832286 2 3207771377968 1 0
8.675748 -15.81271 -0.5249096 6 3207771377968 1 1
4.0704036 -7.421414 -1.6928844 5 3207771380272 1 0
8.811826 -14.35521 0 12 3207771380272 1 1
5.5649276 -9.068697 -1.6553372 8 3207771382576 1 0
5.349525 -9.760321 -1.4167295 35 3207771384880 1 0
16.537752 -34.005276 -0.4402192 60 3207771382576 1 0
9.687819 -14.187622 0.09984868 8 3207771384880 1 1
8.671992 -15.827693 -0.104893416 4 3207771387184 1 1
6.0687723 -9.896227 -1.2504652 6 3207771387184 1 0
7.959992 -16.385677 -1.7005047 2 3207771389488 1 0
8.81363 -14.3769045 0.39240265 8 3207771389488 1 1
25.056501 -51.598007 0.6677791 10 3207771391792 1 0
8.890449 -14.506947 -1.1897664 3 3207771391792 1 1
9.760089 -17.832092 -1.6595098 5 3207771394096 1 0
9.67563 -14.187489 0.49977538 5 3207771394096 1 1
8.684646 -15.872694 0.31581876 4 3207771396400 1 1
9.702821 -14.231805 -1.1039071 3 3207771396400 1 1
11.990386 -24.71884 -1.5999858 7 3207771398704 1 0
28.11239 -51.41577 2.3874006 79 3207771401008 1 0
39.858242 -65.102234 4.4455423 28 3207771398704 1 0
8.802276 -14.381844 -0.7854454 68 3207771401008 1 1
8.661399 -15.846623 -0.94644344 42 3207771403312 1 1
20.68944 -33.815063 4.8674617 7 3207771403312 1 0
0 0 0 8 3207771405616 1 0
9.674884 -14.208581 -0.70032805 55 3207771405616 1 1
12.895132 -26.623457 -1.0330251 49 3207771407920 1 0
0 0 0 9 3207771407920 1 0
15.305346 -28.031233 5.823031 21 3207771410224 1 0
8.776033 -14.35772 -0.39156517 12 3207771410224 1 1
0 0 0 4 3207771430960 1 0
9.631727 -14.193961 -0.29941347 10 3207771430960 1 1
8.695027 -15.979868 -0.52944773 6 3207771433264 1 1
3.1284184 -5.1349077 -1.6832286 2 3207771433264 1 0
4.044473 -7.435577 -1.6928844 4 3207771435568 1 0
8.751259 -14.368801 0 12 3207771435568 1 1
16.408531 -34.04118 -0.43993983 52 3207771437872 1 0
5.5373487 -9.094819 -1.656567 10 3207771437872 1 0
0 0 0 30 3207771440176 1 0
9.620283 -14.194863 0.0996627 8 3207771440176 1 1
8.717906 -16.04414 -0.10612554 4 3207771442480 1 1
6.036258 -9.920749 -1.2508935 4 3207771442480 1 0
7.9062023 -16.42054 -1.7012482 2 3207771444784 1 0
8.753001 -14.390499 0.39193738 8 3207771444784 1 1
24.834606 -51.59866 0.66666156 30 3207771447088 1 0
8.872926 -14.592443 -1.1942308 3 3207771447088 1 1
0 0 0 4 3207765900776 1 0
22.17276 -16.0563 -0.4778469 3 3207765900776 1 1
28.52123 -25.249357 -1.108582 23 3207765903080 1 0
0 0 0 1 3207765903080 1 0
6.2018313 -5.491904 -1.6567988 3 3207765905384 1 0
31.720835 -25.43667 0 5 3207765905384 1 0
28.697998 -28.038225 -0.46708682 56 3207765907688 1 0
8.053209 -6.4596295 -1.6061444 5 3207765907688 1 0
9.575061 -8.48372 -1.628355 19 3207765909992 1 0
40.752094 -29.544785 0.29254848 10 3207765909992 1 0
29.28519 -25.954563 -0.2274318 59 3207765912296 1 0
11.261961 -9.038545 -1.5554775 19 3207765912296 1 0
9.237569 -9.032682 -1.2060423 13 3207765914600 1 0
38.143852 -30.62189 1.1382189 48 3207765914600 1 0
28.651045 -28.023317 0.4665746 26 3207765916904 1 0
0 0 0 219 3207765919208 1 0
16.807062 -13.4965315 -1.5072979 4 3207765916904 1 0
0 0 0 3 3207765919208 1 0
29.248928 -25.951302 0.68252873 41 3207765921512 1 0
18.58017 -13.489995 -1.4715351 4 3207765921512 1 0
18.097435 -17.715616 -1.4748707 6 3207765923816 1 0
32.716034 -26.294182 2.444397 21 3207765923816 1 0
32.530624 -28.879078 1.7722322 9 3207765926120 1 0
23.087957 -18.56126 -1.379927 4 3207765926120 1 0
21.535273 -19.12327 -1.509369 4 3207765928424 1 0
44.892467 -36.10092 7.0732965 50 3207765928424 1 0
29.97966 -26.629276 3.2734554 19 3207765930728 1 0
22.138597 -16.092258 -1.1150538 3 3207765930728 1 0
0 0 0 100 3207765933032 1 0
0 0 0 9 3207765933032 1 0
29.999027 -26.661314 7.317532 16 3207765935336 1 0
0 0 0 8 3207765935336 1 0
0 0 0 4 3207765956072 1 0
22.235727 -16.214571 -0.48036003 3 3207765956072 1 1
28.32075 -25.240257 -1.104044 23 3207765958376 1 0
0 0 0 1 3207765958376 1 0
6.1864333 -5.5151396 -1.6575834 4 3207765960680 1 0
31.76354 -25.645205 0 5 3207765960680 1 0
28.664133 -28.19276 -0.46806467 17 3207765962984 1 0
8.0346775 -6.4889584 -1.6067593 6 3207765962984 1 0
9.531821 -8.502496 -1.6258297 21 3207765965288 1 0
29.25472 -26.103193 -0.22787352 48 3207765967592 1 0
11.231596 -9.076249 -1.5554775 18 3207765967592 1 0
9.181625 -9.038522 -1.2026962 11 3207765969896 1 0
40.911472 -29.869633 0.2944083 11 3207765965288 1 0
0 0 0 1 3207765969896 1 0
28.610676 -28.172949 0.46745932 21 3207765972200 1 0
10.303394 -9.201517 -1.1277117 191 3207765974504 1 0
16.780142 -13.568098 -1.508972 4 3207765972200 1 0
56.322727 -41.171707 2.030403 26 3207765974504 1 0
29.211708 -26.095356 0.68371546 41 3207765976808 1 0
18.534445 -13.552748 -1.4715351 4 3207765976808 1 0
18.042984 -17.78245 -1.4753358 6 3207765979112 1 0
32.508785 -26.30944 2.4355597 21 3207765979112 1 0
23.031 -18.64459 -1.3802992 4 3207765981416 1 0
0 0 0 9 3207765981416 1 0
44.883503 -36.345943 7.0913334 51 3207765983720 1 0
21.481976 -19.207102 -1.5102063 4 3207765983720 1 0
30.058044 -26.882862 3.2920065 19 3207765986024 1 0
21.964266 -16.080318 -1.1090292 3 3207765986024 1 0
26.497786 -26.145575 -1.2999364 13 3207765988328 1 0
0 0 0 9 3207765988328 1 0
30.021894 -26.866253 7.345514 16 3207765990632 1 0
30.22454 -24.497194 -0.90530837 11 3207765990632 1 0
0 0 0 4 3207766011368 1 0
22.008162 -16.166601 -0.47666013 10 3207766011368 1 1
28.134277 -25.25083 -1.100204 22 3207766013672 1 0
0 0 0 1 3207766013672 1 0
6.164225 -5.5340805 -1.6567988 4 3207766015976 1 0
31.223827 -25.390001 0 16 3207766015976 1 0
9.272719 -9.184133 -0.15193942 59 3207766018280 1 0
8.008912 -6.514471 -1.6061444 5 3207766018280 1 0
9.522747 -8.554277 -1.6293652 15 3207766020584 1 0
40.226948 -29.585678 0.29022372 10 3207766020584 1 0
9.940319 -8.931994 -0.07767042 10 3207766022888 1 0
10.88831 -8.861846 -1.5122104 72 3207766022888 1 0
9.144362 -9.064909 -1.2019527 7 3207766025192 1 0
44.49521 -36.224792 1.3351182 11 3207766025192 1 0
9.261695 -9.183893 0.15184629 12 3207766027496 1 0
16.751242 -13.641707 -1.5106462 4 3207766027496 1 0
0 0 0 19 3207766029800 1 0
56.275257 -41.439182 2.0338938 26 3207766029800 1 0
29.165041 -26.237288 0.6847626 41 3207766032104 1 0
18.48381 -13.614996 -1.4712793 4 3207766032104 1 0
9.2568245 -9.187078 -0.75952816 3 3207766034408 1 0
32.258892 -26.294086 2.4236996 21 3207766034408 1 0
9.891779 -8.903994 0.54222095 7 3207766036712 1 0
22.968874 -18.727394 -1.3804854 4 3207766036712 1 0
21.494947 -19.354137 -1.5158587 4 3207766039016 1 0
44.876347 -36.600258 7.110345 51 3207766039016 1 0
30.014383 -27.032978 3.2975395 19 3207766041320 1 0
21.895134 -16.147402 -1.1083778 3 3207766041320 1 0
9.224644 -9.165799 -0.45411226 4 3207766043624 1 0
0 0 0 9 3207766043624 1 0
30.047783 -27.078896 7.3749304 24 3207766045928 1 0
30.157433 -24.617722 -0.9058667 11 3207766045928 1 0
0 0 0 4 3207766066664 1 0
21.977314 -16.262358 -0.4772186 10 3207766066664 1 1
27.939362 -25.252163 -1.096015 22 3207766068968 1 0
0 0 0 1 3207766068968 1 0
6.1420417 -5.552844 -1.6560144 4 3207766071272 1 0
0 0 0 243 3207766073576 1 0
0 0 0 42 3207766071272 1 0
7.986266 -6.5422134 -1.6061444 5 3207766073576 1 0
9.504849 -8.597837 -1.6313854 12 3207766075880 1 0
9.942032 -8.995799 -0.07792614 15 3207766078184 1 0
40.12751 -29.72713 0.29024696 10 3207766075880 1 0
10.7007675 -8.770829 -1.4903625 17 3207766078184 1 0
30.865467 -25.305851 0.9287576 6 3207766080488 1 0
9.113061 -9.096375 -1.2019527 7 3207766080488 1 0
0 0 0 250 3207766082792 1 0
16.698048 -13.694185 -1.5100881 4 3207766082792 1 0
0 0 0 19 3207766085096 1 0
56.43777 -41.858376 2.044948 27 3207766085096 1 0
29.128355 -26.385359 0.6860192 56 3207766087400 1 0
9.208422 -9.201728 -0.7581328 20 3207766089704 1 0
18.440273 -13.680605 -1.4715351 4 3207766087400 1 0
32.029934 -26.290184 2.4132345 21 3207766089704 1 0
9.908735 -8.980623 0.54482627 11 3207766092008 1 0
22.904867 -18.805624 -1.3804854 4 3207766092008 1 0
21.431913 -19.429865 -1.516068 4 3207766094312 1 0
44.889587 -36.866165 7.1322813 78 3207766094312 1 0
30.040533 -27.241879 3.3105576 20 3207766096616 1 0
21.917173 -16.27886 -1.1122857 3 3207766096616 1 0
0 0 0 13 3207766098920 1 0
0 0 0 9 3207766098920 1 0
30.367495 -24.960789 -0.91470665 17 3207766101224 1 0
30.011414 -27.23059 7.388562 16 3207766101224 1 0
0 0 0 4 3207766121960 1 0
21.923265 -16.335148 -0.4772186 7 3207766121960 1 1
27.784307 -25.280298 -1.0932223 7 3207766124264 1 0
0 0 0 1 3207766124264 1 0
0 0 0 3 3207766126568 1 0
6.1264133 -5.5759106 -1.6567988 3 3207766126568 1 0
9.159185 -9.196026 -0.15110126 227 3207766128872 1 0
7.970483 -6.573864 -1.6073742 7 3207766128872 1 0
9.478969 -8.6322565 -1.6318905 13 3207766131176 1 0
32.81738 -24.482117 0.23796299 6 3207766131176 1 0
9.956172 -9.069484 -0.07827485 13 3207766133480 1 0
9.065592 -9.110003 -1.199722 10 3207766135784 1 0
10.609957 -8.756026 -1.4817947 15 3207766133480 1 0
29.92295 -24.701683 0.902889 11 3207766135784 1 0
9.159475 -9.207025 0.1511944 218 3207766138088 1 0
16.73492 -13.81893 -1.5176219 4 3207766138088 1 0
14.173495 -12.922535 -1.5657779 3 3207766140392 1 0
29.086245 -26.526827 0.6871362 14 3207766142696 1 0
40.90076 -30.549461 1.4857118 24 3207766140392 1 0
18.4035 -13.7500515 -1.4723026 4 3207766142696 1 0
9.165926 -9.221552 -0.7572026 23 3207766145000 1 0
31.992981 -26.441826 2.417188 31 3207766145000 1 0
9.922462 -9.054633 0.5472687 31 3207766147304 1 0
22.914778 -18.944407 -1.3849523 4 3207766147304 1 0
44.861763 -37.099693 7.1478806 52 3207766149608 1 0
21.389263 -19.524237 -1.5177428 4 3207766149608 1 0
30.068153 -27.454393 3.3239014 20 3207766151912 1 0
21.941532 -16.413368 -1.1163565 3 3207766151912 1 0
9.147959 -9.214191 -0.45341426 26 3207766154216 1 0
0 0 0 9 3207766154216 1 0
29.970263 -27.381002 7.401477 24 3207766156520 1 0
0 0 0 16 3207766156520 1 0
0 0 0 4 3207766177256 1 0
21.926886 -16.457188 -0.47854498 10 3207766177256 1 1
0 0 0 75 3207766179560 1 0
0 0 0 1 3207766179560 1 0
6.109804 -5.599912 -1.6575834 3 3207766181864 1 0
29.988297 -24.902658 0 10 3207766181864 1 0
9.127029 -9.2279415 -0.15110126 113 3207766184168 1 0
7.9535675 -6.6066976 -1.6086041 6 3207766184168 1 0
9.445854 -8.66261 -1.6313854 13 3207766186472 1 0
32.575035 -24.478779 0.23682386 6 3207766186472 1 0
9.906768 -9.087958 -0.07813537 15 3207766188776 1 0
10.545684 -8.765046 -1.4770825 5 3207766188776 1 0
9.028138 -9.135927 -1.1989784 15 3207766191080 1 0
0 0 0 10 3207766191080 1 0
9.1104145 -9.2218685 0.150915 114 3207766193384 1 0
16.600677 -13.805821 -1.5098091 4 3207766193384 1 0
9.8965645 -9.086554 -1.096793 12 3207766195688 1 0
44.63108 -33.57904 1.6254627 27 3207766195688 1 0
9.882464 -9.076257 0.2342113 14 3207766197992 1 0
18.36496 -13.821409 -1.47307 4 3207766197992 1 0
29.64468 -24.675652 2.2462592 17 3207766200296 1 0
9.1420965 -9.262017 -0.7579003 15 3207766200296 1 0
9.867253 -9.067579 0.545966 28 3207766202600 1 0
22.854652 -19.029392 -1.3853246 4 3207766202600 1 0
0 0 0 81 3207766204904 1 0
44.860115 -37.362778 7.168355 53 3207766204904 1 0
21.85857 -16.470617 -1.1150538 3 3207766207208 1 0
30.001484 -27.586168 3.327156 20 3207766207208 1 0
9.1269655 -9.257455 -0.45397267 11 3207766209512 1 0
0 0 0 9 3207766209512 1 0
30.126448 -27.717249 7.463897 8 3207766211816 1 0
0 0 0 4 3207766232552 1 0
21.869307 -16.533627 -0.47854498 10 3207766232552 1 1
9.864521 -9.102187 -0.39062768 15 3207766234856 1 0
30.077423 -25.072906 -0.91117066 11 3207766211816 1 0
0 0 0 1 3207766234856 1 0
6.084455 -5.6158843 -1.6560144 12 3207766237160 1 0
0 0 0 89 3207766237160 1 0
0 0 0 100 3207766239464 1 0
7.9243946 -6.629348 -1.6073742 6 3207766239464 1 0
9.412643 -8.692838 -1.6308804 12 3207766241768 1 0
32.47982 -24.585094 0.23675412 6 3207766241768 1 0
9.85148 -9.10077 -0.07794939 23 3207766244072 1 0
10.481479 -8.773724 -1.4723703 7 3207766244072 1 0
9.021298 -9.192969 -1.2023245 10 3207766246376 1 0
29.777367 -24.933086 0.90372646 11 3207766246376 1 0
16.650274 -13.945672 -1.5187379 4 3207766248680 1 0
9.847223 -9.104804 -1.0948404 15 3207766250984 1 0
44.599636 -33.79983 1.6286044 27 3207766250984 1 0
9.841914 -9.102551 0.23400186 13 3207766253288 1 0
18.316603 -13.88543 -1.47307 4 3207766253288 1 0
9.100577 -9.276455 0.15128751 38 3207766248680 1 0
0 0 0 12 3207766255592 1 0
33.126545 -27.77021 2.5174196 11 3207766255592 1 0
9.835541 -9.101967 0.545966 27 3207766257896 1 0
22.818705 -19.134727 -1.3871858 4 3207766257896 1 0
0 0 0 118 3207766260200 1 0
29.893307 -27.67989 3.3258543 30 3207766262504 1 0
44.854134 -37.62375 7.188341 80 3207766260200 1 0
21.823229 -16.563732 -1.1161937 3 3207766262504 1 0
25.03251 -25.56831 -1.2495415 25 3207766264808 1 0
0 0 0 9 3207766264808 1 0
29.891712 -25.095463 -0.908193 64 3207766267112 1 0
30.133432 -27.918522 7.489726 24 3207766267112 1 0
0 0 0 4 3207766288296 1 0
9.844405 -9.147451 -0.39109313 4 3207766290600 1 0
21.817823 -16.61471 -0.4786846 3 3207766288296 1 1
0 0 0 1 3207766290600 1 0
6.067688 -5.6397595 -1.6567988 39 3207766292904 1 0
29.672983 -24.992872 0 21 3207766292904 1 0
28.429913 -29.148478 -0.4740249 54 3207766295208 1 0
7.904228 -6.6595154 -1.6079891 5 3207766295208 1 0
9.379337 -8.722939 -1.6303753 11 3207766297512 1 0
32.279293 -24.611013 0.2359172 6 3207766297512 1 0
9.939725 -9.246805 -0.07890254 11 3207766299816 1 0
10.417341 -8.782061 -1.4676579 4 3207766299816 1 0
9.003052 -9.238665 -1.2041833 16 3207766302120 1 0
29.567871 -24.93376 0.9000044 17 3207766302120 1 0
0 0 0 7 3207766304424 1 0
16.598444 -14.001135 -1.518459 4 3207766304424 1 0
0 0 0 19 3207766306728 1 0
44.60215 -34.047497 1.6330262 27 3207766306728 1 0
28.970758 -26.982601 0.69104546 28 3207766309032 1 0
18.277538 -13.956551 -1.4738375 4 3207766309032 1 0
17.74499 -18.230589 -1.4816148 3 3207766311336 1 0
29.532715 -24.933527 2.2509103 26 3207766311336 1 0
9.95575 -9.277933 0.55443317 5 3207766313640 1 0
22.742615 -19.20653 -1.3866274 4 3207766313640 1 0
9.823364 -9.15723 -0.7038139 86 3207766315944 1 0
30.161777 -25.479656 4.8479624 22 3207766315944 1 0
30.105577 -28.072268 3.3603528 20 3207766318248 1 0
21.82243 -16.6835 -1.1191245 3 3207766318248 1 0
25.03228 -25.747252 -1.2540088 12 3207766320552 1 0
0 0 0 9 3207766320552 1 0
0 0 0 29 3207766322856 1 0
29.675676 -25.091211 -0.9042848 23 3207766322856 1 0
0 0 0 4 3207766343592 1 0
21.791428 -16.715109 -0.4793827 3 3207766343592 1 1
26.973007 -25.23979 -1.0750698 36 3207766345896 1 0
0 0 0 1 3207766345896 1 0
6.0536094 -5.6663537 -1.6583678 43 3207766348200 1 0
29.606548 -25.114841 0 10 3207766348200 1 0
28.391356 -29.314238 -0.4750959 49 3207766350504 1 0
7.883802 -6.689795 -1.6086041 6 3207766350504 1 0
9.336992 -8.745048 -1.628355 14 3207766352808 1 0
31.973581 -24.556364 0.23431312 6 3207766352808 1 0
9.965429 -9.336501 -0.079367496 5 3207766355112 1 0
10.362049 -8.798156 -1.4642309 40 3207766355112 1 0
9.003577 -9.304772 -1.2086446 5 3207766357416 1 0
29.491755 -25.04846 0.90037656 11 3207766357416 1 0
28.356758 -29.314327 0.4748165 33 3207766359720 1 0
16.551794 -14.062415 -1.5187379 4 3207766359720 1 0
14.014188 -13.141799 -1.5683815 3 3207766362024 1 0
28.927128 -27.134706 0.69230205 28 3207766364328 1 0
44.60465 -34.300625 1.6375643 27 3207766362024 1 0
18.227793 -14.021459 -1.4738375 4 3207766364328 1 0
0 0 0 32 3207766366632 1 0
30.265024 -25.737068 2.3137004 37 3207766366632 1 0
9.972098 -9.359921 0.55720127 6 3207766368936 1 0
22.686064 -19.297968 -1.387372 4 3207766368936 1 0
0 0 0 17 3207766371240 1 0
29.976686 -25.507648 4.8328505 15 3207766371240 1 0
34.558487 -32.456833 3.8703454 15 3207766373544 1 0
22.16777 -17.073793 -1.1399667 3 3207766373544 1 0
25.805834 -26.734392 -1.2975633 6 3207766375848 1 0
0 0 0 9 3207766375848 1 0
0 0 0 29 3207766378152 1 0
0 0 0 4 3207766398888 1 0
21.850266 -16.887804 -0.48203546 3 3207766398888 1 1
26.813585 -25.275208 -1.0723934 36 3207766401192 1 0
0 0 0 1 3207766401192 1 0
29.658228 -25.260103 -0.90651804 23 3207766378152 1 0
6.0271754 -5.683034 -1.6567988 37 3207766403496 1 0
31.710173 -27.099003 0 12 3207766403496 1 0
28.386934 -29.524162 -0.47681877 54 3207766405800 1 0
7.859376 -6.7184744 -1.6086041 6 3207766405800 1 0
9.308019 -8.781663 -1.6288601 14 3207766408104 1 0
31.893572 -24.679806 0.23438285 6 3207766408104 1 0
28.924646 -27.29695 -0.23115143 60 3207766410408 1 0
9.00293 -9.371783 -1.213106 2 3207766412712 1 0
10.290765 -8.802094 -1.4586618 35 3207766410408 1 0
29.49808 -25.238293 0.9033543 5 3207766412712 1 0
28.358671 -29.529133 0.4766325 33 3207766415016 1 0
16.506924 -14.127336 -1.519296 4 3207766415016 1 0
13.978288 -13.203213 -1.5696834 3 3207766417320 1 0
38.974686 -30.195564 1.4348615 7 3207766417320 1 0
28.884497 -27.290846 0.69362843 35 3207766419624 1 0
18.25608 -14.148114 -1.4802333 4 3207766419624 1 0
13.129693 -13.683547 -1.1044089 84 3207766421928 1 1
30.03893 -25.731325 2.303468 27 3207766421928 1 0
9.96752 -9.423069 0.55882955 2 3207766424232 1 0
22.628868 -19.389578 -1.3881165 4 3207766424232 1 0
0 0 0 8 3207766426536 1 0
30.072126 -25.77493 4.8630743 7 3207766426536 1 0
34.283077 -32.429344 3.8524451 15 3207766428840 1 0
22.128769 -17.169989 -1.1411065 3 3207766428840 1 0
0 0 0 26 3207766431144 1 0
0 0 0 9 3207766431144 1 0
9.768589 -9.245773 2.452331 1 3207766433448 1 0
29.613739 -25.404467 -0.90791386 88 3207766433448 1 0
0 0 0 4 3207766454184 1 0
21.89217 -17.04259 -0.48426938 3 3207766454184 1 1
26.661581 -25.307898 -1.0698335 29 3207766456488 1 0
0 0 0 1 3207766456488 1 0
6.0102286 -5.7066517 -1.6575834 45 3207766458792 1 0
0 0 0 54 3207766458792 1 0
28.383787 -29.726597 -0.4784951 36 3207766461096 1 0
7.839019 -6.7482753 -1.609219 6 3207766461096 1 0
9.2833185 -8.819297 -1.6298702 13 3207766463400 1 0
31.852118 -24.824482 0.23470832 6 3207766463400 1 0
28.891073 -27.454563 -0.23163964 49 3207766465704 1 0
10.239205 -8.819421 -1.4556631 31 3207766465704 1 0
9.053047 -9.48921 -1.2242593 2 3207766468008 1 0
0 0 0 82 3207766468008 1 0
28.348028 -29.72202 0.47816914 33 3207766470312 1 0
16.458231 -14.1840315 -1.519296 4 3207766470312 1 0
13.941552 -13.259358 -1.5706598 3 3207766472616 1 0
38.656456 -30.161913 1.4269489 7 3207766472616 1 0
28.848803 -27.444754 0.6950246 21 3207766474920 1 0
13.033259 -13.67631 -1.1002228 78 3207766477224 1 1
30.020355 -25.893833 2.308817 27 3207766477224 1 0
29.921766 -28.481253 1.6830018 26 3207766479528 1 0
18.213808 -14.215474 -1.480745 4 3207766474920 1 0
20.98841 -19.983501 -1.5187894 4 3207766481832 1 0
22.568655 -19.471865 -1.3884888 4 3207766479528 1 0
44.87716 -38.73009 7.278525 84 3207766481832 1 0
33.993755 -32.37512 3.8322666 14 3207766484136 1 0
13.015015 -13.672287 -0.6591817 80 3207766486440 1 1
22.208899 -17.353315 -1.148271 11 3207766484136 1 0
0 0 0 9 3207766486440 1 0
9.691688 -9.235318 2.4408514 1 3207766488744 1 0
29.261349 -25.274433 -0.8997252 40 3207766488744 1 0
0 0 0 4 3207766509480 1 0
21.97718 -17.226118 -0.4874108 3 3207766509480 1 1
26.51662 -25.338358 -1.0673898 29 3207766511784 1 0
0 0 0 1 3207766511784 1 0
5.9855175 -5.7212176 -1.6560144 45 3207766514088 1 0
29.38462 -25.459742 0 59 3207766514088 1 0
28.383492 -29.925646 -0.4801714 46 3207766516392 1 0
7.81645 -6.774404 -1.609219 7 3207766516392 1 0
9.253764 -8.850302 -1.6298702 13 3207766518696 1 0
31.797216 -24.95312 0.23491755 6 3207766518696 1 0
28.845114 -27.595507 -0.2320116 60 3207766521000 1 0
0 0 0 8 3207766521000 1 0
11.911268 -12.569421 -1.6164832 3 3207766523304 1 0
29.050716 -25.20004 0.8948865 100 3207766523304 1 0
28.34682 -29.92183 0.47984543 28 3207766525608 1 0
16.416409 -14.2445965 -1.5198541 4 3207766525608 1 0
13.893852 -13.303568 -1.5703343 3 3207766527912 1 0
38.53245 -30.274889 1.4261343 15 3207766527912 1 0
28.813597 -27.597479 0.69642085 42 3207766530216 1 0
18.175049 -14.284384 -1.4815124 4 3207766530216 1 0
12.956642 -13.688498 -1.0976647 84 3207766532520 1 1
30.004791 -26.05826 2.314398 27 3207766532520 1 0
29.709446 -28.472092 1.6764886 35 3207766534824 1 0
22.526527 -19.56936 -1.3899777 4 3207766534824 1 0
20.949114 -20.08246 -1.5208828 4 3207766537128 1 0
30.090778 -26.148294 4.89476 15 3207766537128 1 0
33.713364 -32.32807 3.8130646 14 3207766539432 1 0
22.115034 -17.401773 -1.1464798 11 3207766539432 1 0
12.921519 -13.667309 -0.65680856 85 3207766541736 1 1
0 0 0 9 3207766541736 1 0
9.708269 -9.314775 2.4530485 3 3207766544040 1 0
29.11426 -25.322025 -0.89786416 28 3207766544040 1 0
0 0 0 4 3207766564776 1 0
21.995394 -17.364683 -0.48915604 3 3207766564776 1 1
0 0 0 1 3207766567080 1 0
26.364628 -25.369772 -1.06483 36 3207766567080 1 0
5.9683366 -5.7447963 -1.6567988 35 3207766569384 1 0
29.358864 -25.617386 0 69 3207766569384 1 0
28.317251 -30.065304 -0.4808233 4 3207766571688 1 0
7.7897773 -6.799048 -1.6086041 6 3207766571688 1 0
9.225673 -8.885302 -1.6303753 16 3207766573992 1 0
28.803343 -27.748755 -0.2324533 55 3207766576296 1 0
31.82289 -25.153254 0.23575446 6 3207766573992 1 0
10.133681 -8.850041 -1.4492372 3 3207766576296 1 0
11.8509445 -12.593519 -1.6142526 3 3207766578600 1 0
28.338125 -30.122559 0.4814752 40 3207766580904 1 0
0 0 0 5 3207766578600 1 0
16.378605 -14.312316 -1.5209701 4 3207766580904 1 0
13.8588085 -13.363055 -1.5716362 3 3207766583208 1 0
38.583305 -30.533266 1.4319525 23 3207766583208 1 0
28.768904 -27.747866 0.6976774 57 3207766585512 1 0
18.121946 -14.345262 -1.4812566 4 3207766585512 1 0
12.870493 -13.692905 -1.094409 90 3207766587816 1 1
30.003822 -26.241705 2.321375 27 3207766587816 1 0
29.480465 -28.450731 1.6691613 35 3207766590120 1 0
22.45808 -19.647873 -1.3899777 4 3207766590120 1 0
20.881758 -20.158237 -1.5210922 4 3207766592424 1 0
30.151691 -26.386517 4.9196215 15 3207766592424 1 0
33.45405 -32.304317 3.7964664 14 3207766594728 1 0
25.853573 -20.490065 -1.3439915 5 3207766594728 1 0
12.8408985 -13.677358 -0.65513337 90 3207766597032 1 1
0 0 0 9 3207766597032 1 0
0 0 0 106 3207766599336 1 0
28.905365 -25.318106 -0.89414203 34 3207766599336 1 0
0 0 0 4 3207766620072 1 0
31.735897 -25.23483 -0.70773 13 3207766620072 1 0
26.21274 -25.400434 -1.0622699 43 3207766622376 1 0
0 0 0 1 3207766622376 1 0
5.951063 -5.7683244 -1.6575834 11 3207766624680 1 0
29.272268 -25.722351 0 43 3207766624680 1 0
12.696279 -13.574661 -0.21638446 1 3207766626984 1 1
7.7778716 -6.8366356 -1.6110637 7 3207766626984 1 0
9.1946 -8.917452 -1.6303753 20 3207766629288 1 0
31.734896 -25.264183 0.23575446 6 3207766629288 1 0
28.760855 -27.902046 -0.232895 61 3207766631592 1 0
10.066892 -8.853843 -1.4440966 3 3207766631592 1 0
8.709705 -9.320428 -1.1907994 16 3207766633896 1 0
29.264393 -25.745619 0.9069833 23 3207766633896 1 0
28.39117 -30.390812 0.48417592 40 3207766636200 1 0
16.32555 -14.366765 -1.5206912 4 3207766636200 1 0
13.82352 -13.422459 -1.572938 3 3207766638504 1 0
38.27013 -30.503283 1.4242725 22 3207766638504 1 0
28.732117 -27.906633 0.6991434 43 3207766640808 1 0
18.081125 -14.415897 -1.4820241 4 3207766640808 1 0
12.798095 -13.711476 -1.0923159 90 3207766643112 1 1
30.05288 -26.470327 2.332305 28 3207766643112 1 0
29.274927 -28.450401 1.6631366 35 3207766645416 1 0
22.46731 -19.794825 -1.394817 9 3207766645416 1 0
20.8886 -20.306183 -1.5267445 4 3207766647720 1 0
29.93728 -26.38398 4.8996353 23 3207766647720 1 0
33.115284 -32.201332 3.770755 14 3207766650024 1 0
25.828745 -20.617586 -1.346434 5 3207766650024 1 0
12.763092 -13.689934 -0.6535978 87 3207766652328 1 1
0 0 0 9 3207766652328 1 0
0 0 0 115 3207766654632 1 0
28.68486 -25.302456 -0.8900477 40 3207766654632 1 0
0 0 0 4 3207766675368 1 0
31.70693 -25.392956 -0.7090564 13 3207766675368 1 0
26.06096 -25.430346 -1.05971 35 3207766677672 1 0
0 0 0 1 3207766677672 1 0
5.9533467 -5.8109803 -1.6638591 3 3207766679976 1 0
29.272167 -25.903898 0 59 3207766679976 1 0
12.749529 -13.727332 -0.21810733 1 3207766682280 1 1
7.777636 -6.8847017 -1.615983 11 3207766682280 1 0
9.160578 -8.94672 -1.6298702 14 3207766684584 1 0
31.72453 -25.437359 0.23633566 6 3207766684584 1 0
28.714785 -28.052584 -0.23331346 16 3207766686888 1 0
10.0091305 -8.865197 -1.4402411 16 3207766686888 1 0
0 0 0 252 3207766689192 1 0
29.222237 -25.890043 0.9084721 17 3207766689192 1 0
28.382841 -30.595293 0.48585224 41 3207766691496 1 0
16.287247 -14.43425 -1.5218072 4 3207766691496 1 0
38.035583 -30.534061 1.4195017 15 3207766693800 1 0
9.406729 -9.197824 -1.0740111 13 3207766693800 1 0
28.691713 -28.062687 0.7005396 58 3207766696104 1 0
12.712151 -13.715064 -1.0890602 92 3207766698408 1 1
18.043144 -14.488922 -1.4830474 4 3207766696104 1 0
29.972246 -26.58567 2.3332353 18 3207766698408 1 0
29.066895 -28.446192 1.6569492 35 3207766700712 1 0
22.395086 -19.870478 -1.3946308 4 3207766700712 1 0
20.829008 -20.390152 -1.5275819 4 3207766703016 1 0
29.910328 -26.546297 4.9103594 15 3207766703016 1 0
32.848858 -32.166107 3.7531805 14 3207766705320 1 0
25.741045 -20.695099 -1.3456199 5 3207766705320 1 0
0 0 0 9 3207766707624 1 0
12.679922 -13.696267 -0.651783 82 3207766707624 1 1
9.326302 -9.1377735 2.3805835 117 3207766709928 1 0
28.497704 -25.314789 -0.886977 39 3207766709928 1 0
0 0 0 4 3207766730664 1 0
31.723938 -25.58885 -0.7114299 13 3207766730664 1 0
25.895033 -25.445498 -1.0565681 35 3207766732968 1 0
0 0 0 1 3207766732968 1 0
5.9078507 -5.80698 -1.6567988 3 3207766735272 1 0
29.208445 -26.029871 0 75 3207766735272 1 0
12.804578 -13.883479 -0.21987678 1 3207766737576 1 1
7.762408 -6.919699 -1.6178277 44 3207766737576 1 0
9.1292925 -8.9786415 -1.6298702 16 3207766739880 1 0
0 0 0 1 3207766739880 1 0
28.676567 -28.211555 -0.23380166 16 3207766742184 1 0
9.966252 -8.889493 -1.4385276 47 3207766742184 1 0
8.682209 -9.4220085 -1.1960043 209 3207766744488 1 0
29.182411 -26.037148 0.910054 29 3207766744488 1 0
28.37885 -30.805967 0.4876217 41 3207766746792 1 0
16.236761 -14.491015 -1.5218072 4 3207766746792 1 0
9.286501 -9.143891 -1.0639218 16 3207766749096 1 0
44.507774 -35.985985 1.6657239 9 3207766749096 1 0
28.642021 -28.210379 0.7017264 50 3207766751400 1 0
17.998667 -14.556837 -1.4835591 4 3207766751400 1 0
12.623634 -13.715282 -1.0855718 84 3207766753704 1 1
9.872396 -8.818677 0.77092344 1 3207766753704 1 0
28.853556 -28.435266 1.6504359 34 3207766756008 1 0
22.349426 -19.969828 -1.3961198 4 3207766756008 1 0
20.763395 -20.468342 -1.5280006 4 3207766758312 1 0
29.903326 -26.727268 4.9244967 23 3207766758312 1 0
32.563213 -32.109825 3.7333274 13 3207766760616 1 0
25.681072 -20.794886 -1.3462712 5 3207766760616 1 0
12.607687 -13.713959 -0.65052664 75 3207766762920 1 1
0 0 0 9 3207766762920 1 0
9.201909 -9.079067 2.356907 118 3207766765224 1 0
28.29591 -25.312796 -0.88344103 33 3207766765224 1 0
0 0 0 4 3207766785960 1 0
31.165697 -25.318644 -0.70088863 6 3207766785960 1 0
9.265169 -9.168116 -0.37934056 2 3207766788264 1 0
0 0 0 1 3207766788264 1 0
5.8875446 -5.827567 -1.6567988 4 3207766790568 1 0
29.194805 -26.201132 0 60 3207766790568 1 0
7.6970296 -6.909788 -1.609219 78 3207766792872 1 0
0 0 0 28 3207766792872 1 0
9.086618 -8.999286 -1.6278499 14 3207766795176 1 0
0 0 0 8 3207766795176 1 0
9.246549 -9.160342 -0.07564787 11 3207766797480 1 0
9.899657 -8.892336 -1.4333869 42 3207766797480 1 0
0 0 0 100 3207766799784 1 0
29.14489 -26.186964 0.911729 29 3207766799784 1 0
28.365633 -31.008131 0.48925143 42 3207766802088 1 0
16.192015 -14.552938 -1.5223653 4 3207766802088 1 0
9.212062 -9.134146 -1.05904 11 3207766804392 1 0
50.40592 -41.046623 1.8918157 36 3207766804392 1 0
9.248485 -9.172929 0.22736995 31 3207766806696 1 0
17.957027 -14.627138 -1.4843266 4 3207766806696 1 0
0 0 0 85 3207766809000 1 0
0 0 0 24 3207766809000 1 0
9.23105 -9.160963 0.52984595 3 3207766811304 1 0
22.282553 -20.050394 -1.3963059 4 3207766811304 1 0
0 0 0 42 3207766813608 1 0
29.892473 -26.905857 4.9381456 15 3207766813608 1 0
0 0 0 68 3207766815912 1 0
25.68576 -20.94755 -1.3503419 5 3207766815912 1 0
